-26.273147;;-26.273147;;-30.040712;;-35.410264;;-42.01029;;-49.300831;;-56.775654;;-62.345129;;-63.964599;;-64.297275;;-65.572213;;-68.463762;;-72.101199;;-74.410024;;-79.252345;;-96.20069;;-120.99175;;-153.74435;;-195.55409;;-247.5723;;-310.56602;;-385.53524;;-472.51445;;-569.80454;;-672.57683;;-771.51533;;-857.37201;;-928.98913;;-989.60773;;-1043.5568;;-1095.5526;;-1149.4401;;-1205.7817;;-1261.3268;;-1312.0628;;-1356.4986;;-1395.7086;;-1431.2303;;-1463.9298;;-1494.1262;;-1521.6484;;-1546.0619;;-1567.5067;;-1587.2566;;-1607.4104;;-1629.9817;;-1655.7781;;-1684.0254;;-1713.5071;;-1743.9354;;-1775.7258;;-1808.6358;;-1840.8446;;-1869.1937;;-1890.8278;;-1905.1592;;-1913.7375;;-1918.5543;;-1921.8187;;-1926.2378;;-1932.9784;;-1940.0608;;-1944.7299;;-1946.5235;;-1946.5235
-27.569112;;-27.569112;;-31.447941;;-36.935633;;-43.579626;;-50.896472;;-57.797647;;-62.738008;;-65.30967;;-66.938167;;-68.699475;;-71.163186;;-74.072611;;-76.29391;;-78.48765;;-93.493668;;-116.70256;;-147.90133;;-188.01297;;-238.33124;;-299.47508;;-372.49825;;-457.66197;;-553.68231;;-656.50303;;-757.94296;;-848.74338;;-926.43989;;-993.2659;;-1052.1298;;-1105.8288;;-1157.2535;;-1208.2787;;-1258.3598;;-1305.5315;;-1348.6386;;-1387.9215;;-1423.8864;;-1456.7442;;-1486.8668;;-1514.8917;;-1541.2031;;-1565.7012;;-1588.4251;;-1610.5021;;-1633.9433;;-1659.8999;;-1687.5805;;-1715.5662;;-1743.8288;;-1773.7555;;-1806.1772;;-1839.4513;;-1869.5013;;-1892.4649;;-1907.5488;;-1916.5193;;-1921.264;;-1923.7387;;-1926.8092;;-1932.1975;;-1938.4259;;-1942.8473;;-1944.6983;;-1944.6983
-29.103718;;-29.103718;;-33.089317;;-38.672096;;-45.373859;;-52.216609;;-58.439577;;-63.238804;;-66.912846;;-69.782666;;-72.147146;;-74.391913;;-76.704662;;-78.791807;;-80.137839;;-91.827524;;-113.32674;;-143.12904;;-181.79808;;-230.59071;;-290.22484;;-361.66143;;-445.38989;;-540.49888;;-643.60853;;-747.50635;;-842.70889;;-924.80131;;-995.0077;;-1055.8872;;-1109.5343;;-1158.329;;-1205.0255;;-1251.1245;;-1296.2629;;-1339.4309;;-1379.8713;;-1416.9161;;-1450.1601;;-1480.245;;-1508.8278;;-1537.2537;;-1565.3579;;-1592.0763;;-1617.3394;;-1642.5019;;-1668.5046;;-1694.6951;;-1720.2398;;-1746.0212;;-1774.3439;;-1806.6031;;-1840.9733;;-1872.4076;;-1896.0244;;-1910.8;;-1919.0546;;-1923.2858;;-1925.4833;;-1927.9992;;-1932.2166;;-1937.0461;;-1940.5021;;-1941.9875;;-1941.9875
-30.96441;;-30.96441;;-34.89526;;-40.452434;;-46.938718;;-53.253179;;-58.817382;;-63.786205;;-68.252062;;-71.961235;;-74.820965;;-77.126725;;-79.44537;;-81.996286;;-83.896335;;-91.177044;;-111.06226;;-139.6636;;-177.16426;;-224.7282;;-283.27157;;-353.5737;;-436.32559;;-530.9094;;-634.43807;;-740.29539;;-838.34852;;-921.86822;;-991.62027;;-1051.1239;;-1102.9959;;-1149.3979;;-1193.1141;;-1236.6289;;-1280.905;;-1325.4263;;-1368.6733;;-1408.6117;;-1443.8286;;-1474.8533;;-1504.1333;;-1534.1819;;-1565.4391;;-1596.2678;;-1625.188;;-1652.2777;;-1678.1391;;-1702.8099;;-1726.5202;;-1750.7991;;-1778.0279;;-1809.5561;;-1843.5968;;-1874.8831;;-1897.8651;;-1911.0035;;-1917.1647;;-1920.2592;;-1922.934;;-1926.4564;;-1930.6889;;-1934.3925;;-1936.5887;;-1937.4106;;-1937.4106
-34.656597;;-34.656597;;-37.995981;;-43.23001;;-49.003075;;-54.464532;;-59.502185;;-64.490262;;-69.191755;;-73.174539;;-76.226317;;-78.694991;;-81.507109;;-85.055171;;-87.883954;;-91.241442;;-109.46536;;-136.85472;;-173.25132;;-219.69086;;-277.26325;;-346.5494;;-428.39566;;-522.41024;;-626.04616;;-732.98452;;-832.13876;;-914.3094;;-980.67536;;-1036.725;;-1086.179;;-1131.0559;;-1173.5151;;-1216.1028;;-1260.7625;;-1307.8021;;-1355.3169;;-1399.8943;;-1438.7653;;-1471.8338;;-1501.8846;;-1532.5916;;-1565.5979;;-1599.4049;;-1631.329;;-1660.0411;;-1685.9383;;-1710.1154;;-1733.842;;-1758.5924;;-1785.8254;;-1816.172;;-1848.0036;;-1876.6822;;-1896.8181;;-1906.5753;;-1909.3748;;-1910.9134;;-1914.8073;;-1920.8006;;-1926.3639;;-1929.6477;;-1930.8202;;-1931.0327;;-1931.0327
-40.196979;;-40.196979;;-43.063129;;-47.670015;;-52.554993;;-57.197746;;-61.758946;;-66.248007;;-70.39301;;-73.880599;;-76.56077;;-78.900595;;-82.09791;;-86.472998;;-89.917853;;-91.056498;;-107.459;;-133.56353;;-168.75405;;-213.8808;;-270.12915;;-337.96992;;-418.33856;;-511.02552;;-613.75882;;-720.47811;;-819.44063;;-899.22094;;-961.84442;;-1014.9605;;-1063.2441;;-1108.4586;;-1151.8731;;-1195.5483;;-1241.8893;;-1291.9047;;-1343.6187;;-1392.7087;;-1435.3522;;-1470.7813;;-1501.7373;;-1532.5728;;-1565.9712;;-1600.9687;;-1634.4157;;-1664.1791;;-1690.6265;;-1715.6784;;-1741.212;;-1768.2145;;-1796.8013;;-1826.3915;;-1855.164;;-1879.3869;;-1894.7584;;-1899.9999;;-1899.2041;;-1899.4095;;-1904.7808;;-1913.4553;;-1920.6532;;-1924.0208;;-1924.7675;;-1924.7857;;-1924.7857
-47.103301;;-47.103301;;-49.660132;;-53.729951;;-58.121988;;-62.70826;;-66.998585;;-70.36961;;-72.905436;;-74.860699;;-76.355281;;-77.978144;;-80.939018;;-85.320003;;-88.68123;;-89.061759;;-104.01322;;-128.79636;;-162.47177;;-205.76382;;-259.89811;;-325.3436;;-403.08134;;-493.09559;;-593.47689;;-698.75988;;-797.66868;;-877.34406;;-939.47053;;-992.97642;;-1042.9464;;-1090.6778;;-1136.6052;;-1182.3075;;-1230.3809;;-1282.2568;;-1336.126;;-1387.5559;;-1432.4801;;-1469.8104;;-1501.9868;;-1533.2378;;-1566.4367;;-1601.0778;;-1634.4605;;-1664.6809;;-1692.2506;;-1719.2896;;-1747.6656;;-1777.7233;;-1808.3204;;-1837.6041;;-1863.3576;;-1882.8568;;-1893.5925;;-1895.5291;;-1893.0396;;-1893.0832;;-1899.4392;;-1909.242;;-1916.8416;;-1920.0679;;-1920.8043;;-1921.015;;-1921.015
-54.617354;;-54.772983;;-57.09988;;-60.763565;;-65.372902;;-70.617479;;-75.004563;;-77.09815;;-77.226136;;-76.650582;;-76.171157;;-76.525675;;-78.643835;;-82.261505;;-85.041001;;-85.4997;;-99.166975;;-122.37235;;-154.03931;;-194.80918;;-245.93065;;-307.96303;;-381.9145;;-468.04884;;-565.02676;;-668.50692;;-769.05747;;-853.685;;-921.10128;;-979.6014;;-1034.0544;;-1085.2473;;-1133.2165;;-1179.6299;;-1227.5001;;-1278.6345;;-1331.6287;;-1382.6751;;-1428.2107;;-1467.0762;;-1501.0348;;-1533.3628;;-1566.3062;;-1599.6778;;-1631.9257;;-1662.1901;;-1691.2443;;-1720.8912;;-1752.4675;;-1785.4982;;-1817.6943;;-1846.2706;;-1869.111;;-1884.9972;;-1893.5323;;-1895.7185;;-1895.0298;;-1896.5666;;-1902.9028;;-1911.2942;;-1917.1153;;-1919.2208;;-1919.7531;;-1920.1564;;-1920.1564
-61.725316;;-61.883852;;-63.88491;;-67.685196;;-73.35434;;-79.815629;;-84.564983;;-85.37264;;-82.840473;;-79.314895;;-76.470676;;-75.254349;;-76.214927;;-78.687307;;-80.784714;;-81.871047;;-94.031011;;-115.38335;;-144.70415;;-182.56741;;-230.20589;;-288.48053;;-358.34469;;-440.42652;;-534.08374;;-636.33029;;-740.10668;;-833.74106;;-911.48268;;-978.5848;;-1038.8561;;-1092.704;;-1140.6621;;-1185.3048;;-1230.3159;;-1277.9081;;-1327.365;;-1376.0249;;-1421.2409;;-1461.739;;-1498.0926;;-1532.0102;;-1564.7999;;-1596.674;;-1627.5178;;-1657.7565;;-1688.4222;;-1720.7511;;-1755.2623;;-1790.549;;-1823.3798;;-1850.6164;;-1870.9914;;-1885.1574;;-1894.4629;;-1900.0882;;-1903.624;;-1907.4689;;-1912.8226;;-1917.8832;;-1920.2262;;-1920.2755;;-1920.2424;;-1920.7234;;-1920.7234
-66.450657;;-66.450657;;-68.608068;;-73.28326;;-80.45591;;-88.271588;;-93.475459;;-93.118433;;-88.386524;;-82.376763;;-77.403431;;-74.663892;;-74.375748;;-75.620167;;-77.118239;;-79.266028;;-90.246423;;-109.81824;;-136.85088;;-171.91532;;-216.259;;-271.25394;;-337.75321;;-416.60349;;-507.72314;;-609.20394;;-715.9107;;-818.30951;;-907.9563;;-985.25443;;-1051.5537;;-1107.0098;;-1153.508;;-1194.9772;;-1235.617;;-1277.9942;;-1322.3897;;-1367.6065;;-1412.0001;;-1454.0607;;-1492.9278;;-1528.6138;;-1561.5977;;-1592.5575;;-1622.622;;-1653.2573;;-1685.6162;;-1720.2017;;-1756.6004;;-1792.7939;;-1825.3949;;-1851.6444;;-1871.214;;-1885.8406;;-1897.4066;;-1906.6218;;-1913.5901;;-1918.8415;;-1922.6424;;-1924.1177;;-1922.9566;;-1921.1437;;-1920.8838;;-1921.7156;;-1921.7156
-68.758139;;-68.758139;;-71.104006;;-76.512033;;-84.699551;;-93.381826;;-98.904721;;-97.948064;;-92.137548;;-84.856064;;-78.634888;;-74.776481;;-73.341155;;-73.392401;;-74.370287;;-77.835753;;-88.776778;;-106.99777;;-132.11335;;-164.83476;;-206.43212;;-258.51026;;-322.37014;;-398.66934;;-487.58045;;-587.85835;;-695.70515;;-803.72843;;-903.57735;;-991.14539;;-1063.7733;;-1120.9545;;-1166.2483;;-1204.8755;;-1241.2095;;-1278.1972;;-1317.3787;;-1358.9978;;-1402.1721;;-1445.1181;;-1485.8336;;-1523.0864;;-1556.8569;;-1588.1656;;-1618.7945;;-1650.6417;;-1684.6618;;-1720.4908;;-1756.9537;;-1792.3235;;-1824.403;;-1851.4086;;-1872.9977;;-1890.0574;;-1903.5379;;-1913.8026;;-1921.0511;;-1925.6965;;-1927.745;;-1926.7864;;-1923.7907;;-1921.6497;;-1922.2242;;-1923.9155;;-1923.9155
-70.324201;;-70.483411;;-72.197597;;-77.145258;;-85.03871;;-93.486393;;-98.859644;;-98.172592;;-92.793491;;-85.777782;;-79.530365;;-75.282791;;-73.017936;;-72.090433;;-72.752782;;-77.777389;;-89.492407;;-106.92605;;-130.40785;;-161.0517;;-200.30229;;-249.77713;;-311.1797;;-385.19979;;-471.86139;;-570.32282;;-677.74066;;-788.50785;;-895.47516;;-991.65947;;-1070.3101;;-1129.7412;;-1174.7736;;-1211.5063;;-1244.4067;;-1277.0106;;-1312.1469;;-1351.0522;;-1393.0822;;-1436.1458;;-1477.6461;;-1515.857;;-1550.7469;;-1583.5896;;-1616.1335;;-1649.8284;;-1684.9218;;-1720.2924;;-1754.72;;-1787.977;;-1820.1593;;-1850.3991;;-1876.7976;;-1897.5261;;-1911.8896;;-1920.6623;;-1925.5861;;-1928.1343;;-1928.5192;;-1926.5991;;-1923.9085;;-1923.2786;;-1925.6064;;-1928.348;;-1928.348
-71.306498;;-71.466493;;-72.235271;;-75.893584;;-82.649191;;-90.116741;;-94.859492;;-94.609387;;-90.507617;;-84.931378;;-79.745227;;-75.870333;;-73.321726;;-71.961938;;-72.83727;;-79.4604;;-92.137549;;-109.53979;;-131.80555;;-160.43177;;-197.57076;;-245.01159;;-304.38823;;-376.81116;;-461.89791;;-558.963;;-665.71453;;-777.53987;;-887.94517;;-988.58906;;-1070.5057;;-1131.1454;;-1175.8126;;-1211.0388;;-1241.6028;;-1271.7295;;-1305.0384;;-1343.0075;;-1384.6712;;-1427.577;;-1468.9917;;-1507.3394;;-1543.0429;;-1577.6982;;-1612.5824;;-1647.9457;;-1682.9062;;-1716.022;;-1747.0528;;-1778.1095;;-1811.6657;;-1847.001;;-1879.5259;;-1904.1068;;-1918.8113;;-1925.6116;;-1928.141;;-1928.845;;-1928.1233;;-1926.202;;-1924.9652;;-1926.6054;;-1930.736;;-1934.2542;;-1934.2542
-71.167806;;-71.328344;;-71.296269;;-73.789156;;-79.377325;;-85.672899;;-89.537982;;-89.532048;;-86.833092;;-83.121696;;-79.502624;;-76.511766;;-74.322185;;-73.298265;;-74.939373;;-82.548319;;-95.849852;;-113.54787;;-135.39209;;-162.66818;;-198.62597;;-245.30406;;-304.1826;;-376.50924;;-461.67429;;-558.85892;;-665.73406;;-777.50589;;-887.22319;;-986.26873;;-1066.0881;;-1124.5428;;-1166.9798;;-1200.3291;;-1230.0314;;-1260.4837;;-1294.8132;;-1333.7737;;-1375.8883;;-1418.6255;;-1459.5262;;-1497.459;;-1533.3753;;-1569.1538;;-1605.556;;-1641.5824;;-1675.344;;-1705.59;;-1733.5768;;-1763.5328;;-1799.3432;;-1839.659;;-1877.3675;;-1904.9982;;-1920.3163;;-1926.6746;;-1928.925;;-1929.6352;;-1928.9913;;-1927.5177;;-1927.4246;;-1930.434;;-1935.3775;;-1939.0791;;-1939.0791
-69.83987;;-70.000711;;-69.645897;;-71.578778;;-76.398696;;-81.706155;;-84.763905;;-84.925528;;-83.468739;;-81.452937;;-79.315321;;-77.382852;;-76.06173;;-75.989238;;-78.504055;;-86.259398;;-99.543548;;-117.22813;;-139.02095;;-166.42808;;-203.05812;;-250.84304;;-311.18465;;-385.25863;;-472.28316;;-571.22397;;-679.14431;;-789.98035;;-895.22795;;-986.85913;;-1059.0389;;-1111.131;;-1148.6138;;-1179.4462;;-1210.1806;;-1244.2706;;-1282.3642;;-1323.4717;;-1366.042;;-1408.3666;;-1448.7369;;-1486.3459;;-1522.1761;;-1558.0262;;-1594.4078;;-1629.8789;;-1662.3337;;-1690.99;;-1718.0477;;-1748.4632;;-1786.1507;;-1829.0639;;-1869.1092;;-1898.3683;;-1915.0582;;-1923.2355;;-1927.7755;;-1930.598;;-1931.3895;;-1930.6805;;-1930.7707;;-1933.3731;;-1937.566;;-1940.6982;;-1940.6982
-67.812142;;-67.973215;;-67.730722;;-69.665234;;-74.156319;;-78.83758;;-81.401718;;-81.778207;;-81.258282;;-80.45387;;-79.431325;;-78.504514;;-78.257632;;-79.303112;;-82.494126;;-89.753447;;-102.29491;;-119.51307;;-141.61257;;-170.86995;;-209.92488;;-260.34715;;-323.60991;;-400.59665;;-490.51249;;-592.06154;;-701.35628;;-810.41625;;-908.63975;;-989.66548;;-1051.4818;;-1095.0137;;-1126.0797;;-1154.3255;;-1187.6383;;-1227.5133;;-1270.6243;;-1313.7235;;-1355.984;;-1397.5372;;-1437.7321;;-1475.6437;;-1511.4968;;-1546.5154;;-1581.3833;;-1615.424;;-1647.3347;;-1676.7099;;-1705.3942;;-1737.3196;;-1775.4176;;-1817.5661;;-1856.6969;;-1886.2667;;-1905.1526;;-1916.8838;;-1925.1463;;-1930.9767;;-1933.8496;;-1934.2285;;-1934.1294;;-1935.3568;;-1937.8712;;-1939.9755;;-1939.9755
-65.627047;;-65.788288;;-65.914927;;-68.206589;;-72.753476;;-77.25651;;-79.67211;;-80.152147;;-80.022703;;-79.843581;;-79.6167;;-79.608031;;-80.367454;;-82.326523;;-85.928379;;-92.48544;;-103.83036;;-120.64188;;-144.26337;;-176.54952;;-218.88413;;-272.69233;;-339.52001;;-419.63595;;-512.56763;;-616.55897;;-726.60871;;-832.70275;;-922.92018;;-993.74104;;-1046.4704;;-1083.0057;;-1109.2835;;-1136.1016;;-1172.0395;;-1216.6239;;-1263.1411;;-1306.7811;;-1347.9226;;-1388.7033;;-1429.335;;-1468.2665;;-1504.3579;;-1537.9819;;-1570.4029;;-1602.5868;;-1634.6026;;-1666.0903;;-1697.5153;;-1730.8397;;-1767.8156;;-1806.9727;;-1843.4818;;-1872.9402;;-1894.5326;;-1910.2142;;-1921.8874;;-1930.0519;;-1934.6467;;-1936.3515;;-1936.7458;;-1937.4081;;-1938.8721;;-1940.249;;-1940.249
-63.607691;;-63.769221;;-64.285818;;-67.018571;;-71.863415;;-76.594522;;-79.143678;;-79.523101;;-79.229126;;-79.211436;;-79.600164;;-80.436599;;-82.008496;;-84.594488;;-88.438359;;-94.437482;;-104.83682;;-122.67922;;-149.20062;;-184.89016;;-230.796;;-288.37424;;-358.66394;;-441.75702;;-537.28612;;-642.83096;;-752.18568;;-853.76065;;-936.44544;;-999.89309;;-1047.3003;;-1081.035;;-1106.564;;-1133.9614;;-1171.0044;;-1216.2484;;-1262.2303;;-1304.2982;;-1343.8625;;-1384.1616;;-1425.691;;-1466.0072;;-1502.4655;;-1534.6465;;-1564.5652;;-1594.8207;;-1626.617;;-1659.4491;;-1692.5032;;-1726.1578;;-1761.4413;;-1797.7816;;-1832.3796;;-1862.3179;;-1886.4139;;-1904.9202;;-1918.4569;;-1927.6259;;-1933.2079;;-1936.3322;;-1938.2828;;-1940.0714;;-1941.9827;;-1943.3846;;-1943.3846
-61.807623;;-61.969615;;-62.660201;;-65.558672;;-70.586266;;-75.687046;;-78.653559;;-79.102231;;-78.620595;;-78.651655;;-79.524797;;-81.043565;;-83.213368;;-86.224372;;-90.261117;;-96.004699;;-107.17444;;-128.28682;;-158.41494;;-197.91004;;-247.88939;;-309.55463;;-383.2342;;-469.30289;;-566.85953;;-672.53684;;-778.85406;;-873.99617;;-950.17408;;-1009.2085;;-1054.713;;-1089.2438;;-1117.3985;;-1146.9157;;-1183.4433;;-1225.5593;;-1267.5823;;-1306.4846;;-1344.1988;;-1383.9724;;-1426.1549;;-1467.5725;;-1504.4179;;-1535.7372;;-1564.0432;;-1592.6773;;-1623.1862;;-1655.107;;-1687.4744;;-1720.3016;;-1754.4349;;-1789.8046;;-1824.4493;;-1855.6056;;-1881.262;;-1900.7475;;-1914.5493;;-1923.8287;;-1930.0157;;-1934.5936;;-1938.6921;;-1942.5948;;-1945.8099;;-1947.6425;;-1947.6425
-60.199438;;-60.361756;;-60.959419;;-63.583421;;-68.396301;;-73.699966;;-77.305564;;-78.413777;;-78.312506;;-78.607606;;-79.818008;;-81.749775;;-84.316834;;-87.6427;;-91.850954;;-98.005755;;-113.44548;;-138.81251;;-173.25708;;-217.41907;;-272.49608;;-338.7998;;-416.84271;;-506.3282;;-605.18792;;-708.49456;;-807.74904;;-893.87305;;-963.84633;;-1020.0226;;-1065.2058;;-1101.6743;;-1133.2094;;-1165.1761;;-1200.8947;;-1239.139;;-1276.5861;;-1312.075;;-1347.6877;;-1386.2251;;-1427.9308;;-1469.4562;;-1506.524;;-1537.8971;;-1565.9798;;-1593.6999;;-1622.2057;;-1651.4331;;-1681.4345;;-1712.914;;-1746.7483;;-1782.6748;;-1818.4597;;-1850.7376;;-1876.8397;;-1896.06;;-1909.4699;;-1918.7966;;-1925.7516;;-1931.9233;;-1938.1812;;-1944.026;;-1948.2642;;-1950.3223;;-1950.3223
-58.820109;;-58.982526;;-59.444505;;-61.62055;;-65.958336;;-71.242301;;-75.539674;;-77.785389;;-78.632562;;-79.410596;;-80.811648;;-82.926463;;-85.772776;;-89.368357;;-93.739391;;-102.77313;;-123.58844;;-153.62904;;-193.03853;;-242.84859;;-303.79215;;-376.14383;;-459.99694;;-553.79993;;-653.24957;;-750.42855;;-837.44051;;-911.95197;;-975.0881;;-1028.6775;;-1073.9901;;-1112.3211;;-1146.5744;;-1180.5486;;-1216.0442;;-1251.8977;;-1286.2846;;-1319.1854;;-1352.6047;;-1388.934;;-1428.5963;;-1468.8132;;-1505.657;;-1537.7198;;-1566.6469;;-1594.2969;;-1621.2349;;-1647.9404;;-1675.7385;;-1706.1992;;-1740.0782;;-1776.4751;;-1812.6527;;-1845.0134;;-1870.8913;;-1889.8567;;-1903.3498;;-1913.2913;;-1921.4319;;-1929.2756;;-1937.2796;;-1944.2988;;-1948.8633;;-1950.8025;;-1950.8025
-57.422664;;-57.584706;;-58.186128;;-60.23269;;-64.242583;;-69.485103;;-74.419692;;-77.850794;;-79.762858;;-81.053434;;-82.578857;;-84.816566;;-87.930019;;-91.767862;;-96.523493;;-110.73224;;-135.82413;;-170.32549;;-214.79756;;-270.47303;;-337.63196;;-416.7175;;-507.09718;;-605.66604;;-704.92724;;-792.61051;;-864.79791;;-927.01426;;-983.02763;;-1034.1138;;-1080.0069;;-1120.4845;;-1157.0624;;-1192.3761;;-1227.7167;;-1262.3155;;-1295.1513;;-1326.5285;;-1358.0166;;-1391.5241;;-1427.8555;;-1465.4641;;-1501.4091;;-1534.0814;;-1564.0342;;-1592.2011;;-1618.9559;;-1645.1428;;-1672.5758;;-1702.9505;;-1736.5879;;-1772.1082;;-1806.9349;;-1838.1861;;-1863.7846;;-1883.3563;;-1897.9909;;-1909.1997;;-1918.5048;;-1927.3341;;-1936.0667;;-1943.4781;;-1948.1407;;-1950.0538;;-1950.0538
-55.232045;;-55.232045;;-56.599822;;-59.150556;;-63.289318;;-68.674042;;-74.198738;;-78.630661;;-81.465614;;-83.248104;;-84.96525;;-87.390498;;-90.744327;;-94.671461;;-100.30451;;-118.55625;;-146.9638;;-185.09111;;-233.83701;;-294.3426;;-366.80677;;-451.61482;;-547.49162;;-649.89704;;-748.20493;;-826.79457;;-887.22508;;-939.90361;;-990.24743;;-1039.4839;;-1086.3951;;-1129.2886;;-1167.9226;;-1203.7448;;-1238.1782;;-1271.4577;;-1303.3078;;-1333.8648;;-1363.8119;;-1394.3452;;-1426.7258;;-1460.9484;;-1495.2675;;-1527.8492;;-1558.3281;;-1587.3291;;-1615.514;;-1643.6913;;-1672.999;;-1704.2256;;-1737.0879;;-1770.3885;;-1802.6287;;-1832.2657;;-1857.9405;;-1879.0112;;-1895.602;;-1908.1622;;-1917.6429;;-1925.7349;;-1933.7089;;-1941.0756;;-1946.341;;-1948.8379;;-1948.8379
-51.818739;;-51.818739;;-54.160635;;-57.766191;;-62.499851;;-68.252478;;-74.348741;;-79.635064;;-83.321658;;-85.678115;;-87.719779;;-90.338817;;-93.710795;;-97.298163;;-103.37841;;-123.51693;;-153.76644;;-193.9614;;-245.1316;;-308.271;;-383.64116;;-471.5052;;-570.21195;;-674.42356;;-771.9273;;-846.74539;;-902.86584;;-951.62206;;-999.35499;;-1047.7911;;-1095.5459;;-1140.1125;;-1179.9443;;-1215.533;;-1248.5493;;-1280.2796;;-1311.0885;;-1340.7268;;-1368.8983;;-1396.2343;;-1424.5829;;-1455.2969;;-1487.5293;;-1519.354;;-1550.0685;;-1580.4798;;-1611.5304;;-1643.4757;;-1676.0091;;-1708.5253;;-1740.3609;;-1771.15;;-1800.8425;;-1829.138;;-1855.1943;;-1877.9952;;-1896.518;;-1909.8422;;-1918.2345;;-1924.0602;;-1930.2416;;-1937.4555;;-1943.8523;;-1947.4326;;-1947.4326
-47.931466;;-47.931466;;-51.334289;;-56.168415;;-61.739274;;-67.981198;;-74.59815;;-80.630956;;-85.161998;;-88.193749;;-90.605886;;-93.246873;;-96.20247;;-98.84068;;-104.11886;;-124.43778;;-154.91007;;-195.31312;;-246.65565;;-309.82634;;-385.11333;;-472.744;;-571.04735;;-674.81188;;-772.58277;;-850.34708;;-909.99058;;-960.74431;;-1009.1605;;-1057.774;;-1105.7218;;-1150.621;;-1190.6723;;-1225.9473;;-1258.0209;;-1288.4581;;-1317.6795;;-1344.9574;;-1369.5949;;-1392.702;;-1417.2363;;-1445.2346;;-1475.8746;;-1507.2382;;-1538.9416;;-1572.0412;;-1607.1607;;-1643.5087;;-1679.3649;;-1713.1754;;-1744.3942;;-1773.5852;;-1801.7093;;-1829.1563;;-1855.3958;;-1879.2041;;-1898.7919;;-1912.3127;;-1919.585;;-1923.4389;;-1927.9565;;-1934.7288;;-1941.7688;;-1946.1015;;-1946.1015
-44.932691;;-44.932691;;-49.235991;;-55.075431;;-61.432399;;-68.115793;;-75.109447;;-81.68674;;-86.92387;;-90.589598;;-93.310299;;-95.772327;;-97.961234;;-99.292873;;-102.9568;;-122.3968;;-151.95427;;-191.21503;;-241.08129;;-302.36616;;-375.33767;;-460.25919;;-555.68461;;-657.15493;;-755.40023;;-839.25688;;-906.9508;;-963.76714;;-1015.4394;;-1065.1949;;-1113.1309;;-1157.7873;;-1197.9817;;-1233.7023;;-1265.8919;;-1295.4067;;-1321.9101;;-1344.0408;;-1361.7483;;-1378.605;;-1399.7918;;-1427.1294;;-1458.2478;;-1490.8;;-1525.1155;;-1562.3904;;-1602.2556;;-1642.6566;;-1681.167;;-1716.2457;;-1747.7697;;-1776.7115;;-1804.277;;-1831.0618;;-1856.7316;;-1880.1846;;-1899.7339;;-1913.5867;;-1921.2967;;-1925.1166;;-1928.8393;;-1934.5197;;-1940.8754;;-1945.0407;;-1945.0407
-43.513477;;-43.513477;;-48.229749;;-54.859105;;-61.768836;;-68.727474;;-75.834914;;-82.595917;;-88.199991;;-92.330104;;-95.360508;;-97.730096;;-99.320058;;-99.726298;;-101.76433;;-119.57045;;-147.57319;;-185.00669;;-232.5848;;-291.06701;;-360.61824;;-441.54186;;-532.68011;;-630.47449;;-727.96572;;-816.71379;;-892.58505;;-956.89276;;-1013.5426;;-1065.7485;;-1114.6063;;-1159.958;;-1201.4879;;-1239.0326;;-1272.5367;;-1301.5915;;-1324.5022;;-1339.0525;;-1346.7532;;-1355.571;;-1374.1352;;-1403.3189;;-1437.5352;;-1473.0647;;-1510.9763;;-1552.7247;;-1596.8676;;-1640.3474;;-1680.8356;;-1717.4208;;-1750.174;;-1779.7677;;-1807.1511;;-1832.8985;;-1856.8441;;-1878.5084;;-1897.3382;;-1912.3106;;-1922.3624;;-1927.9967;;-1931.7177;;-1935.9675;;-1940.8543;;-1944.3155;;-1944.3155
-42.895677;;-42.895677;;-47.95445;;-54.996819;;-62.303549;;-69.379226;;-76.284529;;-82.798444;;-88.389693;;-92.862433;;-96.41082;;-99.184857;;-100.96902;;-101.59242;;-102.98791;;-117.78169;;-143.60636;;-178.74635;;-223.56934;;-278.86049;;-344.53016;;-420.85016;;-506.90453;;-599.90264;;-694.71457;;-785.10107;;-866.45112;;-937.46708;;-999.7787;;-1055.8126;;-1107.3348;;-1155.3926;;-1200.3259;;-1241.6028;;-1278.097;;-1308.0933;;-1328.4738;;-1336.2748;;-1334.8173;;-1336.5503;;-1353.3487;;-1384.9409;;-1422.379;;-1460.3071;;-1500.4088;;-1544.7208;;-1591.3583;;-1636.8419;;-1679.1949;;-1717.9006;;-1752.6424;;-1783.2973;;-1810.3066;;-1834.0942;;-1854.87;;-1873.5493;;-1891.4799;;-1908.3436;;-1921.728;;-1929.9059;;-1934.168;;-1937.4814;;-1941.2535;;-1944.1525;;-1944.1525
-41.798039;;-41.798039;;-47.111024;;-54.494442;;-62.207196;;-69.424259;;-75.941221;;-81.937035;;-87.343763;;-92.203168;;-96.601288;;-100.42665;;-103.40676;;-105.55213;;-108.29104;;-118.87897;;-141.47165;;-173.49065;;-214.83601;;-266.22018;;-327.62064;;-398.89156;;-479.33095;;-566.77882;;-657.45585;;-746.73961;;-830.48695;;-906.2721;;-973.86032;;-1034.4986;;-1090.1294;;-1142.6385;;-1192.793;;-1239.7196;;-1281.3987;;-1314.9461;;-1336.2991;;-1342.5275;;-1338.2961;;-1337.8116;;-1353.6242;;-1384.7185;;-1421.1919;;-1457.5584;;-1496.1427;;-1539.6769;;-1586.5852;;-1633.4168;;-1678.1063;;-1719.7289;;-1757.0914;;-1789.0854;;-1815.4287;;-1836.3321;;-1852.8475;;-1867.9532;;-1884.9532;;-1903.6497;;-1919.9639;;-1930.4013;;-1935.6049;;-1938.8794;;-1942.2524;;-1944.8485;;-1944.8485
-40.026103;;-40.026103;;-45.435816;;-52.996583;;-61.048618;;-68.567069;;-74.787044;;-80.30504;;-85.629647;;-91.012182;;-96.454552;;-101.70337;;-106.49675;;-110.9428;;-116.18854;;-125.59835;;-143.70457;;-171.1465;;-207.74284;;-253.88088;;-310.21605;;-376.14898;;-450.93312;;-532.98125;;-619.50884;;-706.89565;;-791.48066;;-870.48713;;-942.52489;;-1007.7145;;-1067.7188;;-1124.8354;;-1180.2952;;-1233.3477;;-1281.5055;;-1320.9422;;-1347.2356;;-1358.351;;-1359.452;;-1362.8104;;-1378.2313;;-1404.6204;;-1434.5415;;-1464.7383;;-1498.3319;;-1538.4985;;-1584.262;;-1632.2466;;-1679.63;;-1724.3848;;-1764.3271;;-1797.5017;;-1822.9675;;-1840.9574;;-1853.707;;-1865.9855;;-1882.0741;;-1901.324;;-1918.6887;;-1930.1951;;-1936.3812;;-1940.3115;;-1943.804;;-1946.2335;;-1946.2335
-38.235895;;-38.235895;;-43.594017;;-51.140752;;-59.357972;;-67.233371;;-73.439145;;-78.719805;;-84.146771;;-90.071439;;-96.431388;;-102.96594;;-109.51502;;-116.25957;;-124.07099;;-134.86177;;-150.82176;;-173.45631;;-204.26451;;-244.36363;;-294.46373;;-355.05757;;-425.17088;;-503.4084;;-587.60543;;-674.58638;;-760.69964;;-842.75719;;-918.61406;;-987.60026;;-1050.9384;;-1111.0122;;-1169.6604;;-1226.8948;;-1280.3879;;-1325.7973;;-1358.7315;;-1378.1839;;-1388.8445;;-1398.9883;;-1414.3037;;-1434.2023;;-1455.4417;;-1478.0669;;-1505.9372;;-1542.2949;;-1586.5696;;-1635.2871;;-1684.5993;;-1731.2803;;-1772.421;;-1805.7013;;-1830.0936;;-1846.3571;;-1857.7003;;-1869.2763;;-1884.6682;;-1902.5258;;-1918.2713;;-1929.0843;;-1935.8883;;-1940.9394;;-1945.1079;;-1947.6691;;-1947.6691
-37.034037;;-37.034037;;-42.326228;;-49.824632;;-58.135341;;-66.310927;;-72.733224;;-77.958214;;-83.518126;;-89.776914;;-96.63086;;-103.92009;;-111.66812;;-120.15286;;-130.02871;;-142.38804;;-158.19583;;-178.03317;;-203.51485;;-237.78347;;-282.69706;;-338.8503;;-406.41139;;-483.73645;;-568.7722;;-658.37862;;-748.30393;;-834.30837;;-913.41184;;-984.70519;;-1049.4028;;-1109.9634;;-1168.8014;;-1226.913;;-1282.5954;;-1331.6295;;-1369.9918;;-1397.1208;;-1416.371;;-1432.2681;;-1447.5151;;-1462.5071;;-1477.5174;;-1494.9393;;-1518.8759;;-1552.3444;;-1594.8938;;-1642.9375;;-1691.9708;;-1738.0916;;-1778.1883;;-1810.1514;;-1833.4886;;-1849.737;;-1862.347;;-1875.2724;;-1890.2012;;-1905.2899;;-1917.642;;-1926.6107;;-1933.7406;;-1940.2185;;-1945.5978;;-1948.6888;;-1948.6888
-36.60146;;-36.60146;;-41.896958;;-49.42747;;-57.869062;;-66.301707;;-72.969194;;-78.101336;;-83.62491;;-89.909007;;-96.802318;;-104.2789;;-112.58356;;-122.09667;;-133.30547;;-146.7662;;-162.73138;;-181.10472;;-202.94017;;-232.88291;;-274.86428;;-329.50864;;-396.95776;;-476.49177;;-565.40841;;-660.51127;;-756.59013;;-847.51601;;-929.09005;;-1000.7583;;-1064.5466;;-1123.3817;;-1180.1182;;-1236.3895;;-1291.1562;;-1340.9402;;-1382.4232;;-1414.8005;;-1439.5374;;-1458.6834;;-1474.0119;;-1487.1701;;-1500.179;;-1515.9829;;-1538.218;;-1569.4707;;-1609.3223;;-1654.4025;;-1700.3205;;-1743.2967;;-1780.5596;;-1810.5261;;-1833.2898;;-1850.7334;;-1865.7092;;-1880.3774;;-1894.7126;;-1906.9839;;-1916.2332;;-1923.7079;;-1931.2617;;-1939.0703;;-1945.6077;;-1949.2641;;-1949.2641
-36.550345;;-36.550345;;-41.884656;;-49.322837;;-58.066357;;-66.705156;;-73.551209;;-78.46491;;-83.771048;;-89.893752;;-96.602932;;-103.94696;;-112.3648;;-122.32773;;-134.17821;;-148.10695;;-163.94919;;-181.20105;;-200.73312;;-228.61364;;-270.33135;;-325.9841;;-395.5829;;-478.78812;;-572.77555;;-674.35662;;-777.56747;;-874.22318;;-958.22256;;-1029.2176;;-1090.5149;;-1146.0877;;-1199.3844;;-1252.3868;;-1304.6157;;-1353.6253;;-1396.8265;;-1432.6415;;-1460.5759;;-1481.4357;;-1497.5017;;-1511.592;;-1525.9931;;-1542.8141;;-1564.6345;;-1593.51;;-1629.2401;;-1669.1868;;-1709.7797;;-1747.9684;;-1781.6688;;-1809.8248;;-1832.6213;;-1851.4071;;-1867.9077;;-1883.0444;;-1896.3122;;-1906.7094;;-1914.5731;;-1921.8457;;-1930.0462;;-1938.6005;;-1945.5642;;-1949.3582;;-1949.3582
-36.117725;;-36.117725;;-41.4228;;-48.839065;;-57.626295;;-66.404877;;-73.53534;;-78.337968;;-83.424371;;-89.381495;;-95.918294;;-103.07461;;-111.39062;;-121.39467;;-133.32795;;-147.15383;;-162.46264;;-178.60788;;-196.72198;;-224.68545;;-267.81131;;-325.46505;;-397.73892;;-484.41009;;-582.95631;;-690.40273;;-800.47942;;-903.42129;;-990.75916;;-1061.5078;;-1119.9882;;-1171.5281;;-1220.5502;;-1269.6114;;-1318.9888;;-1367.2219;;-1411.9421;;-1450.3949;;-1480.5571;;-1502.9475;;-1520.8376;;-1537.7949;;-1555.5277;;-1574.6564;;-1596.4444;;-1622.5216;;-1653.2323;;-1687.0304;;-1721.4566;;-1754.3939;;-1784.5244;;-1811.138;;-1833.9639;;-1853.206;;-1869.5027;;-1883.5188;;-1895.4017;;-1905.0444;;-1913.1337;;-1921.1797;;-1929.9532;;-1938.5009;;-1945.0791;;-1948.5411;;-1948.5411
-34.911151;;-34.911151;;-40.067564;;-47.305111;;-55.996483;;-64.854373;;-72.520533;;-77.635216;;-82.670656;;-88.535986;;-94.992974;;-102.03512;;-110.16451;;-119.89964;;-131.45085;;-144.70396;;-159.15275;;-174.20451;;-191.69508;;-221.1295;;-265.93853;;-325.32426;;-399.62328;;-488.65992;;-590.39782;;-702.17962;;-817.85264;;-926.91539;;-1018.7178;;-1090.7181;;-1147.4835;;-1195.4416;;-1240.1332;;-1285.1349;;-1331.8771;;-1379.6885;;-1425.8225;;-1466.3244;;-1498.4102;;-1522.8648;;-1543.6186;;-1564.3153;;-1585.7785;;-1607.225;;-1628.8603;;-1652.1833;;-1678.2075;;-1706.3619;;-1735.1574;;-1763.3643;;-1790.3022;;-1815.2908;;-1837.3338;;-1855.6247;;-1870.3202;;-1882.5189;;-1893.2702;;-1902.966;;-1911.9233;;-1920.7582;;-1929.5995;;-1937.5517;;-1943.3877;;-1946.4008;;-1946.4008
-33.3409;;-33.3409;;-38.293622;;-45.279382;;-53.807486;;-62.700656;;-70.947191;;-76.762612;;-81.937817;;-87.794749;;-94.273417;;-101.31562;;-109.23314;;-118.42383;;-129.12468;;-141.31906;;-154.62684;;-168.6943;;-186.45561;;-217.79762;;-263.89757;;-324.29755;;-399.60669;;-489.64907;;-592.89883;;-707.02149;;-826.24075;;-940.16268;;-1036.9479;;-1112.183;;-1169.6772;;-1216.1057;;-1257.7937;;-1299.5042;;-1343.952;;-1391.0438;;-1437.6223;;-1479.224;;-1513.1706;;-1540.4531;;-1564.639;;-1588.6389;;-1612.5854;;-1635.1334;;-1656.2079;;-1677.4459;;-1700.2001;;-1724.2849;;-1748.8249;;-1773.3798;;-1797.7043;;-1820.8442;;-1841.1659;;-1857.5272;;-1870.3147;;-1881.1533;;-1891.4766;;-1901.5753;;-1911.1396;;-1920.0769;;-1928.3222;;-1935.3975;;-1940.603;;-1943.374;;-1943.374
-32.038683;;-32.038683;;-36.821186;;-43.594287;;-51.974632;;-60.860412;;-69.475064;;-76.01563;;-81.465944;;-87.430788;;-94.053001;;-101.20412;;-108.90189;;-117.32806;;-126.77092;;-137.47231;;-149.38473;;-162.60762;;-181.43753;;-214.46866;;-261.34303;;-322.01661;;-397.30298;;-486.90857;;-589.77541;;-703.83932;;-823.87873;;-940.4321;;-1042.0932;;-1122.9118;;-1184.6729;;-1232.9878;;-1274.3212;;-1314.4218;;-1357.025;;-1402.505;;-1447.951;;-1489.5712;;-1525.4239;;-1556.1084;;-1583.58;;-1609.3993;;-1633.623;;-1655.5718;;-1675.7136;;-1695.7868;;-1716.8621;;-1738.5108;;-1760.1579;;-1782.0214;;-1804.146;;-1825.317;;-1843.6889;;-1858.3932;;-1870.2493;;-1880.9404;;-1891.5493;;-1901.9011;;-1911.3143;;-1919.5769;;-1926.861;;-1933.1297;;-1937.9624;;-1940.6845;;-1940.6845
-31.026709;;-31.026709;;-35.663432;;-42.250149;;-50.462604;;-59.264811;;-68.031453;;-75.152674;;-81.011355;;-87.226591;;-94.083332;;-101.37707;;-108.84193;;-116.43188;;-124.49421;;-133.58823;;-144.07451;;-156.5899;;-176.84222;;-211.07538;;-258.28018;;-318.66215;;-393.10046;;-480.98847;;-581.68047;;-693.28327;;-811.28182;;-927.92057;;-1033.8061;;-1122.2847;;-1191.9496;;-1245.9026;;-1289.9479;;-1330.3757;;-1371.6224;;-1414.733;;-1457.9428;;-1499.0095;;-1536.7729;;-1570.7352;;-1600.5423;;-1626.3921;;-1649.0286;;-1669.3434;;-1688.608;;-1708.23;;-1728.494;;-1748.5416;;-1768.0306;;-1787.6596;;-1807.6819;;-1826.935;;-1843.8973;;-1858.2204;;-1870.8333;;-1882.7708;;-1894.1496;;-1904.2794;;-1912.702;;-1919.8155;;-1926.2497;;-1932.0486;;-1936.6658;;-1939.3097;;-1939.3097
-29.741173;;-29.741173;;-34.173594;;-40.488091;;-48.248379;;-57.006778;;-65.811353;;-73.52771;;-79.943743;;-86.438513;;-93.445394;;-100.77353;;-108.00846;;-114.94634;;-121.95723;;-129.83508;;-139.22394;;-151.21019;;-172.70565;;-207.67651;;-254.97726;;-314.93106;;-388.25096;;-474.01973;;-571.78014;;-679.66699;;-793.91046;;-908.88046;;-1017.8312;;-1114.1586;;-1193.4147;;-1255.4032;;-1304.3365;;-1346.4126;;-1386.6724;;-1427.3358;;-1468.3523;;-1508.9854;;-1548.3139;;-1584.4831;;-1615.1917;;-1639.8568;;-1660.3067;;-1679.0539;;-1697.8209;;-1717.2162;;-1736.6521;;-1755.1259;;-1772.6728;;-1790.2934;;-1808.3229;;-1825.8346;;-1841.9117;;-1856.8107;;-1871.3765;;-1885.5561;;-1898.0623;;-1907.6921;;-1914.7434;;-1920.7552;;-1926.8124;;-1932.6035;;-1937.1349;;-1939.6166;;-1939.6166
-27.941872;;-27.941872;;-32.08153;;-38.001126;;-45.329324;;-53.747214;;-62.482227;;-70.738356;;-77.688674;;-84.203936;;-90.990545;;-98.098452;;-105.16628;;-111.88835;;-118.54724;;-125.9691;;-134.84709;;-146.50246;;-168.85916;;-204.29466;;-251.73501;;-311.59177;;-384.27836;;-468.90944;;-564.91251;;-670.26484;;-781.54542;;-894.70347;;-1005.1147;;-1106.8584;;-1193.9404;;-1263.4564;;-1317.4843;;-1361.4734;;-1401.039;;-1439.9022;;-1479.5815;;-1520.0199;;-1559.923;;-1596.5937;;-1627.019;;-1650.492;;-1669.4934;;-1687.3268;;-1705.6916;;-1724.4601;;-1742.6039;;-1759.397;;-1775.3019;;-1791.3705;;-1807.7746;;-1823.6343;;-1838.506;;-1853.4172;;-1869.5761;;-1886.0913;;-1900.1146;;-1909.7707;;-1916.161;;-1921.9225;;-1928.3531;;-1934.6054;;-1939.2528;;-1941.6229;;-1941.6229
-26.005864;;-26.005864;;-29.82687;;-35.312618;;-42.153543;;-50.145401;;-58.642487;;-67.059906;;-74.174194;;-80.166755;;-86.178691;;-92.751467;;-99.742051;;-106.75647;;-113.8371;;-121.58557;;-130.51868;;-142.11944;;-165.38211;;-201.39994;;-249.3195;;-309.69929;;-382.88776;;-468.2033;;-565.04461;;-671.15881;;-782.65816;;-895.34889;;-1005.5245;;-1108.5766;;-1198.9331;;-1272.6272;;-1329.9763;;-1375.3828;;-1414.7576;;-1452.9282;;-1492.1534;;-1532.1497;;-1571.1504;;-1606.6804;;-1636.3502;;-1659.5871;;-1678.481;;-1695.9531;;-1713.4572;;-1730.7788;;-1747.2179;;-1762.6249;;-1777.6562;;-1793.0031;;-1808.329;;-1822.4164;;-1834.9464;;-1847.9047;;-1863.7399;;-1881.6259;;-1897.4559;;-1908.4253;;-1915.8641;;-1922.8062;;-1930.3364;;-1937.2173;;-1941.9855;;-1944.2645;;-1944.2645
-24.406973;;-24.406973;;-27.952616;;-33.055771;;-39.446876;;-46.983478;;-55.066295;;-63.16639;;-69.831813;;-74.728345;;-79.57511;;-85.439937;;-92.389329;;-99.987375;;-107.98386;;-116.56258;;-125.90396;;-137.99563;;-162.83136;;-199.9599;;-248.99718;;-310.76818;;-385.71767;;-473.49222;;-573.59929;;-683.59809;;-798.58543;;-912.41988;;-1020.8988;;-1121.2807;;-1210.0252;;-1283.7573;;-1342.0797;;-1388.5328;;-1428.7164;;-1467.4426;;-1506.6674;;-1545.5509;;-1582.3738;;-1615.8008;;-1644.7016;;-1668.5115;;-1688.1417;;-1705.4088;;-1721.5403;;-1736.8752;;-1751.6205;;-1766.2909;;-1781.4349;;-1797.0011;;-1811.8482;;-1824.1551;;-1833.4553;;-1842.6733;;-1856.0294;;-1873.7031;;-1891.0428;;-1904.2333;;-1914.0272;;-1922.9533;;-1931.5561;;-1938.5607;;-1942.9954;;-1944.988;;-1944.988
-23.284321;;-23.284321;;-26.610565;;-31.399124;;-37.397622;;-44.477189;;-52.034474;;-59.500398;;-65.172362;;-68.68631;;-72.377816;;-77.622813;;-84.559669;;-92.732268;;-101.69542;;-111.21308;;-121.10801;;-134.71052;;-161.73857;;-200.52687;;-251.26685;;-315.11839;;-392.62724;;-483.819;;-588.30067;;-703.43128;;-823.1851;;-938.62989;;-1044.1455;;-1139.3441;;-1223.4861;;-1294.7009;;-1352.8282;;-1400.8085;;-1443.1548;;-1483.4432;;-1522.7192;;-1559.984;;-1594.2734;;-1625.5797;;-1653.7526;;-1678.0485;;-1698.2522;;-1715.1796;;-1729.9713;;-1743.6565;;-1757.29;;-1771.8258;;-1787.5671;;-1803.7319;;-1818.4411;;-1829.3788;;-1835.9241;;-1841.5183;;-1851.6623;;-1867.747;;-1885.3964;;-1900.1819;;-1911.873;;-1922.0219;;-1930.672;;-1936.8776;;-1940.4379;;-1941.9613;;-1941.9613
-22.385836;;-22.385836;;-25.513303;;-30.012015;;-35.638101;;-42.261208;;-49.260886;;-56.00795;;-60.570131;;-62.945746;;-65.884713;;-70.791695;;-77.738354;;-86.246536;;-95.830153;;-106.02701;;-116.49627;;-132.5641;;-161.57013;;-201.96876;;-254.38129;;-320.24618;;-400.16553;;-494.50048;;-602.89639;;-722.49296;;-846.25081;;-962.4374;;-1064.0318;;-1153.5444;;-1232.9298;;-1301.7802;;-1360.377;;-1410.9773;;-1456.4372;;-1498.6012;;-1537.8214;;-1573.6604;;-1606.2037;;-1636.2036;;-1663.7729;;-1687.9996;;-1708.1791;;-1724.6909;;-1738.7239;;-1751.7404;;-1765.0977;;-1779.6618;;-1795.4281;;-1811.3463;;-1825.435;;-1835.4304;;-1840.75;;-1844.7072;;-1852.7786;;-1866.8853;;-1883.4286;;-1898.1123;;-1909.9939;;-1919.818;;-1927.4538;;-1932.4461;;-1935.1868;;-1936.4106;;-1936.4106
-21.380867;;-21.380867;;-24.285086;;-28.463803;;-33.689974;;-39.695319;;-46.340556;;-52.540441;;-56.534389;;-58.450672;;-61.147323;;-65.953535;;-72.819316;;-81.286895;;-90.961611;;-101.38472;;-112.31649;;-130.46547;;-160.55782;;-201.76839;;-255.00002;;-321.85989;;-402.9988;;-498.99635;;-609.52714;;-731.60256;;-857.51747;;-973.34932;;-1071.1701;;-1156.5827;;-1233.5867;;-1302.4991;;-1363.442;;-1417.5729;;-1466.0886;;-1509.6649;;-1548.7928;;-1584.0503;;-1616.2251;;-1646.0034;;-1673.2719;;-1697.2051;;-1717.2285;;-1733.6604;;-1747.6714;;-1760.8207;;-1774.3035;;-1788.4413;;-1802.8413;;-1816.7152;;-1828.7737;;-1837.3867;;-1842.2758;;-1846.4195;;-1854.4033;;-1867.66;;-1883.0153;;-1896.6747;;-1907.5936;;-1916.3055;;-1922.8816;;-1927.2487;;-1929.9051;;-1931.2806;;-1931.2806
-20.251491;;-20.251491;;-22.898075;;-26.72166;;-31.527053;;-37.106383;;-43.352214;;-49.323297;;-53.618847;;-55.9064;;-58.791317;;-63.488739;;-69.976906;;-77.969743;;-87.254058;;-97.479139;;-108.51548;;-127.23562;;-157.21963;;-198.0394;;-250.72393;;-316.9468;;-397.44433;;-492.89048;;-603.06231;;-725.08916;;-851.23904;;-966.66842;;-1062.6269;;-1147.0026;;-1225.0848;;-1297.1659;;-1362.4257;;-1420.5331;;-1471.4821;;-1515.8261;;-1554.9625;;-1590.4422;;-1623.1738;;-1653.3067;;-1680.5008;;-1704.3449;;-1724.6778;;-1741.7215;;-1756.2972;;-1769.7363;;-1782.9821;;-1795.867;;-1807.6892;;-1818.0493;;-1826.4288;;-1831.8527;;-1834.7827;;-1838.9302;;-1848.591;;-1863.8003;;-1880.2213;;-1893.8779;;-1904.1001;;-1911.9857;;-1918.1949;;-1922.8752;;-1926.1981;;-1928.0681;;-1928.0681
-19.306041;;-19.306041;;-21.671487;;-25.149784;;-29.580178;;-34.840224;;-40.841586;;-46.833474;;-51.911791;;-55.121741;;-58.307232;;-62.717227;;-68.58091;;-75.890988;;-84.596974;;-94.418613;;-105.0973;;-122.72833;;-151.42734;;-190.68827;;-241.50233;;-305.52277;;-383.63904;;-476.51097;;-584.12389;;-704.00657;;-829.13225;;-945.36495;;-1042.623;;-1129.0904;;-1210.947;;-1288.2741;;-1359.0257;;-1421.3281;;-1474.4361;;-1519.3964;;-1558.6881;;-1594.5709;;-1627.851;;-1658.2017;;-1685.2423;;-1709.0979;;-1730.0474;;-1748.1211;;-1763.5204;;-1777.0773;;-1789.5666;;-1800.7716;;-1809.9463;;-1816.6838;;-1820.317;;-1819.9104;;-1817.4875;;-1819.7455;;-1832.3604;;-1853.1531;;-1874.262;;-1890.0898;;-1900.5612;;-1908.0969;;-1914.3509;;-1919.7008;;-1923.8697;;-1926.253;;-1926.253
-18.814887;;-18.814887;;-20.898085;;-24.115073;;-28.292922;;-33.36951;;-39.25422;;-45.319065;;-50.933642;;-54.868798;;-58.170877;;-62.251409;;-67.621087;;-74.464688;;-82.765807;;-92.221011;;-102.36079;;-117.49638;;-143.88493;;-180.63221;;-228.54869;;-289.18793;;-363.68;;-452.57406;;-556.15613;;-672.59372;;-796.14365;;-914.75172;;-1016.82;;-1108.043;;-1195.1095;;-1278.2826;;-1354.7066;;-1421.3131;;-1476.8448;;-1522.7855;;-1562.4158;;-1598.5673;;-1632.1103;;-1662.4343;;-1689.0777;;-1712.548;;-1733.5728;;-1752.1967;;-1768.1686;;-1781.8064;;-1793.7244;;-1803.8818;;-1811.5923;;-1815.8784;;-1814.8523;;-1807.0661;;-1796.8572;;-1795.5983;;-1811.5734;;-1839.9431;;-1867.8799;;-1887.1987;;-1898.4569;;-1905.7846;;-1912.0174;;-1917.8381;;-1922.6351;;-1925.4006;;-1925.4006
-18.647872;;-18.647872;;-20.546882;;-23.631051;;-27.685762;;-32.656443;;-38.456502;;-44.482525;;-50.153926;;-54.135311;;-57.285058;;-61.216072;;-66.54166;;-73.369679;;-81.552369;;-90.74969;;-100.43856;;-112.44147;;-135.39782;;-168.79039;;-213.01565;;-269.39455;;-339.36617;;-423.33313;;-521.88768;;-633.98945;;-755.50214;;-877.20991;;-987.1128;;-1085.626;;-1178.8767;;-1267.8641;;-1349.7001;;-1420.6545;;-1479.0326;;-1526.5031;;-1566.9237;;-1603.6853;;-1637.777;;-1668.2144;;-1694.2228;;-1716.5377;;-1736.4473;;-1754.3931;;-1770.1687;;-1783.9206;;-1796.0901;;-1806.5577;;-1814.4425;;-1818.0218;;-1814.1433;;-1800.8812;;-1784.4847;;-1780.0277;;-1797.9545;;-1831.5759;;-1864.3961;;-1886.2064;;-1897.9878;;-1905.1723;;-1911.4638;;-1917.7438;;-1923.1489;;-1926.3178;;-1926.3178
-18.558794;;-18.558794;;-20.282686;;-23.245653;;-27.180557;;-32.018981;;-37.519135;;-43.541237;;-49.019038;;-52.714102;;-55.696919;;-59.775214;;-65.455859;;-72.573238;;-80.781298;;-89.710468;;-99.006168;;-108.87246;;-126.81097;;-156.11785;;-196.09127;;-247.62893;;-312.28949;;-390.69821;;-483.49338;;-590.4757;;-709.13277;;-833.12032;;-951.96621;;-1060.0444;;-1160.5989;;-1255.5946;;-1342.9059;;-1418.5903;;-1480.4789;;-1530.3011;;-1572.4901;;-1610.8701;;-1646.2314;;-1676.9801;;-1702.0204;;-1722.423;;-1740.1516;;-1756.2338;;-1770.9079;;-1784.6189;;-1797.7301;;-1809.6386;;-1818.9224;;-1823.5062;;-1820.0677;;-1806.6831;;-1789.6642;;-1784.143;;-1800.8052;;-1833.3541;;-1865.4768;;-1886.8483;;-1898.3827;;-1905.6412;;-1912.4408;;-1919.5716;;-1925.8802;;-1929.6345;;-1929.6345
-18.460587;;-18.460587;;-19.691583;;-22.342094;;-25.973735;;-30.492201;;-35.70053;;-41.466793;;-46.828727;;-50.671055;;-53.837128;;-58.211366;;-64.20649;;-71.491642;;-79.608294;;-88.282164;;-97.369426;;-106.72796;;-119.48383;;-144.12596;;-179.48143;;-225.97387;;-284.93983;;-357.60771;;-444.37949;;-545.75058;;-660.56099;;-784.81088;;-910.50868;;-1028.5583;;-1137.1344;;-1238.5155;;-1331.9537;;-1413.6194;;-1480.6227;;-1534.3959;;-1579.7335;;-1620.6133;;-1657.4052;;-1688.091;;-1711.6867;;-1729.807;;-1744.9854;;-1758.7251;;-1771.8336;;-1785.329;;-1799.6252;;-1813.4743;;-1824.7925;;-1831.654;;-1831.7082;;-1823.4702;;-1811.4446;;-1807.1834;;-1819.6131;;-1844.8938;;-1870.7108;;-1888.6788;;-1899.225;;-1906.7819;;-1914.4494;;-1922.636;;-1929.8983;;-1934.2278;;-1934.2278
-18.419776;;-18.419776;;-18.858251;;-20.899265;;-23.984756;;-27.955108;;-32.702185;;-38.105913;;-43.434608;;-47.998014;;-51.707754;;-56.030648;;-61.556806;;-68.071013;;-75.587578;;-84.372166;;-94.099957;;-104.27168;;-115.24358;;-134.5195;;-165.2641;;-206.96874;;-260.56489;;-327.61436;;-408.68012;;-504.38731;;-614.53118;;-736.72959;;-865.16676;;-990.54696;;-1106.5357;;-1214.2555;;-1314.5286;;-1404.034;;-1478.7658;;-1538.7799;;-1588.3236;;-1631.3866;;-1668.5349;;-1698.2549;;-1720.2344;;-1736.4813;;-1749.6377;;-1761.4665;;-1773.3505;;-1786.8342;;-1802.355;;-1818.1709;;-1831.7223;;-1841.3715;;-1845.9611;;-1844.6156;;-1839.574;;-1837.6807;;-1845.2022;;-1861.0705;;-1878.2967;;-1891.5078;;-1900.7096;;-1908.6325;;-1917.1166;;-1925.9899;;-1933.6511;;-1938.1397;;-1938.1397
-18.408067;;-18.408067;;-18.502009;;-19.475738;;-21.861836;;-25.20549;;-29.386583;;-34.228367;;-39.628672;;-44.814491;;-49.196539;;-52.822281;;-56.668263;;-61.225826;;-67.6421;;-76.46793;;-87.395918;;-99.600274;;-112.20905;;-128.09122;;-154.79293;;-192.30943;;-241.32463;;-303.25631;;-379.30482;;-469.79152;;-575.05814;;-693.72992;;-821.54166;;-950.44826;;-1072.0369;;-1185.227;;-1292.0282;;-1390.1823;;-1474.4245;;-1542.0787;;-1595.5858;;-1639.1959;;-1675.0642;;-1703.3564;;-1724.5387;;-1740.3062;;-1752.7734;;-1763.8684;;-1775.5727;;-1789.6474;;-1806.3017;;-1823.5928;;-1838.9411;;-1850.916;;-1858.9877;;-1862.7157;;-1862.9168;;-1863.045;;-1867.0917;;-1875.671;;-1885.8462;;-1894.9248;;-1902.879;;-1911.0725;;-1920.1066;;-1929.1639;;-1936.587;;-1940.7713;;-1940.7713
-18.402744;;-18.402744;;-18.431998;;-18.660319;;-20.136442;;-22.849464;;-26.480292;;-30.932539;;-35.982682;;-41.45964;;-46.269613;;-49.105221;;-50.69571;;-53.256696;;-58.697059;;-67.208407;;-78.459262;;-92.063176;;-107.12758;;-123.89247;;-148.06813;;-182.54063;;-228.10724;;-286.09605;;-358.1507;;-444.61478;;-545.92213;;-661.33843;;-787.6452;;-918.02842;;-1043.4729;;-1160.4929;;-1271.62;;-1376.1628;;-1468.1228;;-1541.8417;;-1597.5039;;-1639.9943;;-1673.9735;;-1701.6578;;-1723.8027;;-1741.0275;;-1754.5165;;-1766.3572;;-1779.0609;;-1794.2443;;-1811.6315;;-1829.3534;;-1845.3347;;-1858.4032;;-1868.0433;;-1873.7886;;-1875.8855;;-1876.436;;-1878.5645;;-1883.7456;;-1890.8107;;-1898.0693;;-1905.3957;;-1913.6619;;-1922.9741;;-1932.0822;;-1939.2004;;-1943.0336;;-1943.0336
-18.400821;;-18.400821;;-18.407968;;-18.458375;;-18.963078;;-21.029516;;-24.132626;;-28.099467;;-32.76655;;-37.796157;;-42.694826;;-45.280209;;-44.82968;;-45.569519;;-50.367193;;-58.60168;;-69.763749;;-83.698556;;-100.11341;;-119.22965;;-143.92963;;-177.38377;;-221.25222;;-277.16158;;-346.94525;;-431.45474;;-531.01249;;-645.2414;;-771.50358;;-903.58051;;-1031.838;;-1150.4106;;-1261.8599;;-1367.2839;;-1461.1118;;-1536.3088;;-1591.7781;;-1632.949;;-1666.1878;;-1694.8794;;-1719.5931;;-1739.8391;;-1755.892;;-1769.7585;;-1784.132;;-1800.3603;;-1817.8244;;-1834.9642;;-1850.4219;;-1863.3319;;-1872.8841;;-1878.0984;;-1878.78;;-1877.1176;;-1877.3836;;-1882.4696;;-1891.1384;;-1900.108;;-1908.0868;;-1916.2348;;-1925.4017;;-1934.4948;;-1941.5272;;-1945.2213;;-1945.2213
-18.400381;;-18.400381;;-18.401452;;-18.410795;;-18.49352;;-19.533394;;-21.944749;;-25.252798;;-29.289453;;-33.721268;;-37.990903;;-40.66878;;-39.43887;;-38.827737;;-43.549657;;-51.601022;;-62.516511;;-76.365364;;-93.401624;;-114.32318;;-140.99881;;-175.48621;;-219.76068;;-275.82064;;-345.77271;;-430.77538;;-531.32893;;-647.16728;;-775.75846;;-910.67019;;-1040.8727;;-1158.1398;;-1265.1745;;-1364.9543;;-1453.7294;;-1525.5518;;-1579.5101;;-1620.6981;;-1655.1533;;-1686.1202;;-1714.0374;;-1737.9942;;-1757.5838;;-1774.2091;;-1790.2363;;-1806.9606;;-1824.0066;;-1840.3125;;-1854.9577;;-1867.1214;;-1875.6312;;-1878.8273;;-1875.838;;-1869.4627;;-1866.6971;;-1873.1462;;-1886.8068;;-1900.6587;;-1910.753;;-1918.7035;;-1927.0644;;-1935.6011;;-1942.3192;;-1945.8425;;-1945.8425
-18.400332;;-18.400332;;-18.400411;;-18.401583;;-18.419404;;-18.622638;;-20.026481;;-22.530852;;-25.798275;;-29.521415;;-33.157966;;-35.398034;;-34.272306;;-33.444856;;-38.337003;;-46.041915;;-56.650325;;-70.336776;;-87.937055;;-110.14093;;-138.51013;;-174.72245;;-220.69927;;-278.60005;;-350.49614;;-437.67673;;-541.02868;;-660.31898;;-792.8477;;-931.45054;;-1062.878;;-1176.2536;;-1275.0637;;-1364.5356;;-1443.9574;;-1510.1805;;-1562.9992;;-1606.0287;;-1643.3829;;-1677.3953;;-1708.6106;;-1736.3047;;-1759.6136;;-1779.0184;;-1796.3169;;-1813.0866;;-1829.7126;;-1845.6338;;-1859.8682;;-1871.2841;;-1878.5187;;-1879.5902;;-1872.9714;;-1861.7234;;-1855.3837;;-1862.5605;;-1880.9171;;-1899.8296;;-1912.3696;;-1920.1312;;-1927.1839;;-1934.3793;;-1940.112;;-1943.1254;;-1943.1254
-18.400331;;-18.400331;;-18.400333;;-18.400448;;-18.404933;;-18.451877;;-18.796823;;-20.287058;;-22.686773;;-25.633835;;-28.611657;;-30.493839;;-29.375621;;-29.221317;;-34.138231;;-41.75023;;-52.086026;;-65.670851;;-83.485421;;-106.26541;;-135.52459;;-172.90189;;-220.34105;;-279.97669;;-353.61503;;-442.89972;;-548.9819;;-671.72593;;-808.34281;;-951.00096;;-1083.8984;;-1192.2401;;-1280.9469;;-1358.5832;;-1428.2275;;-1489.6125;;-1542.7678;;-1589.2359;;-1630.8235;;-1668.7218;;-1703.4521;;-1734.5784;;-1761.0603;;-1782.7083;;-1800.9275;;-1817.7133;;-1834.21;;-1850.1486;;-1864.2462;;-1875.0718;;-1881.453;;-1881.7192;;-1874.0834;;-1861.1045;;-1852.7289;;-1858.8869;;-1877.9061;;-1898.316;;-1911.8314;;-1919.3727;;-1925.1518;;-1930.61;;-1934.8441;;-1937.0528;;-1937.0528
-18.400331;;-18.400331;;-18.400331;;-18.400342;;-18.401201;;-18.4119;;-18.483581;;-18.872195;;-20.260485;;-22.376158;;-24.659531;;-26.121021;;-25.239184;;-26.117433;;-30.953118;;-38.265028;;-48.234285;;-61.445391;;-78.909142;;-101.37509;;-130.3622;;-167.52339;;-214.82274;;-274.31315;;-347.8561;;-437.31346;;-544.06473;;-668.23868;;-807.33332;;-953.59849;;-1089.7715;;-1195.0673;;-1275.0234;;-1342.7427;;-1404.8109;;-1463.197;;-1517.9685;;-1568.9284;;-1615.7896;;-1658.3422;;-1696.6875;;-1730.6533;;-1759.4575;;-1782.7797;;-1801.8604;;-1818.912;;-1835.4551;;-1851.3532;;-1865.2549;;-1875.8107;;-1882.2892;;-1883.6591;;-1878.351;;-1867.9495;;-1860.4173;;-1864.5183;;-1879.8566;;-1897.3703;;-1909.7437;;-1916.8726;;-1921.6779;;-1925.5034;;-1928.2299;;-1929.6422;;-1929.6422
-18.400331;;-18.400331;;-18.400331;;-18.400331;;-18.400416;;-18.401881;;-18.415144;;-18.485684;;-18.794093;;-19.918735;;-21.495882;;-22.55268;;-21.909561;;-23.529615;;-28.108652;;-34.904916;;-44.189036;;-56.55175;;-72.817856;;-94.210404;;-121.7077;;-157.0865;;-202.27432;;-259.34949;;-330.20843;;-416.83248;;-520.83741;;-642.76894;;-780.84837;;-928.50932;;-1069.7876;;-1178.3453;;-1255.418;;-1318.1397;;-1375.7052;;-1432.0646;;-1488.3271;;-1543.6869;;-1596.0202;;-1643.3431;;-1685.0319;;-1721.2527;;-1751.8493;;-1776.7251;;-1796.973;;-1814.6661;;-1831.3336;;-1847.0126;;-1860.7485;;-1871.6595;;-1879.3465;;-1883.1825;;-1882.0393;;-1876.7022;;-1872.2842;;-1874.9639;;-1885.3657;;-1898.102;;-1908.0823;;-1914.423;;-1918.4566;;-1921.1653;;-1922.9653;;-1923.9531;;-1923.9531
-18.400331;;-18.400331;;-18.400331;;-18.400331;;-18.400332;;-18.400419;;-18.401959;;-18.412544;;-18.452781;;-18.593228;;-19.243476;;-19.89314;;-19.499728;;-21.244463;;-25.367206;;-31.450509;;-39.787437;;-50.936757;;-65.667539;;-85.131722;;-110.22127;;-142.61087;;-184.12002;;-236.8246;;-302.62253;;-383.51204;;-481.30758;;-597.01103;;-729.79245;;-874.9889;;-1020.1283;;-1139.2931;;-1222.1781;;-1286.2962;;-1342.5355;;-1397.0976;;-1453.6574;;-1512.1406;;-1569.1026;;-1620.8687;;-1666;;-1704.7738;;-1737.5001;;-1764.3168;;-1786.1756;;-1804.895;;-1821.8944;;-1837.4529;;-1851.2881;;-1863.1696;;-1872.8071;;-1879.5395;;-1882.6073;;-1882.4935;;-1882.0484;;-1884.8477;;-1891.7639;;-1900.314;;-1907.6512;;-1912.9032;;-1916.5773;;-1919.2656;;-1921.2486;;-1922.4117;;-1922.4117
-18.400331;;-18.400331;;-18.400331;;-18.400331;;-18.400331;;-18.400332;;-18.400425;;-18.401249;;-18.404661;;-18.4131;;-18.433927;;-18.488705;;-18.454483;;-19.448413;;-22.892629;;-28.126748;;-35.382098;;-45.150091;;-58.11596;;-75.165599;;-97.568525;;-126.36799;;-163.38999;;-210.59445;;-269.89808;;-343.20886;;-432.44689;;-538.98497;;-662.86899;;-801.3229;;-945.76607;;-1076.5353;;-1172.3845;;-1243.4728;;-1302.0357;;-1356.4244;;-1413.1418;;-1473.5378;;-1533.9501;;-1590.0171;;-1639.6364;;-1682.4563;;-1718.4458;;-1747.7522;;-1771.4413;;-1791.397;;-1809.0602;;-1824.8928;;-1839.1789;;-1852.2924;;-1864.0112;;-1873.5012;;-1880.2157;;-1884.5772;;-1887.9378;;-1891.8146;;-1896.7602;;-1902.0788;;-1906.9153;;-1911.2603;;-1915.5295;;-1919.6257;;-1922.8824;;-1924.6621;;-1924.6621
-18.400331;;-18.400331;;-18.400331;;-18.400331;;-18.400331;;-18.400331;;-18.400331;;-18.400338;;-18.400365;;-18.400432;;-18.400549;;-18.400731;;-18.400693;;-18.49885;;-20.883425;;-25.159499;;-31.310485;;-39.700104;;-50.905512;;-65.698701;;-85.218904;;-110.3628;;-142.7814;;-184.25525;;-236.6936;;-301.88006;;-381.73208;;-477.85837;;-590.95388;;-719.7242;;-858.79622;;-994.89615;;-1105.0777;;-1186.4025;;-1251.1549;;-1308.9307;;-1367.5045;;-1429.5113;;-1492.5263;;-1552.9785;;-1608.3121;;-1656.6939;;-1696.9038;;-1728.9566;;-1754.4453;;-1775.7598;;-1794.5435;;-1811.319;;-1826.5862;;-1841.0527;;-1854.6705;;-1866.6735;;-1876.6309;;-1884.6717;;-1890.9492;;-1895.5667;;-1898.8326;;-1901.32;;-1903.968;;-1907.9633;;-1913.7619;;-1920.1616;;-1925.125;;-1927.574;;-1927.574
-18.400331;;-18.400331;;-18.400331;;-18.400331;;-18.400331;;-18.400331;;-18.400331;;-18.400331;;-18.400331;;-18.400331;;-18.400331;;-18.400332;;-18.400335;;-18.402505;;-19.297098;;-22.676487;;-27.83305;;-34.986736;;-44.615638;;-57.386382;;-74.316622;;-96.164601;;-124.41289;;-160.6597;;-206.75005;;-264.39523;;-335.42489;;-421.57131;;-523.9618;;-642.34122;;-773.58733;;-908.91322;;-1029.8646;;-1122.4168;;-1195.4045;;-1258.8691;;-1320.3906;;-1383.805;;-1449.0577;;-1514.0798;;-1575.6088;;-1629.8215;;-1674.1691;;-1708.782;;-1736.0669;;-1759.0094;;-1779.4601;;-1797.9586;;-1814.9338;;-1831.0787;;-1846.5735;;-1860.9984;;-1873.8962;;-1884.6739;;-1892.4485;;-1896.7576;;-1898.2006;;-1898.3153;;-1899.28;;-1903.2442;;-1910.6763;;-1919.2833;;-1925.7618;;-1928.7425;;-1928.7425
-18.400331;;-18.400331;;-18.400331;;-18.400331;;-18.400331;;-18.400331;;-18.400331;;-18.400331;;-18.400331;;-18.400331;;-18.400331;;-18.400331;;-18.400331;;-18.400443;;-18.490701;;-20.833497;;-25.084328;;-31.205892;;-39.551873;;-50.688975;;-65.532673;;-84.728973;;-109.62601;;-141.67592;;-182.60015;;-234.14756;;-298.03188;;-376.0491;;-469.61658;;-579.17455;;-703.07454;;-835.46862;;-962.74898;;-1065.6591;;-1145.5318;;-1212.9486;;-1275.9229;;-1340.1095;;-1407.9107;;-1477.999;;-1545.6082;;-1604.9195;;-1652.6381;;-1689.4753;;-1718.6112;;-1743.3156;;-1765.5444;;-1785.9987;;-1805.0418;;-1823.1486;;-1840.6311;;-1857.4004;;-1872.7458;;-1885.1586;;-1893.1425;;-1896.5669;;-1896.7591;;-1895.6843;;-1895.8148;;-1899.7418;;-1908.0622;;-1917.8604;;-1925.0307;;-1928.1302;;-1928.1302
-18.400331;;-18.400331;;-18.400331;;-18.400331;;-18.400331;;-18.400331;;-18.400331;;-18.400331;;-18.400331;;-18.400331;;-18.400331;;-18.400331;;-18.400331;;-18.40035;;-18.405685;;-19.532108;;-23.074919;;-28.426514;;-35.829038;;-45.778826;;-58.961244;;-76.413764;;-98.918333;;-127.97816;;-165.20874;;-212.402;;-271.21671;;-343.46453;;-430.75434;;-533.97124;;-652.39423;;-782.00529;;-912.36006;;-1023.357;;-1106.9789;;-1174.7245;;-1237.118;;-1302.1142;;-1373.4332;;-1449.0914;;-1522.3367;;-1585.8523;;-1636.2623;;-1675.022;;-1705.7422;;-1731.6397;;-1754.8124;;-1776.4115;;-1796.9488;;-1816.674;;-1835.8479;;-1854.4521;;-1871.3909;;-1884.4912;;-1892.2154;;-1895.2341;;-1895.604;;-1895.1775;;-1895.8348;;-1899.7856;;-1907.4559;;-1915.7485;;-1920.7881;;-1922.218;;-1922.218
-18.400331;;-18.400331;;-18.400331;;-18.400331;;-18.400331;;-18.400331;;-18.400331;;-18.400331;;-18.400331;;-18.400331;;-18.400331;;-18.400331;;-18.400331;;-18.400335;;-18.401165;;-18.765581;;-21.749733;;-26.530909;;-33.273728;;-42.416481;;-54.588622;;-70.770349;;-91.681708;;-118.75097;;-153.51323;;-197.76008;;-253.15606;;-321.49795;;-404.51199;;-503.35633;;-617.87539;;-745.14673;;-876.62699;;-993.43139;;-1079.2893;;-1146.0753;;-1208.1403;;-1275.0965;;-1350.505;;-1431.104;;-1508.7007;;-1575.2805;;-1627.6455;;-1667.6915;;-1699.0904;;-1724.952;;-1747.6825;;-1769.0423;;-1789.8268;;-1810.1475;;-1830.0958;;-1849.4983;;-1866.9677;;-1880.1792;;-1887.9394;;-1891.5601;;-1893.4691;;-1895.2004;;-1897.5161;;-1900.9293;;-1904.3304;;-1904.5484;;-1900.1304;;-1895.0376;;-1895.0376
-18.400331;;-18.400331;;-18.400331;;-18.400331;;-18.400331;;-18.400331;;-18.400331;;-18.400331;;-18.400331;;-18.400331;;-18.400331;;-18.400331;;-18.400331;;-18.400332;;-18.40049;;-18.486336;;-20.874018;;-25.216339;;-31.494612;;-40.081143;;-51.56278;;-66.721696;;-86.549639;;-112.27251;;-145.5374;;-187.77501;;-240.84911;;-306.53949;;-386.6549;;-482.53819;;-594.40957;;-720.07312;;-852.32534;;-974.16154;;-1063.6608;;-1131.2064;;-1194.6257;;-1264.0736;;-1342.3562;;-1425.5077;;-1505.0341;;-1572.8784;;-1625.8875;;-1665.9701;;-1696.7397;;-1721.3768;;-1742.6423;;-1762.7326;;-1782.6571;;-1802.4928;;-1822.1686;;-1841.2964;;-1858.4248;;-1871.5256;;-1879.8066;;-1884.6359;;-1888.2559;;-1891.9631;;-1895.3505;;-1895.7194;;-1888.1132;;-1869.1054;;-1843.1265;;-1823.5982;;-1823.5982
-18.400331;;-18.400331;;-18.400331;;-18.400331;;-18.400331;;-18.400331;;-18.400331;;-18.400331;;-18.400331;;-18.400331;;-18.400331;;-18.400331;;-18.400331;;-18.400331;;-18.400351;;-18.422933;;-20.28591;;-24.327983;;-30.297657;;-38.519665;;-49.555953;;-64.16534;;-83.31398;;-108.20009;;-140.2804;;-181.45268;;-233.12898;;-297.25108;;-375.70028;;-469.96324;;-580.53871;;-705.76824;;-839.49419;;-966.56897;;-1062.2524;;-1132.9558;;-1198.4949;;-1269.0777;;-1347.3153;;-1429.6822;;-1508.3414;;-1575.4351;;-1627.566;;-1666.395;;-1695.5649;;-1718.4559;;-1738.0032;;-1756.513;;-1775.0946;;-1793.8656;;-1812.6265;;-1830.8258;;-1847.1855;;-1860.203;;-1869.2848;;-1875.136;;-1879.1816;;-1882.7235;;-1884.8502;;-1878.9573;;-1854.1612;;-1806.4794;;-1749.453;;-1709.8983;;-1709.8983
-18.400331;;-18.400331;;-18.400331;;-18.400331;;-18.400331;;-18.400331;;-18.400331;;-18.400331;;-18.400331;;-18.400331;;-18.400331;;-18.400331;;-18.400331;;-18.400331;;-18.400333;;-18.408381;;-19.892959;;-23.735021;;-29.496996;;-37.47588;;-48.219852;;-62.474009;;-81.189417;;-105.70046;;-136.99336;;-177.2459;;-228.25763;;-291.47746;;-369.0162;;-462.48235;;-572.60063;;-698.14725;;-833.82806;;-966.14723;;-1069.846;;-1145.5572;;-1213.2158;;-1283.0985;;-1358.5163;;-1437.4294;;-1513.2892;;-1578.4628;;-1629.0182;;-1666.2163;;-1693.7692;;-1715.1687;;-1733.2649;;-1750.321;;-1767.577;;-1785.2118;;-1802.8647;;-1819.9113;;-1835.4448;;-1848.5136;;-1858.4177;;-1864.666;;-1867.445;;-1868.4084;;-1867.4895;;-1855.4529;;-1815.4833;;-1742.4933;;-1658.2239;;-1601.1384;;-1601.1384
-18.400331;;-18.400331;;-18.400331;;-18.400331;;-18.400331;;-18.400331;;-18.400331;;-18.400331;;-18.400331;;-18.400331;;-18.400331;;-18.400331;;-18.400331;;-18.400331;;-18.400331;;-18.403321;;-19.54131;;-23.189485;;-28.737783;;-36.458993;;-46.886173;;-60.747868;;-79.126801;;-102.88855;;-133.60192;;-172.81752;;-222.84212;;-284.96639;;-361.34234;;-453.68726;;-562.93677;;-688.2846;;-825.27799;;-962.08009;;-1074.5794;;-1156.7287;;-1226.9408;;-1295.582;;-1367.1378;;-1441.7348;;-1514.5484;;-1578.1715;;-1627.8681;;-1664.2973;;-1691.1138;;-1711.7356;;-1728.7973;;-1744.5971;;-1760.6354;;-1777.1497;;-1793.6139;;-1809.4792;;-1824.3297;;-1837.6138;;-1848.2746;;-1854.6151;;-1855.7274;;-1853.8078;;-1850.7606;;-1837.8064;;-1795.5873;;-1717.1373;;-1625.9641;;-1563.9124;;-1563.9124
-18.400331;;-18.400331;;-18.400331;;-18.400331;;-18.400331;;-18.400331;;-18.400331;;-18.400331;;-18.400331;;-18.400331;;-18.400331;;-18.400331;;-18.400331;;-18.400331;;-18.400331;;-18.401142;;-19.124115;;-22.50528;;-27.751673;;-35.105084;;-45.072727;;-58.354842;;-76.003353;;-98.850479;;-128.42761;;-166.40515;;-214.65953;;-274.95288;;-349.27511;;-439.4458;;-546.61525;;-670.41655;;-807.28337;;-947.11695;;-1067.9514;;-1156.849;;-1229.7017;;-1297.4162;;-1365.8294;;-1437.296;;-1508.642;;-1572.5085;;-1623.1658;;-1660.4393;;-1687.7254;;-1708.3181;;-1724.7303;;-1739.3598;;-1753.8996;;-1768.6468;;-1783.2523;;-1797.7591;;-1812.3656;;-1826.4727;;-1838.3147;;-1845.4318;;-1846.5532;;-1844.2585;;-1842.199;;-1834.8042;;-1805.5048;;-1746.1919;;-1674.8178;;-1625.9436;;-1625.9436
-18.400331;;-18.400331;;-18.400331;;-18.400331;;-18.400331;;-18.400331;;-18.400331;;-18.400331;;-18.400331;;-18.400331;;-18.400331;;-18.400331;;-18.400331;;-18.400331;;-18.400331;;-18.400483;;-18.7105;;-21.694914;;-26.536901;;-33.415321;;-42.790511;;-55.320549;;-71.864666;;-93.505631;;-121.73064;;-157.84191;;-203.88698;;-261.64595;;-333.06274;;-420.04554;;-523.95133;;-644.84825;;-780.04734;;-921.16702;;-1048.9172;;-1143.6089;;-1217.7982;;-1284.4536;;-1351.1825;;-1421.9709;;-1494.4583;;-1560.9333;;-1614.5965;;-1654.2974;;-1683.0433;;-1704.1702;;-1720.2836;;-1733.6497;;-1745.5994;;-1756.4112;;-1766.907;;-1779.1966;;-1794.5898;;-1811.4909;;-1826.3599;;-1836.1628;;-1840.159;;-1841.091;;-1842.9778;;-1843.6862;;-1832.4498;;-1802.0027;;-1761.6343;;-1732.8379;;-1732.8379
-18.400331;;-18.400331;;-18.400331;;-18.400331;;-18.400331;;-18.400331;;-18.400331;;-18.400331;;-18.400331;;-18.400331;;-18.400331;;-18.400331;;-18.400331;;-18.400331;;-18.400331;;-18.400352;;-18.471414;;-20.820951;;-25.175056;;-31.504366;;-40.192233;;-51.843704;;-67.265792;;-87.4833;;-113.91811;;-147.80292;;-191.12999;;-245.7489;;-313.51962;;-396.40526;;-495.94604;;-612.61735;;-744.57584;;-885.15151;;-1018.1146;;-1118.5325;;-1192.9573;;-1258.2793;;-1324.6447;;-1397.0282;;-1472.9634;;-1543.9648;;-1602.1422;;-1645.3242;;-1676.132;;-1698.182;;-1714.2788;;-1726.0561;;-1733.626;;-1737.0629;;-1739.7325;;-1748.0844;;-1765.5831;;-1788.5094;;-1809.7454;;-1824.9925;;-1834.408;;-1840.9533;;-1847.8532;;-1854.7251;;-1856.1712;;-1847.583;;-1832.3131;;-1820.4067;;-1820.4067
-18.400331;;-18.400331;;-18.400331;;-18.400331;;-18.400331;;-18.400331;;-18.400331;;-18.400331;;-18.400331;;-18.400331;;-18.400331;;-18.400331;;-18.400331;;-18.400331;;-18.400331;;-18.400333;;-18.408674;;-19.889624;;-23.707215;;-29.425742;;-37.339751;;-47.996113;;-62.140344;;-80.878308;;-105.09182;;-136.38352;;-176.49976;;-227.33951;;-290.68404;;-368.49463;;-462.46508;;-573.44883;;-700.43246;;-838.48562;;-974.68761;;-1083.1281;;-1159.7493;;-1225.0515;;-1292.2557;;-1367.1926;;-1447.2679;;-1523.3957;;-1586.6927;;-1633.8914;;-1667.1509;;-1690.3695;;-1706.4467;;-1716.0911;;-1717.9104;;-1711.8221;;-1704.3803;;-1707.4578;;-1727.4311;;-1758.2811;;-1788.4453;;-1811.3402;;-1827.3915;;-1839.7995;;-1850.9489;;-1860.7796;;-1867.03;;-1867.9279;;-1864.8759;;-1861.7654;;-1861.7654
-18.400331;;-18.400331;;-18.400331;;-18.400331;;-18.400331;;-18.400331;;-18.400331;;-18.400331;;-18.400331;;-18.400331;;-18.400331;;-18.400331;;-18.400331;;-18.400331;;-18.400331;;-18.400331;;-18.400941;;-18.996576;;-22.231222;;-27.282152;;-34.363997;;-43.95762;;-56.736072;;-73.722705;;-95.707991;;-124.18811;;-160.79095;;-207.40804;;-265.79843;;-337.85723;;-425.39921;;-529.62045;;-650.28876;;-784.1335;;-921.57023;;-1040.8716;;-1125.5217;;-1194.2737;;-1263.3578;;-1339.9965;;-1422.5662;;-1502.4072;;-1570.0881;;-1621.2;;-1657.1607;;-1681.7634;;-1697.7054;;-1705.0396;;-1701.841;;-1688.5873;;-1673.9433;;-1672.907;;-1693.9401;;-1730.2583;;-1767.8023;;-1797.7785;;-1819.6678;;-1836.4456;;-1850.2239;;-1861.0025;;-1867.8071;;-1870.6035;;-1870.8644;;-1870.4529;;-1870.4529
-18.400331;;-18.400331;;-18.400331;;-18.400331;;-18.400331;;-18.400331;;-18.400331;;-18.400331;;-18.400331;;-18.400331;;-18.400331;;-18.400331;;-18.400331;;-18.400331;;-18.400331;;-18.400331;;-18.400407;;-18.500445;;-20.923751;;-25.273208;;-31.547987;;-40.126962;;-51.604028;;-66.922118;;-86.783085;;-112.58188;;-145.83605;;-188.34687;;-241.96341;;-308.48409;;-389.81346;;-487.45603;;-601.87424;;-731.27114;;-869.1676;;-999.89159;;-1099.5214;;-1175.5293;;-1246.8051;;-1322.9802;;-1404.634;;-1484.5477;;-1553.4124;;-1606.3094;;-1644.4173;;-1671.1969;;-1688.3351;;-1695.1929;;-1690.7478;;-1677.0701;;-1662.8679;;-1661.7068;;-1681.6107;;-1717.4079;;-1756.4449;;-1789.3463;;-1813.9843;;-1832.4896;;-1847.0993;;-1858.1436;;-1864.9821;;-1867.9772;;-1868.7343;;-1868.7795;;-1868.7795
-18.400331;;-18.400331;;-18.400331;;-18.400331;;-18.400331;;-18.400331;;-18.400331;;-18.400331;;-18.400331;;-18.400331;;-18.400331;;-18.400331;;-18.400331;;-18.400331;;-18.400331;;-18.400331;;-18.400368;;-18.413212;;-19.863311;;-23.612068;;-29.215253;;-36.954706;;-47.363382;;-61.171102;;-79.462811;;-103.10322;;-133.67463;;-172.89698;;-222.72519;;-284.95532;;-361.53887;;-454.25865;;-564.15896;;-690.61957;;-829.53388;;-969.71013;;-1087.5301;;-1173.1066;;-1246.1678;;-1319.9839;;-1397.3447;;-1472.0182;;-1535.1693;;-1583.655;;-1621.5529;;-1652.8875;;-1676.2135;;-1688.0088;;-1688.1285;;-1680.9859;;-1674.2786;;-1677.0769;;-1694.9183;;-1725.298;;-1759.7249;;-1790.1611;;-1813.3629;;-1830.5666;;-1844.2406;;-1855.1919;;-1862.6992;;-1866.5232;;-1867.747;;-1867.8915;;-1867.8915
-18.400331;;-18.400331;;-18.400331;;-18.400331;;-18.400331;;-18.400331;;-18.400331;;-18.400331;;-18.400331;;-18.400331;;-18.400331;;-18.400331;;-18.400331;;-18.400331;;-18.400331;;-18.400331;;-18.400351;;-18.403851;;-19.129472;;-22.426855;;-27.52867;;-34.660436;;-44.31453;;-57.179031;;-74.294274;;-96.480565;;-125.27189;;-162.34215;;-209.67456;;-269.23641;;-342.96916;;-432.86859;;-540.40266;;-665.73466;;-806.21545;;-953.30998;;-1086.7913;;-1182.8375;;-1257.8173;;-1329.4541;;-1401.0255;;-1465.0821;;-1513.2269;;-1548.0375;;-1582.0845;;-1621.7044;;-1659.0272;;-1683.2737;;-1693.1126;;-1695.448;;-1697.9287;;-1705.967;;-1722.598;;-1747.1441;;-1774.8665;;-1799.8071;;-1818.7499;;-1832.5953;;-1844.0326;;-1854.3073;;-1862.5684;;-1867.658;;-1869.7146;;-1870.1011;;-1870.1011
-18.400331;;-18.400331;;-18.400331;;-18.400331;;-18.400331;;-18.400331;;-18.400331;;-18.400331;;-18.400331;;-18.400331;;-18.400331;;-18.400331;;-18.400331;;-18.400331;;-18.400331;;-18.400331;;-18.400339;;-18.401522;;-18.718486;;-21.625733;;-26.348999;;-33.051311;;-42.18627;;-54.411573;;-70.738685;;-91.962042;;-119.58626;;-155.26107;;-200.95934;;-258.80796;;-330.76096;;-418.92719;;-525.04889;;-649.77771;;-791.36564;;-943.00529;;-1087.538;;-1194.8294;;-1273.6872;;-1345.5301;;-1412.3931;;-1463.6114;;-1491.1221;;-1506.3882;;-1534.3078;;-1584.2109;;-1639.8848;;-1680.4102;;-1701.233;;-1711.5177;;-1720.5786;;-1732.7713;;-1749.6153;;-1770.7457;;-1793.3041;;-1813.1227;;-1827.786;;-1838.2857;;-1847.36;;-1856.5381;;-1865.0424;;-1871.1167;;-1874.0374;;-1874.8008;;-1874.8008
-18.400331;;-18.400331;;-18.400331;;-18.400331;;-18.400331;;-18.400331;;-18.400331;;-18.400331;;-18.400331;;-18.400331;;-18.400331;;-18.400331;;-18.400331;;-18.400331;;-18.400335;;-18.40035;;-18.400397;;-18.400812;;-18.516628;;-20.975565;;-25.351823;;-31.672539;;-40.34215;;-52.130701;;-67.588305;;-87.916005;;-114.43689;;-148.76479;;-192.83921;;-248.86432;;-318.82978;;-404.87638;;-508.92775;;-631.98972;;-773.0109;;-926.58832;;-1078.2739;;-1197.8926;;-1283.9045;;-1359.4037;;-1425.3048;;-1468.0192;;-1479.9573;;-1480.2136;;-1503.2195;;-1560.0824;;-1628.3334;;-1679.687;;-1706.8555;;-1720.804;;-1733.242;;-1748.7411;;-1767.3299;;-1787.6625;;-1807.5964;;-1824.4838;;-1836.8278;;-1845.6136;;-1853.3208;;-1861.5785;;-1869.8732;;-1876.3367;;-1879.7696;;-1880.817;;-1880.817
-18.400331;;-18.400331;;-18.400331;;-18.400331;;-18.400331;;-18.400331;;-18.400331;;-18.400331;;-18.400331;;-18.400331;;-18.400331;;-18.400331;;-18.400332;;-18.400387;;-18.40083;;-18.402581;;-18.406738;;-18.413257;;-18.45259;;-20.322095;;-24.312024;;-30.198282;;-38.322272;;-49.412659;;-63.980697;;-83.181021;;-108.28098;;-140.83292;;-182.70523;;-236.09156;;-303.02801;;-385.61398;;-485.88458;;-605.12853;;-742.90774;;-895.11129;;-1049.9515;;-1180.98;;-1276.3452;;-1358.8487;;-1430.3305;;-1475.949;;-1488.0404;;-1487.3184;;-1509.2978;;-1565.0125;;-1631.8361;;-1681.2782;;-1705.9712;;-1718.3166;;-1732.2776;;-1752.1599;;-1774.8954;;-1796.8121;;-1816.2891;;-1832.4084;;-1844.4736;;-1853.1832;;-1860.5831;;-1868.2966;;-1876.0932;;-1882.2834;;-1885.6157;;-1886.6291;;-1886.6291
-18.400331;;-18.400331;;-18.400331;;-18.400331;;-18.400331;;-18.400331;;-18.400331;;-18.400331;;-18.400331;;-18.400331;;-18.400331;;-18.400331;;-18.400367;;-18.401105;;-18.406339;;-18.425887;;-18.471073;;-18.545863;;-18.687637;;-19.760127;;-23.263216;;-28.60959;;-36.062267;;-46.292995;;-59.757182;;-77.539911;;-100.82928;;-131.08655;;-170.07864;;-219.89711;;-282.61982;;-360.24168;;-454.82617;;-567.85895;;-699.40054;;-846.45506;;-999.65143;;-1137.2614;;-1240.42;;-1331.5755;;-1416.5694;;-1479.5369;;-1509.1838;;-1521.013;;-1545.227;;-1592.8679;;-1647.094;;-1684.9617;;-1700.728;;-1707.8351;;-1722.3893;;-1747.9533;;-1776.9763;;-1802.2944;;-1822.6847;;-1839.1784;;-1851.8721;;-1861.1116;;-1868.5057;;-1875.59;;-1882.3557;;-1887.5137;;-1890.158;;-1890.89;;-1890.89
-18.400331;;-18.400331;;-18.400331;;-18.400331;;-18.400331;;-18.400331;;-18.400331;;-18.400331;;-18.400331;;-18.400331;;-18.400331;;-18.400335;;-18.400648;;-18.40543;;-18.435682;;-18.542776;;-18.797182;;-19.349736;;-20.19326;;-20.841857;;-22.833965;;-27.287739;;-34.013347;;-43.106239;;-55.321626;;-71.516453;;-92.780537;;-120.46264;;-156.20291;;-201.95739;;-259.80198;;-331.60871;;-419.38652;;-524.72958;;-648.05658;;-787.23898;;-934.84603;;-1073.1144;;-1179.769;;-1278.6321;;-1382.1874;;-1472.2302;;-1529.223;;-1558.562;;-1585.0397;;-1622.9314;;-1664.2543;;-1692.2409;;-1701.3052;;-1704.2206;;-1718.5992;;-1747.9491;;-1781.5183;;-1809.3119;;-1830.2063;;-1846.7644;;-1859.8283;;-1869.4579;;-1876.6871;;-1882.7126;;-1887.7458;;-1891.2726;;-1893.0698;;-1893.6431;;-1893.6431
-18.400331;;-18.400331;;-18.400331;;-18.400331;;-18.400331;;-18.400331;;-18.400331;;-18.400331;;-18.400331;;-18.400331;;-18.400351;;-18.40054;;-18.402708;;-18.423442;;-18.537053;;-18.923865;;-19.839246;;-21.285976;;-22.761919;;-23.653305;;-24.476156;;-27.332933;;-32.656346;;-40.546179;;-51.427933;;-66.026857;;-85.319064;;-110.53538;;-143.18614;;-185.08569;;-238.29867;;-304.62123;;-385.95658;;-483.97475;;-599.38033;;-730.75572;;-872.26555;;-1009.3433;;-1118.239;;-1223.007;;-1343.419;;-1459.1825;;-1541.8665;;-1585.4976;;-1612.0289;;-1642.5087;;-1678.2138;;-1706.0094;;-1717.4793;;-1721.6623;;-1735.3022;;-1762.959;;-1794.7162;;-1820.6413;;-1839.6553;;-1854.8319;;-1867.4465;;-1877.2467;;-1884.3528;;-1889.2673;;-1892.4473;;-1894.4154;;-1895.699;;-1896.4362;;-1896.4362
-18.400331;;-18.400331;;-18.400331;;-18.400331;;-18.400331;;-18.400331;;-18.400331;;-18.400331;;-18.400331;;-18.400332;;-18.400556;;-18.402564;;-18.414958;;-18.486774;;-18.823316;;-19.892496;;-21.732381;;-23.988375;;-26.096378;;-27.43789;;-28.125614;;-30.063626;;-33.779852;;-39.759996;;-48.964583;;-61.916567;;-79.407589;;-102.52234;;-132.64291;;-171.46082;;-220.97802;;-283.10474;;-359.60801;;-452.27347;;-562.13742;;-688.51896;;-827.15196;;-966.53336;;-1083.8362;;-1194.1724;;-1323.6231;;-1453.469;;-1551.5929;;-1603.9664;;-1630.0167;;-1656.7242;;-1692.6567;;-1726.7918;;-1747.2199;;-1757.2843;;-1770.0381;;-1791.1918;;-1815.0834;;-1834.8226;;-1849.6347;;-1862.1751;;-1873.727;;-1883.6361;;-1890.9313;;-1895.3018;;-1897.3689;;-1898.3986;;-1899.3567;;-1900.1501;;-1900.1501
-18.400331;;-18.400331;;-18.400331;;-18.400331;;-18.400331;;-18.400331;;-18.400331;;-18.400331;;-18.400331;;-18.40034;;-18.401525;;-18.412168;;-18.464873;;-18.687672;;-19.622174;;-21.593007;;-24.246503;;-27.249639;;-30.113954;;-31.677202;;-32.451589;;-34.251875;;-37.634465;;-42.250287;;-48.624335;;-59.38316;;-75.027677;;-96.305114;;-124.39258;;-160.84698;;-207.58394;;-266.72064;;-339.98545;;-429.2873;;-536.07779;;-660.4773;;-799.80829;;-945.69641;;-1079.8301;;-1197.8145;;-1327.5481;;-1458.1487;;-1560.983;;-1619.9395;;-1649.6004;;-1676.6827;;-1713.23;;-1751.2509;;-1778.46;;-1793.8261;;-1805.5928;;-1819.5372;;-1834.5562;;-1847.557;;-1858.2314;;-1868.4527;;-1879.1722;;-1889.2773;;-1896.9108;;-1901.1784;;-1902.6811;;-1902.7904;;-1902.6199;;-1902.5624;;-1902.5624
-18.400331;;-18.400331;;-18.400331;;-18.400331;;-18.400331;;-18.400331;;-18.400331;;-18.400331;;-18.400331;;-18.400363;;-18.404324;;-18.440215;;-18.606743;;-19.272994;;-21.083984;;-23.780988;;-27.126431;;-30.872523;;-34.182963;;-36.079687;;-36.949785;;-38.656729;;-41.721519;;-45.641596;;-50.059225;;-57.393503;;-70.906674;;-90.282858;;-116.35287;;-150.50585;;-194.55076;;-250.66289;;-320.80367;;-406.87151;;-510.71145;;-633.18848;;-773.06839;;-924.86296;;-1075.3061;;-1205.8935;;-1331.9697;;-1456.6235;;-1560.2561;;-1628.5556;;-1669.0615;;-1701.7067;;-1737.8443;;-1773.7359;;-1800.9398;;-1817.5118;;-1828.0561;;-1837.3396;;-1846.8305;;-1856.0013;;-1864.913;;-1874.6515;;-1885.5084;;-1895.8518;;-1903.3455;;-1906.8622;;-1906.9019;;-1904.7419;;-1901.8753;;-1899.8822;;-1899.8822
-18.400331;;-18.400331;;-18.400331;;-18.400331;;-18.400331;;-18.400331;;-18.400331;;-18.400331;;-18.400332;;-18.400458;;-18.410273;;-18.499344;;-18.943537;;-20.41622;;-22.901649;;-26.156246;;-30.132027;;-34.187189;;-37.824706;;-39.908978;;-40.851995;;-42.298071;;-44.626573;;-47.368301;;-50.371779;;-54.842853;;-65.800248;;-82.870045;;-106.41314;;-137.57658;;-178.01419;;-229.79723;;-295.12995;;-375.85335;;-474.01958;;-591.0669;;-726.89781;;-878.24198;;-1035.5963;;-1179.5435;;-1304.9754;;-1424.62;;-1530.4485;;-1611.6019;;-1669.5476;;-1714.6956;;-1754.2276;;-1787.7639;;-1812.2408;;-1827.6427;;-1837.2682;;-1844.9159;;-1852.7905;;-1861.4542;;-1871.118;;-1882.1183;;-1893.8322;;-1904.0518;;-1910.2718;;-1911.4438;;-1908.2678;;-1902.4728;;-1896.4047;;-1892.5559;;-1892.5559
-18.400331;;-18.400331;;-18.400331;;-18.400331;;-18.400331;;-18.400331;;-18.400331;;-18.400331;;-18.400368;;-18.401253;;-18.423694;;-18.626751;;-19.73712;;-21.988649;;-25.044901;;-28.73981;;-32.908503;;-36.909287;;-40.161706;;-41.967101;;-42.899795;;-43.958423;;-45.342341;;-46.792094;;-48.612586;;-51.708651;;-59.639978;;-74.033577;;-94.48389;;-121.85141;;-157.57466;;-203.51214;;-261.86583;;-334.46626;;-423.29333;;-530.08845;;-655.49712;;-797.86123;;-950.92394;;-1100.3321;;-1229.5003;;-1347.1387;;-1455.6887;;-1549.7334;;-1628.5173;;-1694.479;;-1748.0736;;-1788.0082;;-1814.5483;;-1830.7084;;-1840.8596;;-1848.9145;;-1857.226;;-1866.6603;;-1877.5188;;-1889.7578;;-1902.1039;;-1911.778;;-1916.0159;;-1914.0187;;-1907.3487;;-1898.893;;-1891.6678;;-1887.7047;;-1887.7047
-18.400331;;-18.400331;;-18.400331;;-18.400331;;-18.400331;;-18.400331;;-18.400331;;-18.400333;;-18.400652;;-18.405698;;-18.465083;;-19.087894;;-21.090854;;-24.00215;;-27.62394;;-31.790925;;-35.841182;;-39.159642;;-41.225817;;-42.3389;;-42.996963;;-43.59543;;-44.149193;;-44.6443;;-45.685294;;-48.226844;;-53.559301;;-65.006458;;-82.059773;;-105.27017;;-135.7978;;-175.22964;;-225.51053;;-288.48037;;-365.8571;;-459.42242;;-570.20246;;-697.58862;;-837.72786;;-980.95689;;-1111.5915;;-1228.5604;;-1338.6505;;-1443.2549;;-1543.4426;;-1636.8547;;-1716.0054;;-1774.1419;;-1811.0464;;-1832.3478;;-1845.0338;;-1854.2533;;-1862.6195;;-1871.2025;;-1880.8902;;-1892.4083;;-1904.8372;;-1914.8131;;-1918.5683;;-1915.2219;;-1907.5947;;-1899.8629;;-1894.8365;;-1892.8135;;-1892.8135
-18.400331;;-18.400331;;-18.400331;;-18.400331;;-18.400331;;-18.400331;;-18.400336;;-18.400387;;-18.401989;;-18.421525;;-18.63992;;-20.183499;;-22.864959;;-26.379801;;-30.539122;;-35.075619;;-39.067312;;-41.167958;;-41.641008;;-41.750015;;-41.908848;;-42.092165;;-42.13487;;-42.128084;;-42.790762;;-45.053218;;-49.086626;;-56.947986;;-70.477681;;-89.555974;;-114.97208;;-147.9972;;-190.26477;;-243.52459;;-309.2186;;-389.00584;;-484.07439;;-594.46762;;-717.98311;;-848.43258;;-974.65202;;-1091.1482;;-1203.6192;;-1318.7166;;-1439.7931;;-1561.79;;-1670.7585;;-1753.2202;;-1805.8683;;-1835.5907;;-1851.9464;;-1861.6026;;-1867.6884;;-1871.9818;;-1876.9947;;-1885.6477;;-1898.3688;;-1911.0851;;-1918.0183;;-1917.2642;;-1912.3957;;-1908.3664;;-1907.2174;;-1907.6465;;-1907.6465
-18.400331;;-18.400331;;-18.400331;;-18.400331;;-18.400332;;-18.400407;;-18.401041;;-18.403718;;-18.414716;;-18.482132;;-19.274865;;-21.568959;;-24.81846;;-28.873424;;-33.609668;;-38.349212;;-42.19522;;-42.964177;;-41.970135;;-41.054568;;-40.70143;;-40.67037;;-40.617056;;-40.550508;;-41.068511;;-42.973484;;-46.372749;;-51.200591;;-60.814735;;-75.825805;;-96.453998;;-123.58219;;-158.49762;;-202.78127;;-257.71934;;-324.73343;;-405.09069;;-499.30077;;-606.42034;;-723.04145;;-842.89827;;-962.10223;;-1084.2071;;-1214.9937;;-1356.5821;;-1501.6083;;-1633.982;;-1736.9072;;-1804.0453;;-1841.8128;;-1860.9017;;-1869.1339;;-1870.6726;;-1868.8035;;-1868.1878;;-1873.9706;;-1887.7784;;-1904.8453;;-1917.3597;;-1921.813;;-1921.457;;-1921.3033;;-1922.9429;;-1924.7052;;-1924.7052
-18.400331;;-18.400331;;-18.400331;;-18.400348;;-18.40048;;-18.401667;;-18.40895;;-18.436525;;-18.528122;;-18.83851;;-20.17478;;-22.841828;;-26.44403;;-30.848804;;-35.861628;;-40.7271;;-44.201745;;-44.112332;;-42.440946;;-41.003989;;-40.41619;;-40.455892;;-40.67388;;-40.882097;;-41.374326;;-42.745087;;-45.334731;;-49.029162;;-54.316404;;-65.206102;;-81.554268;;-103.69205;;-132.5327;;-169.3609;;-215.51496;;-272.1684;;-340.68502;;-422.05042;;-516.50943;;-623.20327;;-740.5118;;-868.71736;;-1009.7944;;-1162.3554;;-1321.6717;;-1479.3142;;-1621.7722;;-1733.909;;-1808.3762;;-1849.9432;;-1869.0079;;-1874.4629;;-1872.2322;;-1867.1977;;-1864.7581;;-1870.1088;;-1884.7874;;-1904.0206;;-1919.7495;;-1927.7363;;-1930.3445;;-1932.0419;;-1934.4174;;-1936.2762;;-1936.2762
-18.400331;;-18.400331;;-18.400397;;-18.401151;;-18.405087;;-18.420277;;-18.475558;;-18.746122;;-19.648767;;-20.548313;;-21.565528;;-23.834003;;-27.271735;;-31.569773;;-36.426228;;-40.969099;;-43.93883;;-44.13547;;-42.943956;;-41.838063;;-41.489392;;-41.835796;;-42.465257;;-43.046453;;-43.610739;;-44.566861;;-46.393148;;-49.320156;;-53.163357;;-58.813813;;-71.219576;;-89.448752;;-113.85476;;-145.41455;;-185.49436;;-235.41424;;-296.70234;;-371.15731;;-460.69243;;-567.39799;;-693.18241;;-838.47236;;-1000.1746;;-1170.6516;;-1339.1793;;-1496.2323;;-1633.9584;;-1742.347;;-1814.7796;;-1854.5087;;-1871.4878;;-1875.8199;;-1874.922;;-1873.6472;;-1875.3314;;-1882.5416;;-1895.7811;;-1911.6004;;-1924.2904;;-1930.869;;-1933.2971;;-1935.1551;;-1937.6414;;-1939.5491;;-1939.5491
-18.400336;;-18.400336;;-18.400987;;-18.407873;;-18.441697;;-18.555083;;-19.04368;;-20.446651;;-22.144673;;-23.409557;;-24.264399;;-25.737539;;-28.222666;;-31.786575;;-35.683094;;-39.351306;;-42.053226;;-43.328824;;-43.509611;;-43.376665;;-43.582158;;-44.299899;;-45.300509;;-46.227352;;-46.931348;;-47.663791;;-48.948037;;-51.189616;;-54.27414;;-57.927591;;-68.030569;;-84.944246;;-108.40908;;-139.34202;;-179.2741;;-230.19153;;-294.22239;;-373.41422;;-470.10647;;-586.31617;;-723.16184;;-879.85061;;-1051.9501;;-1228.9029;;-1393.5768;;-1535.9169;;-1656.3011;;-1750.2369;;-1812.8996;;-1847.788;;-1864.7647;;-1873.7024;;-1880.9986;;-1888.9606;;-1897.3576;;-1905.8141;;-1914.2152;;-1921.3465;;-1925.2607;;-1925.9495;;-1926.2318;;-1928.7527;;-1933.0519;;-1936.3444;;-1936.3444
-18.400358;;-18.400358;;-18.403425;;-18.43507;;-18.592538;;-19.242284;;-20.912726;;-23.207419;;-25.572574;;-27.164194;;-27.891683;;-29.010214;;-30.475535;;-32.621023;;-34.962551;;-37.640897;;-40.407382;;-42.792691;;-44.398537;;-45.312194;;-46.072927;;-47.070096;;-48.302254;;-49.474405;;-50.313548;;-50.932222;;-51.839237;;-53.446819;;-55.644627;;-61.357586;;-75.21445;;-95.362052;;-122.34263;;-157.46314;;-202.52046;;-259.72575;;-331.22964;;-419.3562;;-526.44572;;-654.26434;;-803.2414;;-971.05875;;-1150.0863;;-1323.4348;;-1467.5031;;-1581.1969;;-1674.147;;-1746.1563;;-1796.0601;;-1828.7707;;-1852.2992;;-1872.533;;-1891.4967;;-1908.1184;;-1920.2551;;-1926.7463;;-1927.8002;;-1924.1007;;-1917.1099;;-1910.4951;;-1909.0781;;-1914.6697;;-1923.727;;-1930.2635;;-1930.2635
-18.400492;;-18.400492;;-18.410108;;-18.509333;;-19.170955;;-21.024392;;-23.66507;;-26.77797;;-29.82165;;-31.7009;;-32.256539;;-32.656266;;-33.320147;;-34.099891;;-35.339149;;-37.45249;;-40.32826;;-43.330532;;-45.736809;;-47.302676;;-48.363455;;-49.39821;;-50.641422;;-51.917869;;-52.862757;;-53.45746;;-54.152081;;-55.261809;;-58.452357;;-70.244525;;-88.326754;;-112.95289;;-145.2423;;-186.83751;;-239.81806;;-306.41132;;-388.92269;;-489.84261;;-611.31911;;-754.51391;;-918.43871;;-1097.8574;;-1279.1259;;-1433.7812;;-1542.0319;;-1620.04;;-1681.365;;-1730.6786;;-1771.7906;;-1809.328;;-1845.4594;;-1878.7068;;-1906.1185;;-1925.5288;;-1936.017;;-1937.6361;;-1930.995;;-1917.5597;;-1901.1495;;-1888.807;;-1887.6195;;-1898.4175;;-1913.9272;;-1924.5451;;-1924.5451
-18.40129;;-18.40129;;-18.42803;;-18.869838;;-20.748402;;-23.567276;;-27.102225;;-30.994302;;-34.680551;;-36.821766;;-36.6194;;-35.882224;;-35.215784;;-35.288531;;-36.471885;;-38.732726;;-41.710556;;-44.789422;;-47.356628;;-49.100703;;-50.145757;;-50.945947;;-51.965324;;-53.239375;;-54.543039;;-56.38978;;-58.896247;;-61.247311;;-68.304157;;-83.926069;;-106.47801;;-136.58656;;-175.66583;;-225.64419;;-288.78044;;-367.23279;;-463.55729;;-580.13717;;-718.67558;;-879.16033;;-1057.7901;;-1243.6426;;-1412.021;;-1528.5079;;-1598.8246;;-1645.4725;;-1682.0703;;-1717.8486;;-1759.2015;;-1806.8077;;-1854.5981;;-1894.6997;;-1922.7189;;-1938.6044;;-1944.1927;;-1940.67;;-1928.2708;;-1908.3537;;-1886.1966;;-1871.2058;;-1871.7118;;-1887.2335;;-1907.6254;;-1921.0684;;-1921.0684
-18.404666;;-18.404666;;-18.559709;;-20.164902;;-22.935287;;-26.571406;;-30.897749;;-35.542394;;-39.955498;;-41.798562;;-40.280403;;-37.605788;;-35.647993;;-35.694383;;-37.645282;;-40.565607;;-43.711681;;-46.610816;;-48.985991;;-50.625371;;-51.541369;;-52.519634;;-54.524614;;-57.825956;;-62.297883;;-67.112991;;-71.393601;;-74.793854;;-83.077986;;-102.09532;;-129.61146;;-166.24572;;-213.57466;;-273.7732;;-349.00409;;-441.54559;;-553.89338;;-687.90217;;-844.01477;;-1019.6602;;-1206.1019;;-1382.4277;;-1510.9506;;-1584.6472;;-1628.4101;;-1659.106;;-1688.3004;;-1725.1345;;-1773.4904;;-1828.4051;;-1878.8591;;-1915.9142;;-1937.6463;;-1947.2699;;-1948.3315;;-1941.8428;;-1927.0666;;-1904.9858;;-1881.4799;;-1866.5887;;-1868.2934;;-1885.0233;;-1905.978;;-1919.5054;;-1919.5054
-18.423399;;-18.423399;;-19.354204;;-21.851986;;-25.345298;;-29.706237;;-34.71071;;-40.125683;;-44.760814;;-45.49666;;-42.226607;;-38.307756;;-35.711277;;-36.191339;;-39.000997;;-42.550706;;-45.777838;;-48.359528;;-50.409083;;-52.497962;;-56.667536;;-61.097212;;-65.072565;;-70.048973;;-76.554759;;-83.572037;;-89.610857;;-94.212462;;-102.67145;;-124.84606;;-157.84714;;-201.93796;;-258.76488;;-330.68016;;-419.57887;;-527.79314;;-657.36079;;-809.00963;;-980.79374;;-1165.2695;;-1343.8587;;-1479.2045;;-1556.5958;;-1603.9301;;-1640.1894;;-1674.7003;;-1713.2133;;-1759.4875;;-1812.5553;;-1865.1041;;-1907.4894;;-1934.5429;;-1947.8967;;-1952.3463;;-1951.1732;;-1944.4526;;-1930.7324;;-1910.6043;;-1889.3583;;-1875.7858;;-1876.4887;;-1889.8878;;-1906.9256;;-1917.982;;-1917.982
-18.651084;;-18.651084;;-20.620782;;-23.754244;;-27.848129;;-32.816677;;-38.364392;;-44.167193;;-48.588471;;-47.461815;;-43.456619;;-39.349151;;-36.953743;;-38.031293;;-41.208478;;-44.846083;;-47.794948;;-50.064096;;-54.409775;;-61.322357;;-68.71523;;-75.389282;;-81.027883;;-87.749488;;-96.434063;;-105.80713;;-113.85147;;-119.93358;;-128.30264;;-152.53758;;-191.15707;;-243.41034;;-310.76823;;-395.6285;;-499.41622;;-624.23988;;-771.18847;;-938.90097;;-1121.0323;;-1300.9095;;-1442.2706;;-1521.8476;;-1569.6897;;-1611.7041;;-1658.0236;;-1708.5484;;-1760.76;;-1812.5282;;-1860.8011;;-1901.0739;;-1929.5055;;-1945.6993;;-1952.8146;;-1954.7389;;-1953.4047;;-1948.2725;;-1937.8469;;-1922.2505;;-1905.1254;;-1892.8655;;-1890.5906;;-1897.8176;;-1908.5525;;-1915.8918;;-1915.8918
-19.664621;;-19.664621;;-22.225222;;-25.953488;;-30.681879;;-36.25412;;-42.525884;;-48.583457;;-52.45638;;-49.730458;;-45.283593;;-41.453755;;-39.789756;;-41.299588;;-44.416131;;-47.603287;;-50.453791;;-56.554659;;-65.274084;;-75.539698;;-85.972117;;-95.013743;;-102.44742;;-111.16559;;-122.42824;;-134.60277;;-145.06862;;-153.00872;;-161.91814;;-186.14527;;-229.85887;;-290.49393;;-368.92753;;-467.35769;;-586.42959;;-727.53916;;-890.09133;;-1069.1409;;-1250.7499;;-1403.0054;;-1493.6118;;-1544.4868;;-1586.5115;;-1637.7675;;-1699.6352;;-1763.5329;;-1820.8571;;-1867.1946;;-1901.7316;;-1925.5763;;-1940.6737;;-1949.2755;;-1953.5802;;-1955.2177;;-1954.7965;;-1951.8347;;-1945.306;;-1934.8754;;-1922.2399;;-1911.2686;;-1905.8816;;-1906.9625;;-1911.5467;;-1915.2651;;-1915.2651
-21.026542;;-21.026542;;-23.942912;;-28.1599;;-33.477039;;-39.674703;;-46.596581;;-53.160007;;-56.666227;;-52.834601;;-47.892936;;-44.312783;;-43.485039;;-45.265691;;-48.0895;;-51.341077;;-58.406073;;-68.595993;;-81.053996;;-94.870448;;-108.72006;;-120.54996;;-130.08675;;-141.1705;;-155.53724;;-171.1071;;-184.53577;;-194.80527;;-205.27214;;-228.15885;;-274.74439;;-342.82209;;-431.8632;;-543.35603;;-676.74303;;-831.83141;;-1005.2349;;-1186.2359;;-1349.627;;-1461.4691;;-1530.0716;;-1579.936;;-1631.3413;;-1693.6627;;-1762.452;;-1826.2665;;-1876.0043;;-1908.9046;;-1927.5801;;-1937.3429;;-1943.2359;;-1947.9825;;-1951.9258;;-1954.4589;;-1955.2343;;-1954.1604;;-1950.8804;;-1944.864;;-1936.3546;;-1927.2316;;-1920.3484;;-1917.3961;;-1917.5684;;-1918.5457;;-1918.5457
-22.184909;;-22.184909;;-25.364966;;-29.959102;;-35.745221;;-42.468645;;-49.95301;;-57.001744;;-60.392392;;-55.864799;;-50.474367;;-47.022479;;-46.886954;;-48.904351;;-52.180944;;-59.834685;;-71.103178;;-85.307462;;-101.84076;;-119.86172;;-137.80739;;-152.99316;;-165.02738;;-178.84061;;-196.72942;;-216.20808;;-233.12581;;-246.27116;;-259.80984;;-282.75709;;-328.74075;;-400.82312;;-497.94632;;-619.98218;;-764.70122;;-928.81105;;-1104.711;;-1273.9409;;-1406.1119;;-1499.7705;;-1572.2452;;-1636.4452;;-1700.8265;;-1766.5481;;-1828.1355;;-1878.497;;-1913.3662;;-1932.6706;;-1940.0118;;-1941.2813;;-1942.1062;;-1945.1273;;-1949.5174;;-1953.1698;;-1955.0037;;-1955.2027;;-1954.0327;;-1951.1394;;-1946.1123;;-1939.5604;;-1933.2558;;-1928.8635;;-1926.7054;;-1925.9995;;-1925.9995
-23.091999;;-23.091999;;-26.457325;;-31.315184;;-37.425386;;-44.503748;;-52.346673;;-59.647752;;-62.642205;;-57.763059;;-52.255267;;-49.083212;;-49.461148;;-52.495521;;-60.635924;;-72.700247;;-88.232159;;-106.92354;;-128.2961;;-151.41459;;-174.22873;;-193.23271;;-208.03393;;-224.83966;;-246.72778;;-270.75179;;-291.82185;;-308.53323;;-325.96536;;-352.65674;;-398.56524;;-469.55262;;-568.05803;;-693.93115;;-843.23875;;-1007.1916;;-1173.2533;;-1319.5162;;-1435.5941;;-1531.6918;;-1617.8125;;-1698.3252;;-1771.3381;;-1832.0707;;-1877.9626;;-1910.2592;;-1931.2907;;-1942.3173;;-1944.8934;;-1942.8629;;-1941.3053;;-1943.1746;;-1947.6467;;-1952.0134;;-1954.5975;;-1955.5295;;-1955.4625;;-1954.4289;;-1952.0042;;-1948.1841;;-1943.7818;;-1939.8745;;-1937.1;;-1935.6638;;-1935.6638
-23.934329;;-23.934329;;-27.445792;;-32.504954;;-38.847671;;-46.144809;;-54.146217;;-61.384957;;-63.259619;;-58.367518;;-53.28122;;-50.80068;;-52.560041;;-60.76324;;-73.319168;;-89.769767;;-110.11548;;-134.04875;;-161.1052;;-190.16683;;-218.6349;;-242.05439;;-259.98019;;-280.05094;;-306.31229;;-335.40164;;-361.26764;;-382.37175;;-404.82641;;-438.11311;;-488.64465;;-560.0797;;-653.87021;;-771.76236;;-910.43004;;-1057.3274;;-1201.646;;-1334.8222;;-1451.5055;;-1553.6977;;-1649.523;;-1740.8523;;-1818.7123;;-1873.4924;;-1905.7218;;-1924.3965;;-1937.0624;;-1945.05;;-1947.1933;;-1944.9047;;-1942.4263;;-1943.1514;;-1946.977;;-1951.3855;;-1954.3568;;-1955.6938;;-1956.1009;;-1955.9484;;-1955.0904;;-1953.386;;-1951.0409;;-1948.4887;;-1946.222;;-1944.8283;;-1944.8283
-24.727525;;-24.727525;;-28.362627;;-33.586748;;-40.107133;;-47.536342;;-55.558288;;-62.518882;;-63.096184;;-58.499801;;-54.290859;;-53.297822;;-60.496092;;-73.021675;;-89.932127;;-111.31771;;-137.0445;;-166.99173;;-200.74951;;-236.83849;;-271.8792;;-300.2558;;-321.51109;;-344.8418;;-375.48287;;-409.82556;;-441.01358;;-467.5313;;-496.47223;;-538.06181;;-597.84156;;-674.93521;;-765.95399;;-867.36567;;-974.4934;;-1090.4221;;-1218.8784;;-1348.4915;;-1462.3797;;-1558.1346;;-1651.2488;;-1747.9164;;-1833.1705;;-1889.9599;;-1918.0639;;-1930.9322;;-1939.8029;;-1946.6937;;-1949.3665;;-1947.8011;;-1945.2166;;-1944.9115;;-1947.5391;;-1951.3291;;-1954.3074;;-1955.86;;-1956.4487;;-1956.5883;;-1956.4142;;-1955.8752;;-1954.9512;;-1953.7072;;-1952.3803;;-1951.468;;-1951.468
-25.514216;;-25.514216;;-29.274607;;-34.667162;;-41.371146;;-48.94133;;-56.984518;;-63.641115;;-63.337227;;-59.126257;;-55.8358;;-60.151394;;-71.970465;;-88.790085;;-110.49898;;-137.31317;;-169.18389;;-206.22018;;-247.79596;;-291.94672;;-334.30792;;-367.92345;;-392.39447;;-418.45;;-452.70326;;-491.72819;;-528.46036;;-561.77267;;-599.31555;;-651.1412;;-721.59162;;-806.93692;;-896.9096;;-979.11521;;-1055.6718;;-1150.03;;-1268.3807;;-1388.4966;;-1482.7825;;-1552.1665;;-1628.8657;;-1726.5274;;-1823.524;;-1891.5808;;-1924.6353;;-1937.3967;;-1944.3002;;-1949.5565;;-1951.8776;;-1950.8944;;-1948.6225;;-1947.5866;;-1948.8695;;-1951.6554;;-1954.3371;;-1955.9646;;-1956.6306;;-1956.8232;;-1956.8394;;-1956.7387;;-1956.4856;;-1956.0443;;-1955.4868;;-1955.068;;-1955.068
-26.798042;;-26.798042;;-30.779159;;-36.476504;;-43.531847;;-51.563918;;-59.661635;;-66.045629;;-64.810378;;-60.54656;;-59.9626;;-70.328171;;-86.458727;;-107.85685;;-134.88025;;-167.75086;;-206.73401;;-251.85912;;-302.22356;;-355.208;;-405.19305;;-443.76451;;-470.7028;;-497.92152;;-533.43927;;-574.99168;;-616.96406;;-659.33495;;-708.85654;;-773.40394;;-855.27866;;-947.61189;;-1034.1722;;-1100.8628;;-1160.6464;;-1245.7532;;-1358.4052;;-1464.9757;;-1530.7173;;-1564.6208;;-1616.3932;;-1707.8116;;-1812.2019;;-1890.8188;;-1930.46;;-1944.6124;;-1949.8501;;-1952.8809;;-1954.1029;;-1953.3106;;-1951.4502;;-1950.0753;;-1950.3458;;-1952.1918;;-1954.4467;;-1956.0138;;-1956.6965;;-1956.8871;;-1956.9288;;-1956.9326;;-1956.8885;;-1956.7653;;-1956.5775;;-1956.4231;;-1956.4231
-28.949599;;-28.949599;;-33.30632;;-39.524587;;-47.319699;;-55.79339;;-64.237145;;-70.058813;;-67.295894;;-62.565054;;-68.646277;;-83.123474;;-103.51624;;-129.85844;;-162.76635;;-202.41276;;-249.27399;;-303.21276;;-362.90126;;-424.80228;;-481.68895;;-523.78909;;-551.27894;;-576.34706;;-608.06347;;-647.66235;;-694.70114;;-750.40155;;-817.08253;;-897.52857;;-991.18299;;-1087.9279;;-1168.8184;;-1223.1049;;-1273.5925;;-1355.8916;;-1467.317;;-1565.7948;;-1612.7483;;-1621.8757;;-1649.9426;;-1724.5389;;-1820.5536;;-1896.8442;;-1936.5446;;-1950.2764;;-1953.9629;;-1955.1965;;-1955.4;;-1954.5701;;-1953.0652;;-1951.7719;;-1951.6624;;-1952.9371;;-1954.7519;;-1956.1031;;-1956.7111;;-1956.8805;;-1956.9231;;-1956.9447;;-1956.9363;;-1956.872;;-1956.761;;-1956.6665;;-1956.6665
-31.675342;;-31.675342;;-36.498026;;-43.357;;-51.883548;;-61.009513;;-69.700334;;-73.952472;;-69.536051;;-67.076533;;-79.011829;;-97.71843;;-122.64388;;-154.35131;;-193.43099;;-240.27508;;-295.31845;;-358.11925;;-426.65265;;-496.01555;;-556.96712;;-599.1904;;-623.85958;;-642.77013;;-667.53384;;-705.43864;;-760.03976;;-831.44902;;-917.41979;;-1015.6335;;-1121.6048;;-1222.5307;;-1298.8222;;-1343.6509;;-1386.3974;;-1465.0752;;-1575.356;;-1672.0177;;-1715.6267;;-1717.9164;;-1730.4098;;-1781.186;;-1852.727;;-1911.5952;;-1942.8152;;-1953.5124;;-1955.8772;;-1956.175;;-1955.8226;;-1954.912;;-1953.6916;;-1952.7717;;-1952.7946;;-1953.8277;;-1955.2144;;-1956.225;;-1956.6748;;-1956.8072;;-1956.8624;;-1956.9069;;-1956.9076;;-1956.8279;;-1956.6872;;-1956.5697;;-1956.5697
-34.302158;;-34.302158;;-39.550382;;-46.980065;;-56.092628;;-65.653873;;-74.187412;;-75.583362;;-70.244648;;-75.078601;;-90.816187;;-113.4768;;-143.00166;;-180.16423;;-225.34961;;-279.17444;;-341.79453;;-412.17388;;-487.08247;;-559.56035;;-618.85057;;-657.72573;;-679.25637;;-694.46027;;-716.75686;;-756.34922;;-817.7482;;-900.5561;;-1001.8953;;-1117.4353;;-1238.6323;;-1349.5848;;-1429.8539;;-1474.3055;;-1512.6746;;-1582.1283;;-1681.3672;;-1770.3633;;-1814.1922;;-1819.9644;;-1825.3271;;-1853.1097;;-1894.7514;;-1929.8458;;-1948.7012;;-1955.1758;;-1956.4822;;-1956.4332;;-1955.8859;;-1954.9323;;-1953.8881;;-1953.2936;;-1953.5152;;-1954.411;;-1955.4454;;-1956.1638;;-1956.4951;;-1956.6274;;-1956.731;;-1956.8327;;-1956.8702;;-1956.7952;;-1956.6387;;-1956.5066;;-1956.5066
-36.052199;;-36.052199;;-41.552619;;-49.302852;;-58.655047;;-68.236937;;-76.08252;;-74.700512;;-71.013134;;-83.277241;;-103.05799;;-129.6658;;-163.69304;;-205.8939;;-256.61305;;-316.40013;;-384.8482;;-459.85506;;-536.33085;;-605.53545;;-660.13541;;-697.69573;;-720.54056;;-738.1521;;-763.35074;;-804.64812;;-864.94034;;-946.84242;;-1053.9509;;-1184.6982;;-1327.5012;;-1460.3054;;-1558.82;;-1615.4694;;-1654.992;;-1710.1687;;-1784.6332;;-1851.8125;;-1887.8047;;-1896.219;;-1899.0494;;-1910.7741;;-1929.014;;-1944.6631;;-1953.1675;;-1956.1116;;-1956.6763;;-1956.5339;;-1955.9864;;-1955.0493;;-1954.0178;;-1953.3938;;-1953.4825;;-1954.1477;;-1954.9875;;-1955.6709;;-1956.0984;;-1956.3551;;-1956.5624;;-1956.746;;-1956.8446;;-1956.8148;;-1956.697;;-1956.5922;;-1956.5922
-36.309992;;-36.309992;;-41.798761;;-49.505564;;-58.695008;;-67.907209;;-74.775224;;-72.088563;;-76.503152;;-92.577882;;-115.88094;;-146.32641;;-184.71715;;-231.44297;;-287.06561;;-351.64068;;-423.84299;;-499.84681;;-572.09331;;-634.2933;;-686.4477;;-726.7505;;-755.71084;;-781.4993;;-813.95457;;-855.3761;;-904.11921;;-969.28817;;-1071.2688;;-1213.6897;;-1381.5425;;-1544.4008;;-1670.2797;;-1744.8024;;-1787.4928;;-1826.4034;;-1870.4646;;-1908.8406;;-1930.3784;;-1936.9369;;-1938.6038;;-1942.2675;;-1947.977;;-1952.9367;;-1955.6596;;-1956.612;;-1956.7804;;-1956.6488;;-1956.2096;;-1955.3676;;-1954.2631;;-1953.3089;;-1952.9115;;-1953.1806;;-1953.9255;;-1954.825;;-1955.5911;;-1956.1113;;-1956.4503;;-1956.6824;;-1956.8053;;-1956.8151;;-1956.7606;;-1956.71;;-1956.71
-35.1217;;-35.1217;;-40.34505;;-47.662774;;-56.330503;;-64.895797;;-70.885429;;-70.320643;;-82.96829;;-102.93214;;-129.74768;;-164.0647;;-206.66152;;-257.83706;;-318.04879;;-386.63324;;-460.85323;;-534.21361;;-597.34861;;-653.60196;;-707.29792;;-754.958;;-795.31096;;-834.59471;;-878.04377;;-920.81891;;-956.54634;;-1000.107;;-1091.7098;;-1239.9867;;-1423.9996;;-1607.9567;;-1753.0967;;-1838.108;;-1880.02;;-1904.3466;;-1924.2369;;-1940.0727;;-1949.0977;;-1952.2394;;-1953.0141;;-1953.832;;-1955.0194;;-1956.0469;;-1956.6128;;-1956.8116;;-1956.8383;;-1956.7576;;-1956.4708;;-1955.8118;;-1954.7461;;-1953.5346;;-1952.6427;;-1952.4524;;-1953.0452;;-1954.1427;;-1955.2538;;-1956.0232;;-1956.4206;;-1956.5696;;-1956.5665;;-1956.4955;;-1956.4389;;-1956.4211;;-1956.4211
-33.019078;;-33.019078;;-37.813808;;-44.519822;;-52.436134;;-60.208403;;-65.718966;;-74.08044;;-90.775205;;-114.13313;;-144.48476;;-182.75836;;-229.40104;;-284.98553;;-349.50267;;-421.37406;;-495.88567;;-562.61564;;-615.89784;;-670.42485;;-730.99787;;-792.42609;;-850.89064;;-908.55632;;-965.79072;;-1014.4329;;-1047.9213;;-1083.8377;;-1164.9629;;-1307.2363;;-1489.4597;;-1671.7079;;-1812.2704;;-1891.216;;-1925.964;;-1940.1544;;-1947.5081;;-1952.3413;;-1955.0534;;-1956.0664;;-1956.3205;;-1956.4614;;-1956.6307;;-1956.7685;;-1956.8379;;-1956.8554;;-1956.8481;;-1956.8097;;-1956.6599;;-1956.2395;;-1955.4213;;-1954.3008;;-1953.2505;;-1952.7468;;-1953.0772;;-1954.0828;;-1955.2133;;-1955.9617;;-1956.1817;;-1955.9714;;-1955.5018;;-1955.0045;;-1954.6788;;-1954.5544;;-1954.5544
-30.490695;;-30.490695;;-34.796853;;-40.817924;;-47.957449;;-55.219734;;-63.994074;;-78.633574;;-98.898679;;-125.38879;;-159.10426;;-200.91796;;-251.37219;;-310.97558;;-379.16267;;-453.20032;;-525.85834;;-582.45751;;-629.19857;;-687.97833;;-762.56925;;-846.01877;;-929.38547;;-1008.3105;;-1079.9652;;-1137.9685;;-1179.1177;;-1220.498;;-1297.0616;;-1425.1709;;-1587.2258;;-1743.2138;;-1856.6103;;-1917.1655;;-1941.7754;;-1950.0874;;-1953.2356;;-1954.9918;;-1955.9603;;-1956.3205;;-1956.4345;;-1956.5544;;-1956.7011;;-1956.8071;;-1956.8405;;-1956.8144;;-1956.7557;;-1956.6902;;-1956.6093;;-1956.4134;;-1955.9455;;-1955.1623;;-1954.2734;;-1953.673;;-1953.679;;-1954.2327;;-1954.8719;;-1955.0891;;-1954.6435;;-1953.5384;;-1951.974;;-1950.3713;;-1949.1714;;-1948.5739;;-1948.5739
-27.913843;;-27.913843;;-31.767374;;-37.213456;;-44.156916;;-53.403079;;-66.394653;;-83.834801;;-106.57532;;-135.67065;;-172.25618;;-217.04041;;-270.81192;;-333.80182;;-404.87049;;-479.95416;;-548.74788;;-594.75252;;-640.28695;;-710.96771;;-807.05894;;-918.50833;;-1029.9335;;-1130.0645;;-1214.2622;;-1281.378;;-1333.6988;;-1385.3054;;-1460.1188;;-1568.7894;;-1695.5424;;-1809.5113;;-1887.636;;-1927.9051;;-1943.8984;;-1949.5291;;-1952.1565;;-1953.8609;;-1954.7861;;-1955.1424;;-1955.3978;;-1955.801;;-1956.2592;;-1956.5873;;-1956.7013;;-1956.6024;;-1956.334;;-1956.026;;-1955.8547;;-1955.8184;;-1955.6523;;-1955.1253;;-1954.3325;;-1953.5819;;-1953.0837;;-1952.7626;;-1952.2527;;-1951.1033;;-1949.0479;;-1946.0923;;-1942.5332;;-1938.9665;;-1936.1022;;-1934.5147;;-1934.5147
-25.767223;;-25.767223;;-29.56106;;-35.484787;;-43.919244;;-55.131824;;-69.933599;;-89.175748;;-113.88443;;-145.24618;;-184.24142;;-231.77653;;-288.6115;;-354.75283;;-428.54711;;-504.67046;;-569.61854;;-609.35757;;-661.61314;;-751.00123;;-870.77085;;-1009.0253;;-1145.8895;;-1263.1851;;-1354.4192;;-1425.8307;;-1485.3777;;-1543.4513;;-1612.6294;;-1696.423;;-1783.1127;;-1855.4079;;-1903.0113;;-1927.8432;;-1938.9717;;-1944.386;;-1947.8354;;-1950.0828;;-1951.2238;;-1951.8299;;-1952.5852;;-1953.668;;-1954.7936;;-1955.6236;;-1955.9671;;-1955.7131;;-1954.869;;-1953.8198;;-1953.225;;-1953.2843;;-1953.3672;;-1952.7707;;-1951.505;;-1949.9638;;-1948.2626;;-1946.1961;;-1943.4114;;-1939.5074;;-1934.3299;;-1928.1996;;-1921.7541;;-1915.702;;-1910.8113;;-1907.9948;;-1907.9948
-25.170759;;-25.170759;;-29.662525;;-36.541009;;-46.068588;;-58.514801;;-74.74386;;-95.684803;;-122.45176;;-156.21874;;-197.97142;;-248.73494;;-309.21277;;-379.23473;;-456.71799;;-535.33577;;-599.34547;;-641.62575;;-708.13964;;-815.92787;;-955.5433;;-1113.2055;;-1266.785;;-1392.5679;;-1483.7191;;-1552.8424;;-1611.3406;;-1666.4894;;-1723.268;;-1781.4812;;-1834.6008;;-1875.2239;;-1901.3044;;-1916.7201;;-1926.5194;;-1933.5629;;-1938.5737;;-1941.5904;;-1943.1791;;-1944.4617;;-1946.2121;;-1948.4051;;-1950.5963;;-1952.3366;;-1953.1991;;-1952.7035;;-1950.6958;;-1948.0736;;-1946.4987;;-1946.6007;;-1947.0105;;-1946.0023;;-1943.3417;;-1939.706;;-1935.2866;;-1929.7901;;-1922.9388;;-1914.5077;;-1904.6355;;-1894.2216;;-1884.4686;;-1876.1394;;-1869.7159;;-1866.0435;;-1866.0435
-26.347344;;-26.347344;;-31.376469;;-39.035984;;-49.579532;;-63.308941;;-81.146969;;-104.0984;;-133.35862;;-170.07597;;-215.33938;;-270.22993;;-335.41023;;-410.54929;;-493.18317;;-576.27863;;-643.72223;;-696.93614;;-778.81289;;-900.77496;;-1054.0341;;-1221.8424;;-1380.2429;;-1503.4403;;-1588.3642;;-1650.6564;;-1701.5397;;-1746.5345;;-1788.4377;;-1826.1264;;-1855.1676;;-1873.4419;;-1884.7098;;-1894.5723;;-1905.0548;;-1914.739;;-1921.901;;-1926.2822;;-1929.0487;;-1931.6724;;-1934.792;;-1938.2518;;-1941.7256;;-1944.7692;;-1946.5019;;-1945.7015;;-1941.8873;;-1936.7647;;-1933.5631;;-1933.6179;;-1934.5093;;-1932.9061;;-1927.9827;;-1920.7377;;-1911.6856;;-1900.7509;;-1888.0829;;-1873.9359;;-1858.8099;;-1844.0559;;-1831.3325;;-1821.4036;;-1814.27;;-1810.32;;-1810.32
