-19.889353;;-19.889353;;-20.09632;;-22.665562;;-26.884284;;-32.646297;;-40.113032;;-49.55404;;-61.141758;;-75.068743;;-91.574695;;-110.15839;;-130.11869;;-149.4543;;-165.81584;;-188.4802;;-222.18612;;-266.88702;;-322.91869;;-390.89274;;-470.06686;;-558.85529;;-654.76077;;-754.99233;;-858.45612;;-964.61447;;-1071.3841;;-1175.7291;;-1273.7929;;-1361.4483;;-1437.7379;;-1506.8555;;-1573.9299;;-1640.0343;;-1703.3502;;-1762.8728;;-1818.3048;;-1867.9334;;-1909.2354;;-1941.0833;;-1964.3603;;-1981.3296;;-1994.8903;;-2007.4593;;-2020.2986;;-2034.3728;;-2051.0805;;-2071.1286;;-2093.2439;;-2114.8001;;-2133.459;;-2147.9972;;-2158.1641;;-2164.5102;;-2168.5374;;-2172.3961;;-2177.5686;;-2183.7258;;-2189.2647;;-2192.5694;;-2192.1585;;-2186.9529;;-2178.4125;;-2171.6081;;-2171.6081
-19.889323;;-19.889323;;-20.073063;;-22.585653;;-26.761972;;-32.478911;;-39.892908;;-49.272392;;-60.799021;;-74.671185;;-91.154937;;-109.80828;;-130.09573;;-150.54797;;-170.78905;;-199.82042;;-239.73483;;-290.71718;;-353.17523;;-426.5159;;-509.53042;;-600.07215;;-694.69067;;-790.52837;;-887.27003;;-984.63537;;-1081.2069;;-1175.686;;-1266.0231;;-1348.8667;;-1423.0282;;-1491.9831;;-1559.9267;;-1627.124;;-1691.6095;;-1752.8352;;-1810.6851;;-1862.7407;;-1905.3366;;-1936.6876;;-1958.0079;;-1972.6704;;-1984.7537;;-1997.2622;;-2011.3641;;-2027.6361;;-2047.0689;;-2069.8416;;-2093.8952;;-2115.7236;;-2132.5557;;-2143.8238;;-2150.9703;;-2156.1405;;-2161.1972;;-2167.4828;;-2175.4284;;-2184.0409;;-2191.2686;;-2194.773;;-2191.9994;;-2181.236;;-2165.2242;;-2152.8036;;-2152.8036
-19.889235;;-19.889235;;-19.993433;;-22.24064;;-26.232095;;-31.752258;;-38.930757;;-48.023865;;-59.225301;;-72.732805;;-88.85334;;-107.252;;-127.70288;;-149.75626;;-176.18295;;-211.8511;;-257.87976;;-314.95683;;-382.99227;;-460.64639;;-546.24223;;-636.43052;;-727.03635;;-816.3353;;-905.34942;;-994.09476;;-1081.6705;;-1167.9247;;-1252.1455;;-1332.0163;;-1406.3401;;-1477.0945;;-1546.5469;;-1614.1304;;-1678.2726;;-1739.1517;;-1797.0851;;-1849.6162;;-1892.6488;;-1924.0474;;-1945.2284;;-1960.1377;;-1973.28;;-1987.7854;;-2004.6958;;-2024.0974;;-2046.1886;;-2070.519;;-2094.8358;;-2115.6817;;-2130.5278;;-2139.5461;;-2145.2249;;-2150.2116;;-2156.0123;;-2163.4113;;-2172.6048;;-2182.4864;;-2190.6582;;-2194.0135;;-2188.705;;-2171.9165;;-2147.4766;;-2128.5628;;-2128.5628
-19.889213;;-19.889213;;-19.949085;;-21.924634;;-25.737121;;-31.064554;;-38.011067;;-46.822644;;-57.711833;;-71.023775;;-86.707057;;-105.01596;;-126.07777;;-150.96136;;-182.64665;;-223.15354;;-273.7399;;-335.16248;;-406.47605;;-486.43361;;-572.27479;;-659.49542;;-744.24104;;-826.97772;;-910.03429;;-993.68037;;-1076.9053;;-1159.2809;;-1240.4911;;-1319.4084;;-1395.171;;-1468.0307;;-1538.0022;;-1604.0084;;-1665.4973;;-1723.5949;;-1779.1433;;-1830.2413;;-1873.1215;;-1905.4545;;-1928.3602;;-1945.6769;;-1961.7862;;-1979.6702;;-2000.2533;;-2023.104;;-2047.3363;;-2071.7075;;-2094.3382;;-2113.0322;;-2126.5081;;-2135.5483;;-2142.3601;;-2148.6057;;-2154.9289;;-2162.1267;;-2171.0126;;-2180.8377;;-2188.9507;;-2191.5126;;-2183.591;;-2161.5737;;-2130.28;;-2106.2414;;-2106.2414
-19.88933;;-19.88933;;-19.945706;;-21.825446;;-25.553432;;-30.775704;;-37.58672;;-46.227682;;-56.92746;;-70.050607;;-85.615125;;-104.06073;;-125.9887;;-153.06129;;-187.17606;;-229.91327;;-282.53716;;-345.19551;;-417.02989;;-496.43051;;-579.98606;;-663.1188;;-743.53836;;-823.31076;;-905.15516;;-989.25456;;-1073.7986;;-1156.9783;;-1237.9572;;-1316.6103;;-1392.8736;;-1465.9983;;-1534.3776;;-1596.7753;;-1653.7823;;-1707.4521;;-1759.1914;;-1807.996;;-1850.8199;;-1885.003;;-1910.7318;;-1931.2666;;-1950.847;;-1972.3966;;-1996.6693;;-2022.6068;;-2048.1889;;-2071.4919;;-2091.4491;;-2107.8711;;-2121.2354;;-2132.5651;;-2142.6949;;-2151.4467;;-2158.4965;;-2164.8853;;-2172.2131;;-2180.3428;;-2186.8248;;-2187.6931;;-2177.9047;;-2154.1412;;-2121.7333;;-2097.2934;;-2097.2934
-19.889955;;-19.889955;;-19.982492;;-21.970687;;-25.691787;;-30.855352;;-37.555877;;-46.022036;;-56.595715;;-69.236444;;-84.38208;;-102.39448;;-124.06315;;-151.01036;;-184.87503;;-227.08056;;-278.77988;;-339.86864;;-409.5899;;-486.34066;;-567.02639;;-648.07488;;-728.46486;;-810.38605;;-896.10482;;-985.36959;;-1075.2812;;-1162.1412;;-1243.8584;;-1320.9479;;-1394.8489;;-1465.3449;;-1530.4066;;-1588.6676;;-1641.2539;;-1690.8024;;-1739.2237;;-1786.2617;;-1829.3967;;-1865.5197;;-1893.7752;;-1916.813;;-1938.9079;;-1963.1448;;-1990.1295;;-2018.1962;;-2044.5658;;-2067.1776;;-2085.8963;;-2102.0644;;-2117.2267;;-2132.1165;;-2146.0682;;-2157.3899;;-2165.1536;;-2170.5369;;-2175.5804;;-2180.7988;;-2184.4624;;-2183.2916;;-2173.3711;;-2152.8251;;-2126.6366;;-2107.562;;-2107.562
-19.892518;;-19.892518;;-20.160522;;-22.516463;;-26.332862;;-31.466261;;-38.013763;;-46.157147;;-56.141393;;-67.914914;;-81.780178;;-97.911398;;-116.95596;;-140.95333;;-171.97965;;-211.34742;;-260.0687;;-318.23285;;-385.08146;;-459.44784;;-538.99697;;-621.05746;;-704.91643;;-792.25378;;-884.68466;;-981.30591;;-1077.9629;;-1168.9215;;-1250.5209;;-1323.8246;;-1392.6083;;-1458.7006;;-1520.538;;-1576.2188;;-1626.429;;-1673.8869;;-1720.8367;;-1767.2686;;-1810.6468;;-1847.5332;;-1876.6278;;-1900.3321;;-1922.9913;;-1947.9228;;-1975.7862;;-2004.6796;;-2031.7767;;-2055.5547;;-2076.522;;-2096.0921;;-2115.2793;;-2133.9836;;-2150.7315;;-2163.4588;;-2171.3075;;-2175.5815;;-2178.5055;;-2181.1141;;-2182.4135;;-2180.0717;;-2171.8558;;-2157.6539;;-2141.3614;;-2130.1995;;-2130.1995
-19.907032;;-19.907032;;-20.897389;;-23.810125;;-27.968321;;-33.305179;;-39.863545;;-47.597735;;-56.736498;;-67.107791;;-78.934619;;-92.08242;;-106.6839;;-125.90327;;-152.89742;;-188.33383;;-232.96815;;-287.40523;;-351.10636;;-423.6251;;-503.52379;;-588.54899;;-677.36758;;-770.99249;;-870.58649;;-974.40628;;-1076.8392;;-1170.2855;;-1249.9107;;-1317.7965;;-1380.6039;;-1442.7694;;-1503.4019;;-1559.5021;;-1610.35;;-1658.0967;;-1705.0957;;-1751.3525;;-1794.1068;;-1829.8909;;-1857.6507;;-1879.93;;-1901.0676;;-1924.5743;;-1951.4825;;-1980.2158;;-2008.4321;;-2035.3082;;-2061.4814;;-2087.2849;;-2112.0356;;-2134.4443;;-2152.8851;;-2165.8959;;-2173.2851;;-2176.7143;;-2178.6742;;-2180.5113;;-2181.4719;;-2179.7452;;-2174.373;;-2166.3689;;-2158.4216;;-2153.5227;;-2153.5227
-20.124101;;-20.124101;;-22.31003;;-25.875738;;-30.593299;;-36.437728;;-43.243693;;-50.994743;;-59.107009;;-67.405509;;-76.54373;;-86.447275;;-96.423635;;-110.44549;;-133.62288;;-165.28695;;-205.88798;;-256.34265;;-316.64105;;-386.91703;;-466.70755;;-554.50793;;-648.50698;;-748.47557;;-854.62815;;-964.04638;;-1069.6717;;-1162.6621;;-1238.1764;;-1300.053;;-1357.6763;;-1417.7627;;-1479.9278;;-1539.7105;;-1594.1564;;-1643.953;;-1691.2587;;-1736.4616;;-1777.1813;;-1810.4177;;-1835.6112;;-1855.3957;;-1873.9034;;-1894.8203;;-1919.9098;;-1948.3656;;-1978.2626;;-2008.8426;;-2040.4118;;-2072.3716;;-2102.6393;;-2128.7803;;-2148.9787;;-2162.4311;;-2169.7547;;-2173.2097;;-2175.7201;;-2178.7671;;-2181.427;;-2181.9351;;-2179.8008;;-2176.2076;;-2172.9136;;-2171.0928;;-2171.0928
-21.341002;;-21.341002;;-24.247313;;-28.495994;;-33.913496;;-40.384308;;-47.686518;;-55.544023;;-62.666753;;-68.04901;;-74.250955;;-81.474138;;-88.090402;;-97.337606;;-117.40586;;-145.90854;;-183.04656;;-229.79453;;-286.72091;;-354.30437;;-432.95377;;-522.18947;;-620.64437;;-726.66144;;-838.24359;;-950.8379;;-1056.2897;;-1145.584;;-1215.2294;;-1271.187;;-1324.8866;;-1384.6134;;-1450.3029;;-1515.9742;;-1575.9634;;-1628.7352;;-1675.9147;;-1718.8018;;-1756.4114;;-1786.9054;;-1810.1361;;-1828.2443;;-1844.6868;;-1863.2908;;-1886.8366;;-1915.448;;-1947.1616;;-1980.4518;;-2015.1687;;-2050.8523;;-2085.3221;;-2115.3844;;-2138.481;;-2153.7308;;-2162.2154;;-2166.7843;;-2170.7624;;-2175.719;;-2180.7047;;-2184.0168;;-2185.056;;-2184.4347;;-2183.2287;;-2182.3824;;-2182.3824
-23.169529;;-23.169529;;-26.513294;;-31.348687;;-37.448274;;-44.576159;;-52.445955;;-60.44401;;-66.143865;;-68.489295;;-72.316392;;-77.832463;;-82.655139;;-87.700492;;-105.26032;;-131.22063;;-165.55805;;-209.25997;;-263.35794;;-328.50748;;-405.74507;;-495.353;;-596.52298;;-706.87046;;-822.01347;;-935.12444;;-1037.229;;-1120.4976;;-1183.7631;;-1234.7399;;-1285.9386;;-1346.405;;-1416.1016;;-1487.6838;;-1553.05;;-1608.584;;-1655.3427;;-1695.6468;;-1730.3842;;-1759.3309;;-1782.5859;;-1801.1367;;-1817.2622;;-1834.819;;-1857.5761;;-1886.417;;-1919.0934;;-1953.1962;;-1988.4293;;-2025.3196;;-2062.5422;;-2096.5431;;-2123.663;;-2142.235;;-2153.2334;;-2159.714;;-2165.1482;;-2171.3266;;-2177.8397;;-2183.4633;;-2187.3324;;-2189.1268;;-2189.2411;;-2188.7902;;-2188.7902
-24.913249;;-24.913249;;-28.601871;;-33.916756;;-40.581736;;-48.263622;;-56.584513;;-64.599295;;-68.49581;;-68.687172;;-71.006402;;-75.664558;;-79.956818;;-82.085348;;-97.407392;;-121.36719;;-153.63876;;-195.13174;;-247.20054;;-310.55977;;-386.49807;;-475.68221;;-577.6027;;-689.69575;;-806.19613;;-917.83362;;-1014.8918;;-1091.9472;;-1150.3861;;-1198.754;;-1249.4259;;-1311.206;;-1383.7073;;-1458.6797;;-1526.7664;;-1583.4613;;-1629.6857;;-1668.4275;;-1701.9372;;-1731.2651;;-1756.484;;-1777.2589;;-1794.6777;;-1812.4695;;-1834.9157;;-1863.314;;-1895.4459;;-1928.7336;;-1963.1039;;-1999.9497;;-2038.7614;;-2075.9733;;-2107.2022;;-2129.9267;;-2144.4423;;-2153.3123;;-2159.8035;;-2166.1136;;-2172.8761;;-2179.7942;;-2185.9415;;-2190.0383;;-2191.6116;;-2191.71;;-2191.71
-26.312837;;-26.312837;;-30.245031;;-35.894048;;-42.940703;;-50.96654;;-59.494338;;-67.293503;;-69.621577;;-68.861143;;-70.39183;;-74.595701;;-78.984555;;-80.338266;;-93.008461;;-115.30395;;-146.06771;;-185.99407;;-236.45802;;-298.36665;;-372.94431;;-461.05685;;-562.36391;;-674.34345;;-790.72372;;-900.56736;;-993.65823;;-1067.2447;;-1124.6405;;-1174.0651;;-1226.3883;;-1289.2043;;-1361.749;;-1435.8944;;-1502.7135;;-1558.2486;;-1603.7623;;-1642.3586;;-1676.5667;;-1707.7266;;-1735.6005;;-1759.0322;;-1778.4396;;-1797.1835;;-1819.3508;;-1846.482;;-1877.0984;;-1909.2257;;-1942.8466;;-1979.2895;;-2018.3526;;-2057.0215;;-2091.1878;;-2117.8929;;-2136.3247;;-2147.886;;-2155.3125;;-2161.171;;-2167.2063;;-2174.3386;;-2182.0244;;-2188.2262;;-2191.4189;;-2192.2536;;-2192.2536
-27.499529;;-27.499529;;-31.601405;;-37.474318;;-44.75496;;-52.936906;;-61.560047;;-68.675198;;-70.227807;;-69.60643;;-70.860056;;-74.632019;;-79.112699;;-81.155056;;-90.364884;;-111.09028;;-140.49438;;-178.97891;;-227.85434;;-288.21458;;-361.13086;;-447.60621;;-547.4636;;-658.39789;;-774.29898;;-883.87126;;-976.72172;;-1051.6815;;-1112.8215;;-1166.9659;;-1222.3713;;-1284.8912;;-1354.0369;;-1423.3134;;-1485.6808;;-1538.4463;;-1583.1456;;-1622.4258;;-1658.1854;;-1691.2663;;-1721.1849;;-1746.7961;;-1768.3564;;-1788.471;;-1810.4802;;-1836.2711;;-1865.6386;;-1897.3625;;-1930.8684;;-1966.5776;;-2004.4209;;-2042.6167;;-2078.1455;;-2107.8936;;-2129.8027;;-2143.9875;;-2152.5379;;-2158.025;;-2162.8842;;-2169.2801;;-2177.5126;;-2185.1818;;-2189.7565;;-2191.3011;;-2191.3011
-28.748621;;-28.748621;;-32.988358;;-39.03085;;-46.458028;;-54.662259;;-63.041436;;-69.309335;;-71.132558;;-71.507764;;-72.943194;;-76.19765;;-80.29135;;-82.889894;;-88.339404;;-107.41197;;-135.31011;;-172.1676;;-219.21736;;-277.75502;;-348.64375;;-433.00891;;-530.88921;;-640.37257;;-756.0252;;-867.36349;;-963.98043;;-1044.5732;;-1112.789;;-1173.4995;;-1232.0119;;-1292.6531;;-1356.0559;;-1418.5625;;-1475.6572;;-1525.6623;;-1569.7866;;-1609.7603;;-1646.5583;;-1680.5393;;-1711.511;;-1738.9843;;-1763.1169;;-1785.3423;;-1808.0222;;-1833.4227;;-1862.4524;;-1894.2405;;-1927.4175;;-1961.6599;;-1997.4351;;-2034.4701;;-2070.7159;;-2102.6182;;-2126.9637;;-2143.091;;-2152.744;;-2158.1638;;-2161.8364;;-2166.8081;;-2174.392;;-2182.36;;-2187.6117;;-2189.6273;;-2189.6273
-30.207003;;-30.207003;;-34.571948;;-40.747387;;-48.224042;;-56.425721;;-64.191844;;-69.75185;;-72.646541;;-74.479855;;-76.462525;;-79.235492;;-82.509929;;-85.009966;;-87.479001;;-104.36586;;-130.48357;;-165.59251;;-210.73138;;-267.35605;;-336.16304;;-418.33823;;-514.17551;;-622.22999;;-737.93711;;-852.09034;;-954.27062;;-1041.7047;;-1116.9059;;-1183.1471;;-1243.5761;;-1301.4458;;-1358.8661;;-1415.2238;;-1468.3076;;-1516.8174;;-1561.0237;;-1601.4962;;-1638.4722;;-1672.3701;;-1703.9075;;-1733.5166;;-1761.0852;;-1786.6573;;-1811.5014;;-1837.8808;;-1867.091;;-1898.2413;;-1929.735;;-1961.5403;;-1995.2182;;-2031.7038;;-2069.1486;;-2102.9649;;-2128.8066;;-2145.7807;;-2155.8751;;-2161.2138;;-2163.9976;;-2167.4518;;-2173.5139;;-2180.521;;-2185.494;;-2187.5742;;-2187.5742
-31.933934;;-31.933934;;-36.419031;;-42.701473;;-50.211006;;-57.911463;;-64.914625;;-70.315874;;-74.451002;;-77.681086;;-80.342421;;-82.868959;;-85.471917;;-87.820971;;-89.336063;;-102.49102;;-126.68482;;-160.2223;;-203.73779;;-258.64561;;-325.75369;;-406.14346;;-500.36559;;-607.39451;;-723.42677;;-840.34594;;-947.48005;;-1039.861;;-1118.8662;;-1187.3756;;-1247.7463;;-1302.6564;;-1355.2053;;-1407.0819;;-1457.8776;;-1506.4559;;-1551.9647;;-1593.6524;;-1631.063;;-1664.9186;;-1697.0836;;-1729.0723;;-1760.6989;;-1790.766;;-1819.1956;;-1847.5122;;-1876.7743;;-1906.2478;;-1934.9946;;-1964.0079;;-1995.8808;;-2032.1836;;-2070.8618;;-2106.2359;;-2132.8128;;-2149.44;;-2158.7288;;-2163.4896;;-2165.9615;;-2168.7916;;-2173.5361;;-2178.9689;;-2182.8557;;-2184.5245;;-2184.5245
-34.027819;;-34.027819;;-38.451303;;-44.704933;;-51.97187;;-59.07811;;-65.340161;;-70.932264;;-75.958366;;-80.132912;;-83.351483;;-85.946608;;-88.55617;;-91.427096;;-93.565603;;-101.75907;;-124.13663;;-156.32266;;-198.52335;;-252.04851;;-317.92915;;-397.04229;;-490.16546;;-596.60338;;-713.10718;;-832.23142;;-942.57339;;-1036.5605;;-1115.0544;;-1182.0156;;-1240.3886;;-1292.6062;;-1341.8013;;-1390.7698;;-1440.5951;;-1490.6963;;-1539.3634;;-1584.3074;;-1623.9381;;-1658.8512;;-1691.8008;;-1725.6154;;-1760.7902;;-1795.4828;;-1828.0279;;-1858.5132;;-1887.6164;;-1915.3798;;-1942.0624;;-1969.3849;;-2000.0268;;-2035.5071;;-2073.8145;;-2109.0223;;-2134.8847;;-2149.6696;;-2156.6026;;-2160.0843;;-2163.0935;;-2167.0561;;-2171.8177;;-2175.9837;;-2178.4527;;-2179.3749;;-2179.3749
-38.182731;;-38.182731;;-41.940624;;-47.798379;;-54.295139;;-60.441545;;-66.111105;;-71.724846;;-77.016047;;-81.498435;;-84.933081;;-87.711503;;-90.876367;;-94.869383;;-98.052969;;-101.83156;;-122.33964;;-153.16183;;-194.12012;;-246.37999;;-311.16796;;-389.13778;;-481.24183;;-587.03919;;-703.66367;;-824.00444;;-935.58555;;-1028.0545;;-1102.738;;-1165.8123;;-1221.4642;;-1271.9656;;-1319.7463;;-1367.6714;;-1417.9284;;-1470.8635;;-1524.3333;;-1574.4975;;-1618.2402;;-1655.4532;;-1689.2703;;-1723.8258;;-1760.9689;;-1799.0132;;-1834.9386;;-1867.2497;;-1896.3932;;-1923.6011;;-1950.3022;;-1978.1552;;-2008.802;;-2042.9525;;-2078.7741;;-2111.0472;;-2133.7069;;-2144.687;;-2147.8371;;-2149.5679;;-2153.949;;-2160.6922;;-2166.9515;;-2170.6451;;-2171.9623;;-2172.1987;;-2172.1987
-44.417463;;-44.417463;;-47.642814;;-52.7945;;-58.292236;;-63.517418;;-68.650796;;-73.702971;;-78.367937;;-82.293038;;-85.309487;;-87.942915;;-91.541272;;-96.46496;;-100.3418;;-101.62347;;-120.0819;;-149.45826;;-189.05934;;-239.8419;;-303.13986;;-379.48316;;-469.9244;;-574.22776;;-689.8365;;-809.93078;;-921.29614;;-1011.0752;;-1081.5472;;-1141.3203;;-1195.6551;;-1246.5364;;-1295.392;;-1344.5411;;-1396.69;;-1452.9737;;-1511.169;;-1566.4115;;-1614.3993;;-1654.2687;;-1689.1044;;-1723.8046;;-1761.389;;-1800.7729;;-1838.4123;;-1871.9065;;-1901.6692;;-1929.8616;;-1958.5961;;-1988.9835;;-2021.1539;;-2054.4531;;-2086.8322;;-2114.0914;;-2131.3896;;-2137.2882;;-2136.3924;;-2136.6231;;-2142.6667;;-2152.4273;;-2160.5259;;-2164.3139;;-2165.152;;-2165.1697;;-2165.1697
-52.189322;;-52.189322;;-55.066589;;-59.613636;;-64.556748;;-69.718402;;-74.546931;;-78.340943;;-81.195085;;-83.395857;;-85.078171;;-86.904832;;-90.237171;;-95.167535;;-98.9503;;-99.378858;;-116.20439;;-144.09376;;-181.98985;;-230.70776;;-291.62669;;-365.2745;;-452.75513;;-554.05081;;-667.01279;;-785.49075;;-896.79569;;-986.45672;;-1056.3694;;-1116.5811;;-1172.8138;;-1226.5273;;-1278.2108;;-1329.641;;-1383.7394;;-1442.1168;;-1502.7374;;-1560.6128;;-1611.1673;;-1653.1761;;-1689.3852;;-1724.553;;-1761.9128;;-1800.8959;;-1838.4628;;-1872.4714;;-1903.4971;;-1933.9256;;-1965.8588;;-1999.6844;;-2034.1169;;-2067.0714;;-2096.0531;;-2117.9967;;-2130.0782;;-2132.2576;;-2129.4561;;-2129.5048;;-2136.6565;;-2147.6867;;-2156.2374;;-2159.8665;;-2160.6931;;-2160.9275;;-2160.9275
-60.645077;;-60.786959;;-63.405679;;-67.528787;;-72.716279;;-78.618613;;-83.555951;;-85.912434;;-86.05701;;-85.409843;;-84.870829;;-85.270275;;-87.654366;;-91.725817;;-94.853978;;-95.370522;;-110.75092;;-136.86479;;-172.50073;;-218.38033;;-275.90884;;-345.71574;;-428.93558;;-525.8651;;-634.99716;;-751.44636;;-864.59882;;-959.83264;;-1035.6981;;-1101.5299;;-1162.8074;;-1220.4163;;-1274.3975;;-1326.6279;;-1380.4976;;-1438.0406;;-1497.6764;;-1555.1203;;-1606.3628;;-1650.0992;;-1688.3139;;-1724.6937;;-1761.7661;;-1799.3205;;-1835.6105;;-1869.6687;;-1902.3649;;-1935.7282;;-1971.2628;;-2008.434;;-2044.6659;;-2076.8245;;-2102.528;;-2120.4058;;-2130.0111;;-2132.4714;;-2131.6964;;-2133.4254;;-2140.5551;;-2149.9971;;-2156.5464;;-2158.9142;;-2159.5112;;-2159.9623;;-2159.9623
-68.643847;;-68.78856;;-71.040797;;-75.317827;;-81.69784;;-88.969243;;-94.314234;;-95.223663;;-92.374746;;-88.407908;;-85.207815;;-83.839615;;-84.92108;;-87.703738;;-90.064372;;-91.287237;;-104.97145;;-129.00006;;-161.99579;;-204.6045;;-258.21346;;-323.79163;;-402.4119;;-494.78101;;-600.17618;;-715.23718;;-832.01976;;-937.38924;;-1024.8741;;-1100.386;;-1168.211;;-1228.8076;;-1282.7763;;-1333.014;;-1383.6663;;-1437.2231;;-1492.8783;;-1547.6365;;-1598.5193;;-1644.0931;;-1685.0029;;-1723.1716;;-1760.0712;;-1795.9405;;-1830.6505;;-1864.6797;;-1899.1895;;-1935.5709;;-1974.4082;;-2014.1182;;-2051.0644;;-2081.7153;;-2104.6446;;-2120.5866;;-2131.0588;;-2137.3893;;-2141.3684;;-2145.6948;;-2151.7189;;-2157.4128;;-2160.0482;;-2160.1021;;-2160.0627;;-2160.6012;;-2160.6012
-73.961393;;-73.961393;;-76.355704;;-81.617259;;-89.689192;;-98.48472;;-104.34123;;-103.94008;;-98.615807;;-91.853484;;-86.257465;;-83.175181;;-82.851456;;-84.252288;;-85.938515;;-88.355878;;-100.71272;;-122.73768;;-153.15847;;-192.61757;;-242.51877;;-304.40615;;-379.2398;;-467.97235;;-570.51193;;-684.71119;;-804.79139;;-920.02371;;-1020.9058;;-1107.8916;;-1182.5;;-1244.9064;;-1297.2321;;-1343.8986;;-1389.6317;;-1437.32;;-1487.2793;;-1538.163;;-1588.1203;;-1635.4524;;-1679.1909;;-1719.3497;;-1756.4678;;-1791.3083;;-1825.1413;;-1859.6169;;-1896.0322;;-1934.953;;-1975.9144;;-2016.6448;;-2053.3325;;-2082.8727;;-2104.8957;;-2121.356;;-2134.372;;-2144.7424;;-2152.584;;-2158.4934;;-2162.7702;;-2164.4295;;-2163.1216;;-2161.08;;-2160.7855;;-2161.7188;;-2161.7188
-76.558061;;-76.558061;;-79.164343;;-85.250508;;-94.464513;;-104.2353;;-110.45091;;-109.375;;-102.83694;;-94.643516;;-87.643281;;-83.30193;;-81.687286;;-81.745446;;-82.846339;;-86.746522;;-99.059056;;-119.56389;;-147.82732;;-184.64974;;-231.4604;;-290.06541;;-361.92884;;-447.7906;;-547.84484;;-660.69043;;-782.05351;;-903.61521;;-1015.978;;-1114.5208;;-1196.2511;;-1260.5988;;-1311.5692;;-1355.0374;;-1395.925;;-1437.5482;;-1481.6402;;-1528.4753;;-1577.0606;;-1625.3891;;-1671.2077;;-1713.1297;;-1751.1332;;-1786.3663;;-1820.8346;;-1856.6739;;-1894.9585;;-1935.2788;;-1976.3124;;-2016.116;;-2052.2168;;-2082.6078;;-2106.9034;;-2126.1018;;-2141.2722;;-2152.8236;;-2160.9807;;-2166.2081;;-2168.5129;;-2167.4334;;-2164.0611;;-2161.6504;;-2162.2949;;-2164.1953;;-2164.1953
-78.320391;;-78.465883;;-80.395054;;-85.963071;;-94.84614;;-104.35298;;-110.40022;;-109.62771;;-103.57511;;-95.680772;;-88.651025;;-83.871762;;-81.323671;;-80.280466;;-81.026294;;-86.680995;;-99.864505;;-119.48329;;-145.90817;;-180.39263;;-224.5624;;-280.23783;;-349.33597;;-432.63298;;-530.15576;;-640.95719;;-761.83753;;-886.487;;-1006.8604;;-1115.0993;;-1203.6071;;-1270.4866;;-1321.1628;;-1362.4991;;-1399.5228;;-1436.2128;;-1475.7526;;-1519.5338;;-1566.8315;;-1615.2924;;-1661.9943;;-1704.9945;;-1744.2577;;-1781.2172;;-1817.8405;;-1855.7591;;-1895.2516;;-1935.056;;-1973.7993;;-2011.2253;;-2047.4417;;-2081.4723;;-2111.1801;;-2134.5071;;-2150.6712;;-2160.5436;;-2166.0845;;-2168.952;;-2169.3848;;-2167.2234;;-2164.1945;;-2163.4843;;-2166.1019;;-2169.1842;;-2169.1842
-79.425794;;-79.572019;;-80.437458;;-84.554563;;-92.157152;;-100.56105;;-105.89878;;-105.61798;;-101.00278;;-94.728318;;-88.89287;;-84.53302;;-81.66564;;-80.136005;;-81.121513;;-88.575042;;-102.84124;;-122.42465;;-147.48106;;-179.69502;;-221.48855;;-274.87507;;-341.69338;;-423.19304;;-518.94358;;-628.17365;;-748.30413;;-874.14436;;-998.38658;;-1111.644;;-1203.8272;;-1272.0668;;-1322.332;;-1361.973;;-1396.3674;;-1430.2697;;-1467.7532;;-1510.4809;;-1557.3665;;-1605.6499;;-1652.2555;;-1695.4098;;-1735.5886;;-1774.5879;;-1813.8449;;-1853.641;;-1892.9839;;-1930.251;;-1965.1718;;-2000.1216;;-2037.8842;;-2077.6489;;-2114.2509;;-2141.913;;-2158.4608;;-2166.1137;;-2168.9602;;-2169.7522;;-2168.9398;;-2166.7771;;-2165.3845;;-2167.2289;;-2171.8753;;-2175.8316;;-2175.8316
-79.26972;;-79.41644;;-79.380687;;-82.186378;;-88.475226;;-95.560262;;-99.910327;;-99.904311;;-96.867756;;-92.691872;;-88.619916;;-85.254903;;-82.791556;;-81.639891;;-83.487144;;-92.050027;;-107.01882;;-126.93506;;-151.51708;;-182.21169;;-222.67603;;-275.20424;;-341.46202;;-422.85328;;-518.69192;;-628.05649;;-748.32605;;-874.10603;;-997.57403;;-1109.0328;;-1198.8559;;-1264.6366;;-1312.3921;;-1349.9209;;-1383.3457;;-1417.6145;;-1456.2466;;-1500.0901;;-1547.4831;;-1595.5769;;-1641.6041;;-1684.2915;;-1724.7099;;-1764.9732;;-1805.9384;;-1846.4808;;-1884.4746;;-1918.5122;;-1950.0075;;-1983.7187;;-2024.018;;-2069.3874;;-2111.8225;;-2142.9166;;-2160.155;;-2167.3104;;-2169.8429;;-2170.6421;;-2169.9172;;-2168.2584;;-2168.1528;;-2171.5382;;-2177.0993;;-2181.262;;-2181.262
-77.77536;;-77.922335;;-77.523379;;-79.698919;;-85.123247;;-91.096313;;-94.537838;;-94.720423;;-93.081744;;-90.813984;;-88.409169;;-86.235198;;-84.749151;;-84.668146;;-87.498589;;-96.226198;;-111.17544;;-131.07656;;-155.60073;;-186.44279;;-227.66362;;-281.43741;;-349.34162;;-432.69921;;-530.63036;;-641.97121;;-763.41695;;-888.14384;;-1006.582;;-1109.6972;;-1190.9231;;-1249.544;;-1291.7244;;-1326.4209;;-1361.0071;;-1399.3697;;-1442.2375;;-1488.4972;;-1536.4031;;-1584.0327;;-1629.4631;;-1671.7862;;-1712.1077;;-1752.4517;;-1793.3938;;-1833.3113;;-1869.8346;;-1902.0832;;-1932.533;;-1966.7612;;-2009.1729;;-2057.465;;-2102.5298;;-2135.4565;;-2154.2385;;-2163.4408;;-2168.5498;;-2171.7261;;-2172.6165;;-2171.8181;;-2171.919;;-2174.8464;;-2179.563;;-2183.085;;-2183.085
-75.493507;;-75.640658;;-75.368067;;-77.545432;;-82.599725;;-87.868081;;-90.754126;;-91.178543;;-90.594184;;-89.689686;;-88.539723;;-87.497462;;-87.220276;;-88.397335;;-91.988725;;-100.15816;;-114.27164;;-133.64787;;-158.51714;;-191.44132;;-235.39095;;-292.13263;;-363.32408;;-449.95947;;-551.14431;;-665.42029;;-788.41269;;-911.14092;;-1021.6746;;-1112.8553;;-1182.419;;-1231.4067;;-1266.3663;;-1298.1521;;-1335.6398;;-1380.5124;;-1429.0267;;-1477.5277;;-1525.085;;-1571.8466;;-1617.0796;;-1659.7434;;-1700.0906;;-1739.4989;;-1778.7377;;-1817.0456;;-1852.9566;;-1886.0142;;-1918.2944;;-1954.2218;;-1997.0953;;-2044.527;;-2088.5626;;-2121.8387;;-2143.092;;-2156.2937;;-2165.5918;;-2172.1528;;-2175.3854;;-2175.8115;;-2175.6993;;-2177.0796;;-2179.9073;;-2182.2726;;-2182.2726
-73.034563;;-73.181828;;-73.324566;;-75.90378;;-81.020894;;-86.088671;;-88.80758;;-89.348546;;-89.203681;;-89.002886;;-88.748331;;-88.739309;;-89.594535;;-91.799674;;-95.853394;;-103.23259;;-115.99957;;-134.91818;;-161.50013;;-197.83263;;-245.47299;;-306.02497;;-381.22813;;-471.3849;;-575.96356;;-692.98794;;-816.82998;;-936.2206;;-1037.7449;;-1117.4417;;-1176.7797;;-1217.894;;-1247.4652;;-1277.6444;;-1318.0864;;-1368.2587;;-1420.606;;-1469.7157;;-1516.0139;;-1561.9061;;-1607.6308;;-1651.4424;;-1692.0578;;-1729.8968;;-1766.3821;;-1802.6004;;-1838.6297;;-1874.0646;;-1909.4288;;-1946.9306;;-1988.5414;;-2032.6066;;-2073.6919;;-2106.8427;;-2131.1415;;-2148.7887;;-2161.9249;;-2171.1126;;-2176.2831;;-2178.2012;;-2178.6443;;-2179.3887;;-2181.0346;;-2182.5813;;-2182.5813
-70.762131;;-70.909619;;-71.491114;;-74.566673;;-80.019083;;-85.343526;;-88.212759;;-88.640537;;-88.310601;;-88.291526;;-88.729758;;-89.671752;;-91.441296;;-94.351921;;-98.677982;;-105.42933;;-117.1322;;-137.21081;;-167.05608;;-207.21852;;-258.87771;;-323.67222;;-402.77129;;-496.27833;;-603.77996;;-722.55256;;-845.61253;;-959.91775;;-1052.9654;;-1124.365;;-1177.7139;;-1215.6766;;-1244.4052;;-1275.2364;;-1316.922;;-1367.8366;;-1419.5817;;-1466.9222;;-1511.4456;;-1556.7959;;-1603.5309;;-1648.9007;;-1689.9292;;-1726.1444;;-1759.8137;;-1793.862;;-1829.6442;;-1866.5919;;-1903.7895;;-1941.6627;;-1981.3689;;-2022.2643;;-2061.1989;;-2094.8897;;-2122.006;;-2142.8318;;-2158.0651;;-2168.3831;;-2174.6645;;-2178.18;;-2180.3746;;-2182.3865;;-2184.5358;;-2186.1107;;-2186.1107
-68.736469;;-68.884339;;-69.661583;;-72.923614;;-78.581674;;-84.322159;;-87.661085;;-88.166832;;-87.625774;;-87.661621;;-88.644997;;-90.354836;;-92.797233;;-96.186132;;-100.72923;;-107.19297;;-119.76274;;-143.52109;;-177.4251;;-221.87008;;-278.11332;;-347.50705;;-430.42085;;-527.27645;;-637.05975;;-755.98147;;-875.62331;;-982.68952;;-1068.4148;;-1134.8482;;-1186.0558;;-1224.9145;;-1256.5979;;-1289.8146;;-1330.9203;;-1378.3149;;-1425.605;;-1469.3833;;-1511.8248;;-1556.5838;;-1604.0538;;-1650.6632;;-1692.1272;;-1727.3727;;-1759.2273;;-1791.451;;-1825.7845;;-1861.7066;;-1898.1314;;-1935.0735;;-1973.4852;;-2013.2883;;-2052.2754;;-2087.3369;;-2116.2089;;-2138.1366;;-2153.6683;;-2164.1106;;-2171.0727;;-2176.2241;;-2180.8359;;-2185.227;;-2188.8436;;-2190.9032;;-2190.9032
-66.926738;;-67.074868;;-67.747452;;-70.700635;;-76.117083;;-82.085926;;-86.144059;;-87.392026;;-87.279033;;-87.612072;;-88.975004;;-91.149609;;-94.039038;;-97.782252;;-102.51834;;-109.44478;;-126.81959;;-155.36581;;-194.12727;;-243.82405;;-305.80384;;-380.4174;;-468.2414;;-568.94205;;-680.19178;;-796.44576;;-908.13978;;-1005.0577;;-1083.8008;;-1147.0178;;-1197.864;;-1238.9031;;-1274.3906;;-1310.3639;;-1350.5593;;-1393.597;;-1435.7377;;-1475.675;;-1515.7516;;-1559.1197;;-1606.0531;;-1652.7839;;-1694.4983;;-1729.8044;;-1761.4076;;-1792.6027;;-1824.6821;;-1857.5732;;-1891.3354;;-1926.7609;;-1964.8361;;-2005.2656;;-2045.5357;;-2081.8593;;-2111.2329;;-2132.8622;;-2147.9528;;-2158.4483;;-2166.2748;;-2173.2197;;-2180.2616;;-2186.8383;;-2191.6063;;-2193.9198;;-2193.9198
-65.374544;;-65.522731;;-66.0425;;-68.491625;;-73.373458;;-79.320127;;-84.156745;;-86.684797;;-87.639142;;-88.515677;;-90.093201;;-92.473795;;-95.677461;;-99.724207;;-104.64344;;-114.80955;;-138.23357;;-172.0391;;-216.38775;;-272.44048;;-341.02209;;-422.44163;;-516.80404;;-622.36333;;-734.27696;;-843.63536;;-941.55259;;-1025.4027;;-1096.4518;;-1156.7576;;-1207.7494;;-1250.8844;;-1289.4308;;-1327.6632;;-1367.6078;;-1407.9552;;-1446.6523;;-1483.677;;-1521.2856;;-1562.1689;;-1606.803;;-1652.0612;;-1693.5237;;-1729.6059;;-1762.1594;;-1793.2756;;-1823.5905;;-1853.6438;;-1884.9264;;-1919.2053;;-1957.3308;;-1998.2896;;-2039.0016;;-2075.4183;;-2104.5396;;-2125.882;;-2141.0662;;-2152.2535;;-2161.4143;;-2170.2408;;-2179.2475;;-2187.146;;-2192.2813;;-2194.4611;;-2194.4611
-63.801964;;-63.949772;;-64.626441;;-66.92978;;-71.442552;;-77.342545;;-82.89626;;-86.75829;;-88.911013;;-90.364351;;-92.08187;;-94.600769;;-98.105058;;-102.42441;;-107.77642;;-123.766;;-152.00253;;-190.8279;;-240.87365;;-303.52692;;-379.10291;;-468.1003;;-569.80729;;-680.72978;;-792.43139;;-891.10407;;-972.33884;;-1042.3529;;-1105.3866;;-1162.8755;;-1214.5205;;-1260.0713;;-1301.2336;;-1340.9733;;-1380.7435;;-1419.679;;-1456.6307;;-1491.9411;;-1527.3766;;-1565.0845;;-1605.9703;;-1648.2935;;-1688.7444;;-1725.5125;;-1759.2203;;-1790.9182;;-1821.0269;;-1850.4964;;-1881.3681;;-1915.5502;;-1953.4038;;-1993.3761;;-2032.5677;;-2067.7359;;-2096.5427;;-2118.5674;;-2135.0362;;-2147.6497;;-2158.1209;;-2168.0565;;-2177.8833;;-2186.2231;;-2191.4689;;-2193.6194;;-2193.6194
-61.336804;;-61.336804;;-62.841372;;-65.711882;;-70.369621;;-76.429642;;-82.647463;;-87.635779;;-90.827076;;-92.833992;;-94.767281;;-97.497263;;-101.27204;;-105.69184;;-112.03119;;-132.57038;;-164.53813;;-207.4439;;-262.29915;;-330.38794;;-411.93413;;-507.37125;;-615.26435;;-730.50427;;-841.13313;;-929.57252;;-997.57696;;-1056.8579;;-1113.5114;;-1168.9188;;-1221.7095;;-1269.9789;;-1313.4552;;-1353.7672;;-1392.5166;;-1429.9675;;-1465.8101;;-1500.1977;;-1533.8991;;-1568.2601;;-1604.7001;;-1643.2129;;-1681.8342;;-1718.5003;;-1752.8;;-1785.4365;;-1817.1545;;-1848.8639;;-1881.8453;;-1916.9858;;-1953.9671;;-1991.4415;;-2027.7225;;-2061.0739;;-2089.9667;;-2113.6782;;-2132.3484;;-2146.4827;;-2157.1514;;-2166.2574;;-2175.2306;;-2183.5202;;-2189.4445;;-2192.2521;;-2192.2521
-57.495724;;-57.495724;;-60.09645;;-64.153864;;-69.481012;;-75.955077;;-82.816126;;-88.765953;;-92.91563;;-95.568448;;-97.866917;;-100.81501;;-104.61021;;-108.64762;;-115.49016;;-138.15259;;-172.19317;;-217.42577;;-275.00919;;-346.06193;;-430.87836;;-529.75452;;-640.83227;;-758.10478;;-867.82875;;-952.02393;;-1015.1781;;-1070.0451;;-1123.7606;;-1178.2674;;-1232.0074;;-1282.1597;;-1326.9838;;-1367.0332;;-1404.1879;;-1439.8957;;-1474.5667;;-1507.9206;;-1539.6239;;-1570.3869;;-1602.2896;;-1636.854;;-1673.1272;;-1708.9414;;-1743.5062;;-1777.7297;;-1812.6725;;-1848.622;;-1885.2333;;-1921.8252;;-1957.6509;;-1992.299;;-2025.713;;-2057.5549;;-2086.8769;;-2112.5355;;-2133.3797;;-2148.3737;;-2157.8178;;-2164.3735;;-2171.3294;;-2179.4471;;-2186.6448;;-2190.6716;;-2190.6716
-53.121277;;-53.121277;;-56.915903;;-62.355785;;-68.625001;;-75.649746;;-83.096717;;-89.88654;;-94.986503;;-98.399234;;-101.11459;;-104.08738;;-107.41401;;-110.3833;;-116.32325;;-139.18874;;-173.48004;;-218.94682;;-276.72421;;-347.81222;;-432.53508;;-531.14866;;-641.7725;;-758.54193;;-868.56655;;-956.07719;;-1023.196;;-1080.3108;;-1134.7952;;-1189.5016;;-1243.4588;;-1293.9854;;-1339.0567;;-1378.7532;;-1414.8472;;-1449.0999;;-1481.9846;;-1512.6823;;-1540.4087;;-1566.413;;-1594.0232;;-1625.5317;;-1660.0128;;-1695.3081;;-1730.9857;;-1768.2343;;-1807.756;;-1848.66;;-1889.0104;;-1927.0587;;-1962.1903;;-1995.04;;-2026.6889;;-2057.5761;;-2087.1041;;-2113.8963;;-2135.9391;;-2151.1544;;-2159.3381;;-2163.6749;;-2168.7585;;-2176.3794;;-2184.3011;;-2189.1747;;-2189.1747
-49.746679;;-49.746679;;-54.554684;;-61.125843;;-68.279716;;-75.801205;;-83.672032;;-91.074521;;-96.969051;;-101.09521;;-104.15778;;-106.92914;;-109.39303;;-110.89202;;-115.01542;;-136.89186;;-170.15376;;-214.33512;;-270.45123;;-339.41711;;-421.53432;;-517.09926;;-624.48452;;-738.67225;;-849.23074;;-943.59725;;-1019.7754;;-1083.7127;;-1141.8611;;-1197.8527;;-1251.7968;;-1302.0502;;-1347.2827;;-1387.4807;;-1423.7054;;-1456.9203;;-1486.7463;;-1511.6518;;-1531.5797;;-1550.5502;;-1574.3934;;-1605.1583;;-1640.1779;;-1676.8107;;-1715.4277;;-1757.3749;;-1802.237;;-1847.7018;;-1891.039;;-1930.5144;;-1965.9895;;-1998.5586;;-2029.5791;;-2059.7209;;-2088.608;;-2115.0003;;-2136.9998;;-2152.5888;;-2161.265;;-2165.5635;;-2169.7527;;-2176.1449;;-2183.2966;;-2187.9819;;-2187.9819
-48.149602;;-48.149602;;-53.456943;;-60.882406;;-68.658346;;-76.489521;;-84.488359;;-92.097541;;-98.40497;;-103.05369;;-106.46476;;-109.13208;;-110.92195;;-111.37961;;-113.67338;;-133.71122;;-165.22359;;-207.3487;;-260.88992;;-326.70188;;-404.9702;;-496.03622;;-598.59704;;-708.64816;;-818.35809;;-918.22906;;-1003.6094;;-1075.9769;;-1139.7269;;-1198.4759;;-1253.4574;;-1304.4934;;-1351.2288;;-1393.4798;;-1431.1838;;-1463.8811;;-1489.6642;;-1506.0392;;-1514.7064;;-1524.6304;;-1545.5224;;-1578.3648;;-1616.8704;;-1656.8535;;-1699.5174;;-1746.4987;;-1796.1745;;-1845.104;;-1890.6669;;-1931.8374;;-1968.6957;;-2001.9985;;-2032.814;;-2061.7884;;-2088.7353;;-2113.1147;;-2134.3045;;-2151.1534;;-2162.4649;;-2168.8054;;-2172.9926;;-2177.775;;-2183.2738;;-2187.1669;;-2187.1669
-47.454376;;-47.454376;;-53.147142;;-61.037308;;-69.260053;;-77.222971;;-84.994275;;-92.325387;;-98.618343;;-103.6526;;-107.64655;;-110.76898;;-112.77737;;-113.47942;;-115.05016;;-131.6982;;-160.75957;;-200.30377;;-250.7446;;-312.96558;;-386.86589;;-472.75136;;-569.5912;;-674.24497;;-780.93981;;-882.65456;;-974.20032;;-1054.1169;;-1124.2382;;-1187.2952;;-1245.275;;-1299.3564;;-1349.922;;-1396.3729;;-1437.4419;;-1471.1986;;-1494.1345;;-1502.9145;;-1501.2755;;-1503.227;;-1522.1319;;-1557.6845;;-1599.8156;;-1642.4981;;-1687.6264;;-1737.4925;;-1789.9755;;-1841.1598;;-1888.8211;;-1932.378;;-1971.4741;;-2005.9711;;-2036.3657;;-2063.1347;;-2086.5145;;-2107.535;;-2127.7128;;-2146.6901;;-2161.7519;;-2170.9547;;-2175.7509;;-2179.4796;;-2183.724;;-2186.9844;;-2186.9844
-46.219177;;-46.219177;;-52.198013;;-60.47194;;-69.151616;;-77.273677;;-84.607933;;-91.356016;;-97.441293;;-102.91061;;-107.86075;;-112.16621;;-115.52042;;-117.93518;;-121.01774;;-132.9329;;-158.35727;;-194.38938;;-240.91675;;-298.74113;;-367.8372;;-448.04084;;-538.56202;;-636.96997;;-739.01173;;-839.48554;;-933.72907;;-1019.0126;;-1095.0719;;-1163.3104;;-1225.9139;;-1285.0046;;-1341.4458;;-1394.2546;;-1441.1583;;-1478.9113;;-1502.9416;;-1509.9519;;-1505.1915;;-1504.6475;;-1522.4429;;-1557.4352;;-1598.4807;;-1639.4058;;-1682.8265;;-1731.8172;;-1784.6049;;-1837.3062;;-1887.5968;;-1934.4361;;-1976.4814;;-2012.4854;;-2042.1304;;-2065.6538;;-2084.2394;;-2101.2384;;-2120.3691;;-2141.4089;;-2159.7678;;-2171.5132;;-2177.3689;;-2181.0538;;-2184.8491;;-2187.7687;;-2187.7687
-44.225172;;-44.225172;;-50.312859;;-58.786378;;-67.847833;;-76.309032;;-83.309161;;-89.51952;;-95.512335;;-101.57027;;-107.69547;;-113.60277;;-118.99747;;-124.00123;;-129.90482;;-140.49427;;-160.86997;;-191.75143;;-232.93463;;-284.85539;;-348.25138;;-422.44808;;-506.60529;;-598.93679;;-696.30909;;-794.64827;;-889.8345;;-978.74312;;-1059.8097;;-1133.1701;;-1200.6953;;-1264.9711;;-1327.3825;;-1387.0851;;-1441.2796;;-1485.66;;-1515.2499;;-1527.7596;;-1528.9999;;-1532.7804;;-1550.135;;-1579.8324;;-1613.5043;;-1647.4864;;-1685.2908;;-1730.4919;;-1781.9912;;-1835.99;;-1889.3121;;-1939.6762;;-1984.6246;;-2021.9572;;-2050.6149;;-2070.8597;;-2085.2075;;-2099.0251;;-2117.1303;;-2138.7928;;-2158.3339;;-2171.2823;;-2178.2436;;-2182.6664;;-2186.5963;;-2189.3284;;-2189.3284
-42.210606;;-42.210606;;-48.240236;;-56.697953;;-65.945238;;-74.808161;;-81.792362;;-87.735614;;-93.843547;;-100.5115;;-107.66923;;-115.02339;;-122.39382;;-129.98414;;-138.77497;;-150.91852;;-168.87908;;-194.3507;;-229.02036;;-274.14539;;-330.52492;;-398.71342;;-477.61447;;-565.65784;;-660.40755;;-758.29005;;-855.19615;;-947.53832;;-1032.9028;;-1110.5356;;-1181.8127;;-1249.4164;;-1315.4159;;-1379.8245;;-1440.023;;-1491.1246;;-1528.1877;;-1550.0792;;-1562.0771;;-1573.4934;;-1590.7292;;-1613.1226;;-1637.0246;;-1662.4862;;-1693.85;;-1734.7647;;-1784.5887;;-1839.4121;;-1894.9048;;-1947.4365;;-1993.7336;;-2031.1852;;-2058.6349;;-2076.9371;;-2089.7023;;-2102.7294;;-2120.0506;;-2140.1465;;-2157.8653;;-2170.0335;;-2177.6902;;-2183.3742;;-2188.0647;;-2190.945;;-2190.945
-40.858124;;-40.858124;;-46.81356;;-55.216812;;-64.569251;;-73.770002;;-80.99789;;-86.878479;;-93.135973;;-100.17989;;-107.89351;;-116.09692;;-124.8166;;-134.36521;;-145.47923;;-159.38796;;-177.17726;;-199.50112;;-228.1767;;-266.74055;;-317.2836;;-380.47504;;-456.50407;;-543.5207;;-639.21429;;-740.05136;;-841.24735;;-938.03116;;-1027.0492;;-1107.2785;;-1180.0855;;-1248.2371;;-1314.4502;;-1379.8461;;-1442.5083;;-1497.6889;;-1540.8603;;-1571.3905;;-1593.0544;;-1610.9449;;-1628.1037;;-1644.9755;;-1661.8677;;-1681.4738;;-1708.4108;;-1746.0743;;-1793.9567;;-1848.022;;-1903.2008;;-1955.1022;;-2000.2244;;-2036.1938;;-2062.4563;;-2080.7415;;-2094.9324;;-2109.4781;;-2126.2782;;-2143.2582;;-2157.1586;;-2167.2512;;-2175.2747;;-2182.5643;;-2188.6171;;-2192.0935;;-2192.0935
-40.371334;;-40.371334;;-46.330492;;-54.769753;;-64.269511;;-73.759457;;-81.263264;;-87.039351;;-93.255942;;-100.32835;;-108.08628;;-116.50053;;-125.84659;;-136.5525;;-149.16656;;-164.31472;;-182.28115;;-202.95753;;-227.52992;;-261.22578;;-308.46921;;-369.96275;;-445.86586;;-535.36835;;-635.42927;;-742.45171;;-850.57254;;-952.89466;;-1044.693;;-1125.3443;;-1197.1281;;-1263.3381;;-1327.1865;;-1390.5113;;-1452.143;;-1508.1676;;-1554.8506;;-1591.2869;;-1619.1251;;-1640.6716;;-1657.9221;;-1672.7301;;-1687.37;;-1705.1553;;-1730.1775;;-1765.3476;;-1810.194;;-1860.9244;;-1912.5975;;-1960.9602;;-2002.8936;;-2036.6162;;-2062.2334;;-2081.8638;;-2098.717;;-2115.2241;;-2131.3563;;-2145.1658;;-2155.5745;;-2163.986;;-2172.4865;;-2181.2735;;-2188.6295;;-2192.7419;;-2192.7419
-40.313813;;-40.313813;;-46.316648;;-54.687022;;-64.491475;;-74.213299;;-81.918024;;-87.448277;;-93.420176;;-100.311;;-107.86175;;-116.12685;;-125.60029;;-136.8124;;-150.14856;;-165.82337;;-183.65145;;-203.0658;;-225.04615;;-256.42142;;-303.36825;;-365.99668;;-444.31897;;-537.95284;;-643.72013;;-758.03274;;-874.17947;;-982.94961;;-1077.4774;;-1157.3711;;-1226.3519;;-1288.8908;;-1348.8683;;-1408.5146;;-1467.2904;;-1522.4434;;-1571.0601;;-1611.3648;;-1642.8011;;-1666.2762;;-1684.3565;;-1700.2134;;-1716.42;;-1735.3495;;-1759.9052;;-1792.4;;-1832.6084;;-1877.5621;;-1923.2427;;-1966.218;;-2004.1426;;-2035.8279;;-2061.482;;-2082.6229;;-2101.1922;;-2118.2265;;-2133.1577;;-2144.8583;;-2153.7078;;-2161.8919;;-2171.12;;-2180.7461;;-2188.5816;;-2192.8487;;-2192.8487
-39.826975;;-39.826975;;-45.79691;;-54.142622;;-63.996206;;-73.875278;;-81.899991;;-87.305247;;-93.029874;;-99.734383;;-107.09119;;-115.14507;;-124.50389;;-135.76226;;-149.1916;;-164.75064;;-181.97842;;-200.14745;;-220.5322;;-252.00092;;-300.53251;;-365.41283;;-446.74553;;-544.2798;;-655.17728;;-776.0904;;-899.9635;;-1015.8077;;-1114.0925;;-1193.7091;;-1259.5199;;-1317.5205;;-1372.6878;;-1427.8989;;-1483.4658;;-1537.7451;;-1588.071;;-1631.3441;;-1665.2873;;-1690.4847;;-1710.6177;;-1729.7008;;-1749.6564;;-1771.183;;-1795.7022;;-1825.0479;;-1859.608;;-1897.6424;;-1936.3836;;-1973.4494;;-2007.3567;;-2037.3063;;-2062.9938;;-2084.6482;;-2102.9881;;-2118.7615;;-2132.1343;;-2142.986;;-2152.0894;;-2161.1437;;-2171.0167;;-2180.6352;;-2188.0368;;-2191.93;;-2191.93
-38.469186;;-38.469186;;-44.271829;;-52.416424;;-62.16211;;-72.130404;;-80.757936;;-86.5143;;-92.181588;;-98.782811;;-106.04982;;-113.97522;;-123.12401;;-134.07972;;-147.07906;;-161.99354;;-178.25349;;-195.19204;;-214.87521;;-247.99934;;-298.42519;;-365.25469;;-448.86643;;-549.06268;;-663.55189;;-789.34379;;-919.51467;;-1042.247;;-1145.5559;;-1226.581;;-1290.462;;-1344.4319;;-1394.726;;-1445.3689;;-1497.9703;;-1551.775;;-1603.6919;;-1649.2709;;-1685.3787;;-1712.8989;;-1736.2543;;-1759.5454;;-1783.6989;;-1807.8337;;-1832.1809;;-1858.4274;;-1887.7135;;-1919.3969;;-1951.8019;;-1983.5444;;-2013.859;;-2041.9802;;-2066.7867;;-2087.3709;;-2103.9089;;-2117.6372;;-2129.7367;;-2140.6482;;-2150.7284;;-2160.6707;;-2170.6199;;-2179.5682;;-2186.1344;;-2189.5222;;-2189.5222
-36.702143;;-36.702143;;-42.275567;;-50.13682;;-59.698754;;-69.706734;;-78.987374;;-85.532277;;-91.356831;;-97.948609;;-105.24;;-113.16545;;-122.07579;;-132.41878;;-144.46113;;-158.18418;;-173.16015;;-188.99108;;-208.97901;;-244.24996;;-296.12866;;-364.09962;;-448.84816;;-550.17623;;-666.36684;;-794.79301;;-928.95464;;-1057.1552;;-1166.0714;;-1250.7369;;-1315.438;;-1367.6866;;-1414.6007;;-1461.5399;;-1511.5595;;-1564.5542;;-1616.9714;;-1663.7878;;-1701.9896;;-1732.6919;;-1759.9095;;-1786.9177;;-1813.8657;;-1839.24;;-1862.9562;;-1886.8563;;-1912.4627;;-1939.5665;;-1967.1825;;-1994.8154;;-2022.1893;;-2048.2301;;-2071.0996;;-2089.5124;;-2103.9034;;-2116.1013;;-2127.7192;;-2139.0842;;-2149.8475;;-2159.9052;;-2169.1837;;-2177.1451;;-2183.0016;;-2186.1168;;-2186.1168
-35.236725;;-35.236725;;-40.618597;;-48.240539;;-57.636198;;-67.635786;;-77.330684;;-84.691626;;-90.825734;;-97.538936;;-104.99182;;-113.0398;;-121.70284;;-131.18543;;-141.81211;;-153.85506;;-167.26085;;-182.14143;;-203.33199;;-240.50388;;-293.2542;;-361.53314;;-446.25612;;-547.09271;;-662.85244;;-791.21255;;-926.29717;;-1057.459;;-1171.8622;;-1262.811;;-1332.3139;;-1386.6854;;-1433.2004;;-1478.3279;;-1526.2717;;-1577.4526;;-1628.5952;;-1675.4324;;-1715.7791;;-1750.3096;;-1781.2246;;-1810.2802;;-1837.5402;;-1862.2401;;-1884.9066;;-1907.4959;;-1931.2129;;-1955.5752;;-1979.9359;;-2004.5402;;-2029.4384;;-2053.2635;;-2073.939;;-2090.4872;;-2103.8302;;-2115.8622;;-2127.8016;;-2139.4516;;-2150.0451;;-2159.3435;;-2167.5404;;-2174.594;;-2180.0309;;-2183.0908;;-2183.0908
-34.097925;;-34.097925;;-39.315748;;-46.727947;;-55.934664;;-65.840139;;-75.706037;;-83.720409;;-90.314065;;-97.308965;;-105.02573;;-113.23414;;-121.63506;;-130.17665;;-139.24978;;-149.48391;;-161.28487;;-175.36938;;-198.16074;;-236.68545;;-289.80774;;-357.75862;;-441.52729;;-540.43107;;-653.74342;;-779.33402;;-912.12209;;-1043.3801;;-1162.5373;;-1262.106;;-1340.5033;;-1401.2195;;-1450.7862;;-1496.282;;-1542.6992;;-1591.2137;;-1639.8398;;-1686.054;;-1728.5506;;-1766.7698;;-1800.313;;-1829.4028;;-1854.8766;;-1877.7377;;-1899.4171;;-1921.4985;;-1944.3025;;-1966.8631;;-1988.7951;;-2010.8849;;-2033.4173;;-2055.0843;;-2074.1735;;-2090.2929;;-2104.4876;;-2117.9224;;-2130.7283;;-2142.1284;;-2151.6073;;-2159.6127;;-2166.8533;;-2173.3782;;-2178.5725;;-2181.544;;-2181.544
-32.651279;;-32.651279;;-37.639195;;-44.745058;;-53.477907;;-63.29909;;-73.20754;;-81.891608;;-89.112441;;-96.421862;;-104.3075;;-112.5546;;-120.69677;;-128.50459;;-136.39453;;-145.2601;;-155.82612;;-169.31528;;-193.50575;;-232.86078;;-286.09115;;-353.56027;;-436.07039;;-532.58933;;-642.60271;;-764.01171;;-892.57415;;-1021.9543;;-1144.561;;-1252.9622;;-1342.1527;;-1411.9115;;-1466.9787;;-1514.3294;;-1559.6359;;-1605.3965;;-1651.5542;;-1697.2803;;-1741.5383;;-1782.2409;;-1816.7984;;-1844.555;;-1867.5681;;-1888.6651;;-1909.7844;;-1931.6107;;-1953.4828;;-1974.2722;;-1994.0188;;-2013.8484;;-2034.1382;;-2053.8456;;-2071.9388;;-2088.7063;;-2105.0987;;-2121.0567;;-2135.1315;;-2145.9692;;-2153.905;;-2160.6708;;-2167.4872;;-2174.0034;;-2179.1009;;-2181.8898;;-2181.8898
-30.62648;;-30.62648;;-35.284942;;-41.946414;;-50.193021;;-59.631047;;-69.461071;;-78.752447;;-86.574436;;-93.90686;;-101.54459;;-109.54385;;-117.49798;;-125.06295;;-132.55682;;-140.90926;;-150.90046;;-164.01741;;-189.17722;;-229.05527;;-282.44284;;-349.8028;;-431.60024;;-526.83892;;-634.87473;;-753.43164;;-878.65994;;-1006.0011;;-1130.2513;;-1244.7478;;-1342.7449;;-1420.9746;;-1481.7748;;-1531.2782;;-1575.8034;;-1619.538;;-1664.1909;;-1709.6979;;-1754.6024;;-1795.8693;;-1830.108;;-1856.523;;-1877.9061;;-1897.9747;;-1918.6412;;-1939.7621;;-1960.1801;;-1979.0781;;-1996.9767;;-2015.0599;;-2033.5206;;-2051.3689;;-2068.1057;;-2084.8869;;-2103.0723;;-2121.6588;;-2137.4409;;-2148.3084;;-2155.5006;;-2161.9849;;-2169.2216;;-2176.2567;;-2181.4845;;-2184.1477;;-2184.1477
-28.447841;;-28.447841;;-32.747716;;-38.920968;;-46.619234;;-55.577937;;-65.140132;;-74.612792;;-82.619198;;-89.363344;;-96.129295;;-103.52635;;-111.39355;;-119.28751;;-127.25595;;-135.97601;;-146.02934;;-159.08498;;-185.26448;;-225.79798;;-279.72489;;-347.67344;;-430.03565;;-526.04457;;-635.02372;;-754.43804;;-879.91259;;-1006.7279;;-1130.713;;-1246.6817;;-1348.3637;;-1431.2951;;-1495.8328;;-1546.9311;;-1591.2415;;-1634.1967;;-1678.3385;;-1723.348;;-1767.2369;;-1807.2202;;-1840.6087;;-1866.758;;-1888.0199;;-1907.6818;;-1927.3796;;-1946.8722;;-1965.3717;;-1982.7098;;-1999.6253;;-2016.8961;;-2034.1435;;-2049.9974;;-2064.099;;-2078.6828;;-2096.5041;;-2116.6332;;-2134.4488;;-2146.7943;;-2155.1666;;-2162.9795;;-2171.4538;;-2179.1964;;-2184.5601;;-2187.1205;;-2187.1205
-26.648569;;-26.648569;;-30.63857;;-36.38128;;-43.573352;;-52.01983;;-61.115754;;-70.231223;;-77.732354;;-83.243045;;-88.697774;;-95.298141;;-103.11895;;-111.66964;;-120.66875;;-130.32318;;-140.83606;;-154.44429;;-182.39416;;-224.17769;;-279.36245;;-348.87656;;-433.22049;;-531.99661;;-644.65084;;-768.43664;;-897.83635;;-1025.9388;;-1148.0145;;-1260.9784;;-1360.8464;;-1443.8204;;-1509.4533;;-1561.7294;;-1606.9499;;-1650.5303;;-1694.6716;;-1738.4287;;-1779.8669;;-1817.4835;;-1850.0066;;-1876.8006;;-1898.891;;-1918.322;;-1936.4752;;-1953.7319;;-1970.3251;;-1986.8343;;-2003.8765;;-2021.3939;;-2038.1025;;-2051.9528;;-2062.4199;;-2072.7947;;-2087.8264;;-2107.7169;;-2127.2315;;-2142.0769;;-2153.0995;;-2163.1452;;-2172.8266;;-2180.7083;;-2185.6967;;-2187.9348;;-2187.9348
-25.385219;;-25.385219;;-29.128326;;-34.517013;;-41.267275;;-49.199478;;-57.703918;;-66.105722;;-72.488822;;-76.443572;;-80.598217;;-86.501028;;-94.307661;;-103.50491;;-113.59185;;-124.30295;;-135.43889;;-150.74747;;-181.16456;;-224.81596;;-281.91684;;-353.77223;;-440.99626;;-543.61785;;-661.19492;;-790.75573;;-925.5193;;-1055.4339;;-1174.1749;;-1281.3058;;-1375.9945;;-1456.1357;;-1521.5491;;-1575.5435;;-1623.1979;;-1668.5361;;-1712.735;;-1754.6706;;-1793.2578;;-1828.4879;;-1860.1917;;-1887.5325;;-1910.2682;;-1929.3168;;-1945.962;;-1961.3622;;-1976.7042;;-1993.0616;;-2010.7759;;-2028.9669;;-2045.5202;;-2057.8297;;-2065.1966;;-2071.4937;;-2082.9109;;-2101.0136;;-2120.8769;;-2137.5173;;-2150.6753;;-2162.0972;;-2171.8318;;-2178.8145;;-2182.8187;;-2184.5288;;-2184.5288
-24.374131;;-24.374131;;-27.893549;;-32.956064;;-39.287242;;-46.705815;;-54.58266;;-62.175558;;-67.309802;;-69.983474;;-73.291176;;-78.81351;;-86.631141;;-96.20602;;-106.99122;;-118.46671;;-130.24907;;-148.33208;;-180.97518;;-226.4388;;-285.42186;;-359.54291;;-449.47949;;-555.63816;;-677.62003;;-812.2065;;-951.4759;;-1082.2252;;-1196.5536;;-1297.2859;;-1386.6218;;-1464.1022;;-1530.0439;;-1586.9867;;-1638.1447;;-1685.5936;;-1729.7298;;-1770.0608;;-1806.683;;-1840.4429;;-1871.4673;;-1898.7302;;-1921.4385;;-1940.0194;;-1955.8107;;-1970.4581;;-1985.4892;;-2001.8783;;-2019.6206;;-2037.534;;-2053.389;;-2064.6381;;-2070.6259;;-2075.0808;;-2084.1659;;-2100.0429;;-2118.6618;;-2135.188;;-2148.5604;;-2159.617;;-2168.2103;;-2173.8277;;-2176.9096;;-2178.2823;;-2178.2823
-23.243214;;-23.243214;;-26.511405;;-31.213822;;-37.094965;;-43.852932;;-51.296358;;-58.273495;;-62.768301;;-64.925042;;-67.959913;;-73.368786;;-81.09536;;-90.624536;;-101.51228;;-113.24244;;-125.54538;;-145.97049;;-179.83617;;-226.21354;;-286.11836;;-361.35903;;-452.66795;;-560.69755;;-685.08184;;-822.45781;;-964.15457;;-1094.5047;;-1204.5864;;-1300.7048;;-1387.3608;;-1464.911;;-1533.4928;;-1594.4086;;-1649.0054;;-1698.0435;;-1742.0758;;-1781.7524;;-1817.9599;;-1851.4703;;-1882.1563;;-1909.0887;;-1931.6212;;-1950.112;;-1965.8785;;-1980.6753;;-1995.8473;;-2011.7566;;-2027.9613;;-2043.5741;;-2057.1445;;-2066.8379;;-2072.3414;;-2077.0063;;-2085.9929;;-2100.9136;;-2118.1959;;-2133.5697;;-2145.859;;-2155.6642;;-2163.0651;;-2167.9789;;-2170.9658;;-2172.5093;;-2172.5093
-21.972299;;-21.972299;;-24.950567;;-29.253344;;-34.660975;;-40.939536;;-47.933574;;-54.653184;;-59.487337;;-62.06181;;-65.308517;;-70.594894;;-77.896509;;-86.891449;;-97.339881;;-108.84725;;-121.26795;;-142.3359;;-176.07974;;-222.0174;;-281.30651;;-355.83029;;-446.41737;;-553.8264;;-677.80671;;-815.12798;;-957.08911;;-1086.9862;;-1194.9723;;-1289.9238;;-1377.7931;;-1458.9091;;-1532.3487;;-1597.7393;;-1655.0743;;-1704.9764;;-1749.0181;;-1788.9448;;-1825.7788;;-1859.6883;;-1890.2904;;-1917.1224;;-1940.0031;;-1959.1823;;-1975.5842;;-1990.7069;;-2005.6121;;-2020.1115;;-2033.4151;;-2045.0738;;-2054.504;;-2060.6088;;-2063.9076;;-2068.5768;;-2079.4509;;-2096.569;;-2115.0509;;-2130.4217;;-2141.9273;;-2150.8028;;-2157.7908;;-2163.0572;;-2166.794;;-2168.8939;;-2168.8939
-20.90836;;-20.90836;;-23.570257;;-27.484472;;-32.470107;;-38.389371;;-45.1084;;-51.851284;;-57.566205;;-61.178631;;-64.763574;;-69.726511;;-76.325359;;-84.551977;;-94.349621;;-105.40303;;-117.42132;;-137.26376;;-169.56162;;-213.74507;;-270.92925;;-342.9745;;-430.88179;;-535.39393;;-656.49457;;-791.40287;;-932.21137;;-1063.0124;;-1172.4608;;-1269.7662;;-1361.8828;;-1448.9022;;-1528.522;;-1598.6334;;-1658.3978;;-1708.9934;;-1753.2098;;-1793.5901;;-1831.0413;;-1865.1958;;-1895.6251;;-1922.4701;;-1946.0445;;-1966.3827;;-1983.7113;;-1998.9665;;-2013.0204;;-2025.6292;;-2035.9535;;-2043.5356;;-2047.6247;;-2047.1682;;-2044.4433;;-2046.9864;;-2061.1848;;-2084.5863;;-2108.3437;;-2126.1581;;-2137.9443;;-2146.4263;;-2153.4648;;-2159.4847;;-2164.1736;;-2166.851;;-2166.851
-20.355652;;-20.355652;;-22.699927;;-26.320086;;-31.021525;;-36.734339;;-43.322133;;-50.146979;;-56.465299;;-60.893768;;-64.609912;;-69.202128;;-75.245078;;-82.94676;;-92.288813;;-102.92989;;-114.3418;;-131.37613;;-161.07397;;-202.42872;;-256.35211;;-324.59233;;-408.42113;;-508.45676;;-625.0213;;-756.05267;;-895.08786;;-1028.5619;;-1143.4233;;-1246.0803;;-1344.0598;;-1437.6578;;-1523.6607;;-1598.6155;;-1661.1074;;-1712.8062;;-1757.4036;;-1798.0862;;-1835.8332;;-1869.9576;;-1899.94;;-1926.3514;;-1950.0105;;-1970.9678;;-1988.9406;;-2004.2869;;-2017.6977;;-2029.1276;;-2037.8042;;-2042.6276;;-2041.4735;;-2032.7127;;-2021.2259;;-2019.8114;;-2037.7913;;-2069.7195;;-2101.1607;;-2122.9038;;-2135.5757;;-2143.8237;;-2150.8385;;-2157.3881;;-2162.7838;;-2165.8914;;-2165.8914
-20.167705;;-20.167705;;-22.304709;;-25.775404;;-30.338273;;-35.931906;;-42.424413;;-49.205449;;-55.587711;;-60.068196;;-63.612927;;-68.036896;;-74.030246;;-81.714391;;-90.923172;;-101.27407;;-112.17858;;-125.68763;;-151.52313;;-189.10269;;-238.8722;;-302.31807;;-381.0598;;-475.55071;;-586.45753;;-712.60958;;-849.35211;;-986.31425;;-1109.9921;;-1220.8528;;-1325.7916;;-1425.9325;;-1518.0256;;-1597.8732;;-1663.5682;;-1716.9884;;-1762.4751;;-1803.8442;;-1842.2087;;-1876.4608;;-1905.7285;;-1930.8396;;-1953.2439;;-1973.4381;;-1991.1899;;-2006.6645;;-2020.3585;;-2032.1374;;-2041.0101;;-2045.0382;;-2040.6742;;-2025.7511;;-2007.3014;;-2002.2879;;-2022.4642;;-2060.3024;;-2097.2392;;-2121.7862;;-2135.0471;;-2143.1341;;-2150.2152;;-2157.2816;;-2163.3615;;-2166.923;;-2166.923
-20.067464;;-20.067464;;-22.007403;;-25.341706;;-29.769752;;-35.214555;;-41.404017;;-48.146076;;-54.31044;;-58.468781;;-61.825663;;-66.415351;;-72.808221;;-80.817985;;-90.05532;;-100.10447;;-110.56651;;-121.67113;;-141.85992;;-174.84172;;-219.82648;;-277.82427;;-350.58923;;-438.82518;;-543.25066;;-663.64153;;-797.17046;;-936.698;;-1070.4395;;-1192.064;;-1305.2216;;-1412.1239;;-1510.3785;;-1595.5488;;-1665.1943;;-1721.2609;;-1768.7375;;-1811.9277;;-1851.7209;;-1886.3233;;-1914.5017;;-1937.461;;-1957.4109;;-1975.508;;-1992.0204;;-2007.4489;;-2022.2026;;-2035.6031;;-2046.0501;;-2051.2085;;-2047.3397;;-2032.2788;;-2013.1286;;-2006.9177;;-2025.6708;;-2062.3023;;-2098.4542;;-2122.5076;;-2135.4906;;-2143.661;;-2151.3139;;-2159.3378;;-2166.4344;;-2170.6547;;-2170.6547
-19.956949;;-19.956949;;-21.34222;;-24.324908;;-28.411686;;-33.496429;;-39.357494;;-45.811676;;-51.845512;;-56.169596;;-59.732732;;-64.655361;;-71.402058;;-79.600603;;-88.735111;;-98.496934;;-108.72433;;-119.25748;;-133.61411;;-161.34658;;-201.13462;;-253.45482;;-319.81137;;-401.58686;;-499.2339;;-613.31013;;-742.51018;;-882.33285;;-1023.7849;;-1156.6303;;-1278.8149;;-1392.9027;;-1498.0519;;-1589.9532;;-1665.3542;;-1725.867;;-1776.8868;;-1822.8902;;-1864.2933;;-1898.8248;;-1925.3776;;-1945.7686;;-1962.8488;;-1978.3099;;-1993.0606;;-2008.2467;;-2024.334;;-2039.9183;;-2052.6548;;-2060.3764;;-2060.4379;;-2051.1686;;-2037.6375;;-2032.8445;;-2046.8347;;-2075.287;;-2104.3431;;-2124.5665;;-2136.4375;;-2144.944;;-2153.5736;;-2162.7856;;-2170.9554;;-2175.8229;;-2175.8229
-19.911024;;-19.911024;;-20.40445;;-22.701256;;-26.173436;;-30.641375;;-35.983381;;-42.029788;;-48.026014;;-53.16144;;-57.33635;;-62.201165;;-68.420022;;-75.751004;;-84.210233;;-94.096607;;-105.04464;;-116.49275;;-128.84185;;-150.53564;;-185.13498;;-232.06733;;-292.38098;;-367.83378;;-459.0595;;-566.76182;;-690.71033;;-828.22431;;-972.75895;;-1113.8535;;-1244.3796;;-1365.6004;;-1478.4411;;-1579.1645;;-1663.2626;;-1730.7983;;-1786.5513;;-1835.0115;;-1876.8156;;-1910.2605;;-1934.9946;;-1953.2775;;-1968.0825;;-1981.3933;;-1994.7663;;-2009.9393;;-2027.4049;;-2045.2026;;-2060.4521;;-2071.3108;;-2076.4763;;-2074.9632;;-2069.2913;;-2067.1629;;-2075.6297;;-2093.49;;-2112.8786;;-2127.749;;-2138.1072;;-2147.0256;;-2156.5742;;-2166.5591;;-2175.1778;;-2180.2243;;-2180.2243
-19.897847;;-19.897847;;-20.003562;;-21.099324;;-23.784461;;-27.547159;;-32.25225;;-37.700832;;-43.743246;;-49.578823;;-54.510181;;-58.590466;;-62.918599;;-68.047658;;-75.26867;;-85.201326;;-97.499737;;-111.23499;;-125.42608;;-143.30094;;-173.35084;;-215.57023;;-270.72876;;-340.42224;;-426.00171;;-527.82908;;-646.28893;;-779.83418;;-923.66492;;-1068.7277;;-1205.5553;;-1332.9318;;-1453.1187;;-1563.5746;;-1658.375;;-1734.5083;;-1794.7214;;-1843.7972;;-1884.161;;-1915.9991;;-1939.8363;;-1957.5799;;-1971.6095;;-1984.0948;;-1997.2657;;-2013.104;;-2031.8452;;-2051.3031;;-2068.575;;-2082.0509;;-2091.1348;;-2095.3311;;-2095.559;;-2095.7053;;-2100.2619;;-2109.9195;;-2121.3734;;-2131.5933;;-2140.5476;;-2149.7704;;-2159.938;;-2170.13;;-2178.4808;;-2183.1849;;-2183.1849
-19.891857;;-19.891857;;-19.924777;;-20.181713;;-21.842831;;-24.895863;;-28.981727;;-33.991953;;-39.675007;;-45.803515;;-51.216171;;-54.407284;;-56.19736;;-59.079661;;-65.202238;;-74.780737;;-87.44213;;-102.75199;;-119.70642;;-138.57489;;-165.7824;;-204.57647;;-255.85424;;-321.11059;;-402.19548;;-499.49587;;-613.50011;;-743.38176;;-885.51883;;-1032.2432;;-1173.4097;;-1305.0959;;-1430.1507;;-1547.7959;;-1651.2812;;-1734.2392;;-1796.8775;;-1844.6933;;-1882.9314;;-1914.0855;;-1939.006;;-1958.3898;;-1973.5694;;-1986.8941;;-2001.1899;;-2018.276;;-2037.8422;;-2057.7851;;-2075.7694;;-2090.4761;;-2101.3249;;-2107.7913;;-2110.1526;;-2110.7741;;-2113.1718;;-2119.0053;;-2126.9591;;-2135.1309;;-2143.3787;;-2152.6833;;-2163.164;;-2173.4132;;-2181.4208;;-2185.7298;;-2185.7298
-19.889693;;-19.889693;;-19.897736;;-19.954459;;-20.522415;;-22.84783;;-26.339838;;-30.803825;;-36.055812;;-41.715757;;-47.193334;;-50.102718;;-49.596067;;-50.428986;;-55.82809;;-65.094548;;-77.655571;;-93.337301;;-111.81144;;-133.32631;;-161.12422;;-198.77257;;-248.13946;;-311.05573;;-389.58487;;-484.68551;;-596.7207;;-725.26605;;-867.35289;;-1015.9831;;-1160.3151;;-1293.7483;;-1419.1654;;-1537.802;;-1643.3892;;-1728.0105;;-1790.4318;;-1836.7626;;-1874.1675;;-1906.4554;;-1934.2668;;-1957.0507;;-1975.1158;;-1990.7204;;-2006.8954;;-2025.1577;;-2044.8107;;-2064.0987;;-2081.4939;;-2096.0223;;-2106.7724;;-2112.6412;;-2113.4097;;-2111.5409;;-2111.8427;;-2117.5688;;-2127.3272;;-2137.4242;;-2146.406;;-2155.5776;;-2165.8947;;-2176.1271;;-2184.0382;;-2188.1907;;-2188.1907
-19.889198;;-19.889198;;-19.890403;;-19.900917;;-19.99401;;-21.164206;;-23.877765;;-27.600397;;-32.142947;;-37.130181;;-41.93491;;-44.913534;;-43.529695;;-42.842181;;-48.155653;;-57.215599;;-69.498624;;-85.083142;;-104.25665;;-127.80337;;-157.8249;;-196.63635;;-246.46035;;-309.54613;;-388.26472;;-483.92017;;-597.07577;;-727.43215;;-872.13984;;-1023.9601;;-1170.4808;;-1302.4447;;-1422.8937;;-1535.1786;;-1635.0795;;-1715.9032;;-1776.624;;-1822.9742;;-1861.748;;-1896.5964;;-1928.013;;-1954.9728;;-1977.0182;;-1995.7276;;-2013.7639;;-2032.5846;;-2051.7673;;-2070.1171;;-2086.5982;;-2100.2868;;-2109.8639;;-2113.4615;;-2110.0991;;-2102.9266;;-2099.8166;;-2107.0765;;-2122.4521;;-2138.043;;-2149.4053;;-2158.3545;;-2167.7646;;-2177.371;;-2184.9285;;-2188.8888;;-2188.8888
-19.889142;;-19.889142;;-19.889231;;-19.890551;;-19.910605;;-20.139309;;-21.719089;;-24.537322;;-28.214235;;-32.403979;;-36.496283;;-39.017089;;-37.715992;;-36.784901;;-42.289551;;-50.994918;;-62.932831;;-78.334541;;-98.106235;;-123.09554;;-155.02306;;-195.77596;;-247.51593;;-312.67335;;-393.57956;;-491.68578;;-607.99033;;-742.23113;;-891.36981;;-1047.3438;;-1195.2429;;-1322.8275;;-1434.021;;-1534.706;;-1624.0812;;-1698.6037;;-1758.0419;;-1806.4643;;-1848.5003;;-1886.7761;;-1921.9042;;-1953.07;;-1979.3009;;-2001.1386;;-2020.6057;;-2039.4779;;-2058.1882;;-2076.1052;;-2092.1242;;-2104.9714;;-2113.1135;;-2114.3204;;-2106.8734;;-2094.2174;;-2087.0853;;-2095.1639;;-2115.8236;;-2137.1092;;-2151.2234;;-2159.96;;-2167.898;;-2175.995;;-2182.4437;;-2185.8303;;-2185.8303
-19.889141;;-19.889141;;-19.889144;;-19.889273;;-19.89432;;-19.947147;;-20.335324;;-22.012323;;-24.712783;;-28.029187;;-31.380206;;-33.498273;;-32.239914;;-32.066272;;-37.5994;;-46.165375;;-57.796509;;-73.083857;;-93.096207;;-118.7331;;-151.66212;;-193.72628;;-247.11218;;-314.22204;;-397.08886;;-497.5628;;-616.93962;;-755.06686;;-908.80599;;-1069.3436;;-1218.8969;;-1340.8167;;-1440.6405;;-1528.0065;;-1606.3787;;-1675.4566;;-1735.2735;;-1787.5653;;-1834.3652;;-1877.0137;;-1916.0976;;-1951.1258;;-1980.9278;;-2005.29;;-2025.7936;;-2044.6841;;-2063.249;;-2081.186;;-2097.0511;;-2109.2342;;-2116.416;;-2116.7166;;-2108.1251;;-2093.5212;;-2084.0979;;-2091.0297;;-2112.4349;;-2135.4052;;-2150.6169;;-2159.1053;;-2165.6099;;-2171.7522;;-2176.5148;;-2178.9961;;-2178.9961
-19.889141;;-19.889141;;-19.889141;;-19.889154;;-19.89012;;-19.90216;;-19.982824;;-20.420142;;-21.98242;;-24.36324;;-26.932778;;-28.57743;;-27.585076;;-28.573392;;-34.015111;;-42.24339;;-53.462047;;-68.32884;;-87.946009;;-113.22886;;-145.85161;;-187.67278;;-240.9016;;-307.84825;;-390.60779;;-491.27599;;-611.40563;;-751.14189;;-907.66925;;-1072.2659;;-1225.5054;;-1343.9976;;-1433.974;;-1510.18;;-1580.0266;;-1645.7296;;-1707.3651;;-1764.7114;;-1817.4457;;-1865.3318;;-1908.4837;;-1946.7075;;-1979.1229;;-2005.3694;;-2026.8428;;-2046.0327;;-2064.6502;;-2082.5417;;-2098.1866;;-2110.0662;;-2117.3576;;-2118.9002;;-2112.9281;;-2101.2245;;-2092.7501;;-2097.3669;;-2114.6296;;-2134.3405;;-2148.2668;;-2156.2909;;-2161.6996;;-2166.0046;;-2169.071;;-2170.6566;;-2170.6566
-19.889141;;-19.889141;;-19.889141;;-19.889142;;-19.889237;;-19.890886;;-19.905811;;-19.985192;;-20.332252;;-21.59784;;-23.372644;;-24.561885;;-23.838167;;-25.661255;;-30.814161;;-38.46217;;-48.909826;;-62.821902;;-81.126564;;-105.16573;;-136.11148;;-175.927;;-226.77984;;-291.00873;;-370.74801;;-468.22779;;-585.26682;;-722.47951;;-877.86438;;-1044.0318;;-1203.0165;;-1325.1794;;-1411.9111;;-1482.4931;;-1547.2726;;-1610.6949;;-1674.008;;-1736.3056;;-1795.1977;;-1848.4518;;-1895.3663;;-1936.1277;;-1970.5603;;-1998.5553;;-2021.3424;;-2041.2544;;-2060.0121;;-2077.6574;;-2093.1158;;-2105.3952;;-2114.0467;;-2118.3646;;-2117.0793;;-2111.0747;;-2106.1046;;-2109.1218;;-2120.8291;;-2135.1636;;-2146.3966;;-2153.5336;;-2158.0738;;-2161.122;;-2163.1462;;-2164.2548;;-2164.2548
-19.889141;;-19.889141;;-19.889141;;-19.889141;;-19.889142;;-19.889241;;-19.890974;;-19.902885;;-19.948165;;-20.106213;;-20.837954;;-21.569037;;-21.126321;;-23.089715;;-27.729143;;-34.574838;;-43.956595;;-56.503208;;-73.080131;;-94.94895;;-123.1848;;-159.63643;;-206.34969;;-265.66038;;-339.70445;;-430.73103;;-540.78238;;-670.98636;;-820.40921;;-983.80335;;-1147.1331;;-1281.2326;;-1374.5051;;-1446.6586;;-1509.9456;;-1571.3451;;-1634.9928;;-1700.805;;-1764.9059;;-1823.1601;;-1873.9483;;-1917.5827;;-1954.412;;-1984.5914;;-2009.1914;;-2030.2586;;-2049.39;;-2066.8999;;-2082.4703;;-2095.842;;-2106.6885;;-2114.2659;;-2117.7195;;-2117.5927;;-2117.0933;;-2120.245;;-2128.0296;;-2137.6529;;-2145.9114;;-2151.8229;;-2155.9584;;-2158.9837;;-2161.2143;;-2162.5207;;-2162.5207
-19.889141;;-19.889141;;-19.889141;;-19.889141;;-19.889141;;-19.889143;;-19.889247;;-19.890174;;-19.894014;;-19.903511;;-19.926947;;-19.988591;;-19.95008;;-21.068575;;-24.944438;;-30.834525;;-38.999155;;-49.991326;;-64.582147;;-83.768538;;-108.9461;;-141.3573;;-183.02103;;-236.14239;;-302.87833;;-385.37635;;-485.79768;;-605.68757;;-745.09797;;-900.90464;;-1063.4511;;-1210.6094;;-1318.4711;;-1398.4683;;-1464.3699;;-1525.5743;;-1589.3991;;-1657.3639;;-1725.3473;;-1788.4414;;-1844.2801;;-1892.4677;;-1932.9692;;-1965.9504;;-1992.6103;;-2015.0689;;-2034.9476;;-2052.7661;;-2068.8441;;-2083.6024;;-2096.7912;;-2107.4719;;-2115.0292;;-2119.9387;;-2123.7218;;-2128.0859;;-2133.6527;;-2139.6394;;-2145.0836;;-2149.9743;;-2154.7793;;-2159.389;;-2163.053;;-2165.0538;;-2165.0538
-19.889141;;-19.889141;;-19.889141;;-19.889141;;-19.889141;;-19.889141;;-19.889142;;-19.889149;;-19.88918;;-19.889255;;-19.889387;;-19.889592;;-19.889549;;-20.000007;;-22.68343;;-27.495405;;-34.417266;;-43.858316;;-56.468047;;-73.115198;;-95.048741;;-123.3457;;-159.82902;;-206.50165;;-265.512;;-338.86753;;-428.72648;;-536.8997;;-664.16957;;-809.07915;;-965.58139;;-1118.7387;;-1242.729;;-1334.2456;;-1407.1125;;-1472.1284;;-1538.0423;;-1607.8195;;-1678.7317;;-1746.7605;;-1809.0295;;-1863.4762;;-1908.7271;;-1944.799;;-1973.4842;;-1997.4721;;-2018.6119;;-2037.4916;;-2054.6739;;-2070.955;;-2086.2809;;-2099.7896;;-2110.9964;;-2120.0463;;-2127.1119;;-2132.3095;;-2135.986;;-2138.7865;;-2141.7676;;-2146.2648;;-2152.7908;;-2159.9927;;-2165.5775;;-2168.332;;-2168.332
-19.889141;;-19.889141;;-19.889141;;-19.889141;;-19.889141;;-19.889141;;-19.889141;;-19.889141;;-19.889141;;-19.889142;;-19.889142;;-19.889142;;-19.889146;;-19.891588;;-20.898297;;-24.701209;;-30.50402;;-38.554244;;-49.389892;;-63.761134;;-82.780012;;-107.36744;;-139.15765;;-179.9482;;-231.81515;;-296.68434;;-376.61525;;-473.55792;;-588.78125;;-721.99775;;-869.69338;;-1021.9797;;-1158.0896;;-1262.2408;;-1344.3752;;-1415.7927;;-1485.0237;;-1556.3848;;-1629.8151;;-1702.9864;;-1772.2274;;-1833.2357;;-1883.143;;-1922.096;;-1952.8027;;-1978.6226;;-2001.6385;;-2022.4574;;-2041.562;;-2059.732;;-2077.1704;;-2093.4047;;-2107.9204;;-2120.0503;;-2128.8007;;-2133.6513;;-2135.2765;;-2135.4067;;-2136.4934;;-2140.9553;;-2149.3196;;-2159.0054;;-2166.2955;;-2169.649;;-2169.649
-19.889141;;-19.889141;;-19.889141;;-19.889141;;-19.889141;;-19.889141;;-19.889141;;-19.889141;;-19.889141;;-19.889141;;-19.889141;;-19.889141;;-19.889142;;-19.889267;;-19.990837;;-22.627245;;-27.410813;;-34.299564;;-43.691508;;-56.224372;;-72.895018;;-94.497858;;-122.51652;;-158.58415;;-204.63774;;-262.64512;;-334.53529;;-422.33009;;-527.62479;;-650.91438;;-790.3433;;-939.33051;;-1082.5627;;-1198.3699;;-1288.2521;;-1364.1172;;-1434.9829;;-1507.213;;-1583.5112;;-1662.3835;;-1738.4667;;-1805.2127;;-1858.9136;;-1900.3698;;-1933.1595;;-1960.9624;;-1985.9794;;-2008.9994;;-2030.4313;;-2050.8092;;-2070.4847;;-2089.3573;;-2106.6276;;-2120.5977;;-2129.5837;;-2133.4387;;-2133.6563;;-2132.4481;;-2132.5958;;-2137.0157;;-2146.3794;;-2157.4059;;-2165.4749;;-2168.9625;;-2168.9625
-19.889141;;-19.889141;;-19.889141;;-19.889141;;-19.889141;;-19.889141;;-19.889141;;-19.889141;;-19.889141;;-19.889141;;-19.889141;;-19.889141;;-19.889141;;-19.889163;;-19.895166;;-21.162759;;-25.149574;;-31.17186;;-39.502108;;-50.698856;;-65.533366;;-85.13998;;-110.46564;;-143.16814;;-185.0654;;-238.17327;;-304.35872;;-385.66135;;-483.89187;;-600.04585;;-733.31144;;-879.16686;;-1025.8587;;-1150.7663;;-1244.8676;;-1321.1026;;-1391.3146;;-1464.4557;;-1544.7124;;-1629.8528;;-1712.2786;;-1783.756;;-1840.4857;;-1884.1054;;-1918.6781;;-1947.8239;;-1973.9032;;-1998.2116;;-2021.3252;;-2043.5246;;-2065.1036;;-2086.0413;;-2105.1049;;-2119.8487;;-2128.5426;;-2131.9412;;-2132.3589;;-2131.8802;;-2132.6209;;-2137.0674;;-2145.6994;;-2155.0315;;-2160.7029;;-2162.3123;;-2162.3123
-19.889141;;-19.889141;;-19.889141;;-19.889141;;-19.889141;;-19.889141;;-19.889141;;-19.889141;;-19.889141;;-19.889141;;-19.889141;;-19.889141;;-19.889141;;-19.889146;;-19.89008;;-20.300166;;-23.658309;;-29.038688;;-36.626553;;-46.915124;;-60.612743;;-78.789004;;-102.32098;;-132.78282;;-171.90247;;-221.69512;;-284.03382;;-360.94146;;-454.36069;;-565.5943;;-694.46674;;-837.68919;;-985.64752;;-1117.0903;;-1213.7078;;-1288.8628;;-1358.7051;;-1434.0517;;-1518.9106;;-1609.6111;;-1696.9337;;-1771.8594;;-1830.7893;;-1875.8567;;-1911.1934;;-1940.2988;;-1965.8808;;-1989.9201;;-2013.312;;-2036.1819;;-2058.6325;;-2080.4687;;-2100.1295;;-2114.9986;;-2123.7332;;-2127.8094;;-2129.9592;;-2131.9088;;-2134.5158;;-2138.3574;;-2142.1852;;-2142.4306;;-2137.4592;;-2131.7289;;-2131.7289
-19.889141;;-19.889141;;-19.889141;;-19.889141;;-19.889141;;-19.889141;;-19.889141;;-19.889141;;-19.889141;;-19.889141;;-19.889141;;-19.889141;;-19.889141;;-19.889142;;-19.88932;;-19.985925;;-22.672844;;-27.559368;;-34.624468;;-44.28711;;-57.207687;;-74.2664;;-96.579288;;-125.52588;;-162.92591;;-210.45738;;-270.18381;;-344.10827;;-434.26594;;-542.16749;;-668.06038;;-809.47342;;-958.30034;;-1095.4054;;-1196.1205;;-1272.1302;;-1343.4965;;-1421.6472;;-1509.7403;;-1603.3134;;-1692.8078;;-1769.1567;;-1828.8117;;-1873.9203;;-1908.549;;-1936.2767;;-1960.2103;;-1982.8212;;-2005.2456;;-2027.5698;;-2049.7139;;-2071.2412;;-2090.5184;;-2105.2631;;-2114.5839;;-2120.0203;;-2124.0957;;-2128.2691;;-2132.0822;;-2132.4982;;-2123.9392;;-2102.5493;;-2073.3149;;-2051.3401;;-2051.3401
-19.889141;;-19.889141;;-19.889141;;-19.889141;;-19.889141;;-19.889141;;-19.889141;;-19.889141;;-19.889141;;-19.889141;;-19.889141;;-19.889141;;-19.889141;;-19.889141;;-19.889165;;-19.914576;;-22.011032;;-26.559678;;-33.277505;;-42.529939;;-54.949354;;-71.389668;;-92.938119;;-120.94309;;-157.04388;;-203.34186;;-261.49572;;-333.656;;-421.93889;;-528.01697;;-652.45138;;-793.37585;;-943.86106;;-1086.8611;;-1194.5352;;-1274.0985;;-1347.8502;;-1427.2781;;-1515.3208;;-1608.0112;;-1696.53;;-1772.0345;;-1830.7014;;-1874.3995;;-1907.2282;;-1932.9913;;-1954.9915;;-1975.8242;;-1996.7374;;-2017.8636;;-2038.9783;;-2059.4608;;-2077.8731;;-2092.5242;;-2102.7464;;-2109.333;;-2113.8875;;-2117.8751;;-2120.2697;;-2113.6392;;-2085.7361;;-2032.0788;;-1967.9059;;-1923.3949;;-1923.3949
-19.889141;;-19.889141;;-19.889141;;-19.889141;;-19.889141;;-19.889141;;-19.889141;;-19.889141;;-19.889141;;-19.889141;;-19.889141;;-19.889141;;-19.889141;;-19.889141;;-19.889144;;-19.898201;;-21.568834;;-25.892404;;-32.3765;;-41.355341;;-53.445805;;-69.486369;;-90.547293;;-118.0984;;-153.34488;;-198.64209;;-256.01378;;-327.15913;;-414.41754;;-519.59881;;-643.51853;;-784.79964;;-937.48456;;-1086.3861;;-1203.08;;-1288.2786;;-1364.4155;;-1443.0557;;-1527.9256;;-1616.7298;;-1702.0986;;-1775.4427;;-1832.3367;;-1874.1998;;-1905.2091;;-1929.2939;;-1949.6614;;-1968.8583;;-1988.28;;-2008.1276;;-2027.9956;;-2047.181;;-2064.6637;;-2079.3728;;-2090.5205;;-2097.5541;;-2100.6836;;-2101.7697;;-2100.7373;;-2087.1935;;-2042.2153;;-1960.0781;;-1865.2481;;-1801.0091;;-1801.0091
-19.889141;;-19.889141;;-19.889141;;-19.889141;;-19.889141;;-19.889141;;-19.889141;;-19.889141;;-19.889141;;-19.889141;;-19.889141;;-19.889141;;-19.889141;;-19.889141;;-19.889142;;-19.892506;;-21.173114;;-25.278498;;-31.522139;;-40.211012;;-51.944983;;-67.5439;;-88.194562;;-114.93389;;-149.49619;;-193.65872;;-249.91988;;-319.83256;;-405.78229;;-509.70157;;-632.64344;;-773.70067;;-927.86251;;-1081.8087;;-1208.406;;-1300.8496;;-1379.8602;;-1457.1037;;-1537.6279;;-1621.5753;;-1703.5165;;-1775.1159;;-1831.0438;;-1872.0419;;-1902.2228;;-1925.4327;;-1944.6362;;-1962.4195;;-1980.4708;;-1999.0576;;-2017.588;;-2035.4442;;-2052.1584;;-2067.1099;;-2079.1095;;-2086.2472;;-2087.5014;;-2085.3434;;-2081.9162;;-2067.3398;;-2019.8306;;-1931.5493;;-1828.9501;;-1759.1223;;-1759.1223
-19.889141;;-19.889141;;-19.889141;;-19.889141;;-19.889141;;-19.889141;;-19.889141;;-19.889141;;-19.889141;;-19.889141;;-19.889141;;-19.889141;;-19.889141;;-19.889141;;-19.889141;;-19.890055;;-20.703634;;-24.508545;;-30.412444;;-38.687424;;-49.904266;;-64.850967;;-84.67963;;-110.38965;;-143.67341;;-186.41073;;-240.71359;;-308.56501;;-392.20302;;-493.67523;;-614.27612;;-753.59281;;-907.61207;;-1064.9696;;-1200.9467;;-1300.9844;;-1382.9668;;-1459.1678;;-1536.156;;-1616.5811;;-1696.871;;-1768.7445;;-1825.7538;;-1867.7023;;-1898.4119;;-1921.5892;;-1940.062;;-1956.5283;;-1972.8933;;-1989.4916;;-2005.9303;;-2022.258;;-2038.6978;;-2054.5757;;-2067.9048;;-2075.9167;;-2077.1814;;-2074.6015;;-2072.2861;;-2063.9661;;-2030.9958;;-1964.25;;-1883.9312;;-1828.9321;;-1828.9321
-19.889141;;-19.889141;;-19.889141;;-19.889141;;-19.889141;;-19.889141;;-19.889141;;-19.889141;;-19.889141;;-19.889141;;-19.889141;;-19.889141;;-19.889141;;-19.889141;;-19.889141;;-19.889312;;-20.238183;;-23.596619;;-29.04543;;-36.785891;;-47.33603;;-61.4364;;-80.053915;;-104.40704;;-136.13742;;-176.77538;;-228.59221;;-293.59089;;-373.95887;;-471.84339;;-588.77139;;-724.81955;;-876.96199;;-1035.7668;;-1179.5264;;-1286.0845;;-1369.5714;;-1444.581;;-1519.6742;;-1599.3364;;-1680.9109;;-1755.7201;;-1816.1124;;-1860.7928;;-1893.1453;;-1916.924;;-1935.0604;;-1950.105;;-1963.5553;;-1975.7251;;-1987.5392;;-2001.3719;;-2018.6973;;-2037.7196;;-2054.4553;;-2065.4899;;-2069.9899;;-2071.0413;;-2073.1669;;-2073.9658;;-2061.3224;;-2027.0601;;-1981.6327;;-1949.2274;;-1949.2274
-19.889141;;-19.889141;;-19.889141;;-19.889141;;-19.889141;;-19.889141;;-19.889141;;-19.889141;;-19.889141;;-19.889141;;-19.889141;;-19.889141;;-19.889141;;-19.889141;;-19.889141;;-19.889166;;-19.969133;;-22.613126;;-27.512911;;-34.635444;;-44.412122;;-57.523818;;-74.878685;;-97.629959;;-127.34591;;-165.47861;;-214.23673;;-275.70168;;-351.96646;;-445.2401;;-557.25588;;-688.54876;;-837.04444;;-995.23704;;-1144.8629;;-1257.8653;;-1341.6175;;-1415.1269;;-1489.8114;;-1571.2687;;-1656.7236;;-1736.6268;;-1802.0993;;-1850.6974;;-1885.3704;;-1910.1878;;-1928.3056;;-1941.5621;;-1950.0838;;-1953.9544;;-1956.9615;;-1966.3633;;-1986.0582;;-2011.8612;;-2035.7621;;-2052.9235;;-2063.5222;;-2070.8906;;-2078.6577;;-2086.3926;;-2088.0213;;-2078.3574;;-2061.1739;;-2047.775;;-2047.775
-19.889141;;-19.889141;;-19.889141;;-19.889141;;-19.889141;;-19.889141;;-19.889141;;-19.889141;;-19.889141;;-19.889141;;-19.889141;;-19.889141;;-19.889141;;-19.889141;;-19.889141;;-19.889144;;-19.89853;;-21.565081;;-25.861113;;-32.296317;;-41.202152;;-53.194026;;-69.110889;;-90.165128;;-117.41373;;-152.62827;;-197.77312;;-254.98521;;-326.26894;;-413.83134;;-519.57853;;-644.47101;;-787.36836;;-942.72235;;-1095.9932;;-1218.0237;;-1304.248;;-1377.7355;;-1453.3641;;-1537.6952;;-1627.8093;;-1713.4817;;-1784.7159;;-1837.8342;;-1875.2664;;-1901.3987;;-1919.4943;;-1930.3505;;-1932.401;;-1925.5527;;-1917.1813;;-1920.6477;;-1943.1277;;-1977.8477;;-2011.7959;;-2037.5637;;-2055.6301;;-2069.5961;;-2082.1455;;-2093.2103;;-2100.2453;;-2101.2564;;-2097.822;;-2094.3211;;-2094.3211
-19.889141;;-19.889141;;-19.889141;;-19.889141;;-19.889141;;-19.889141;;-19.889141;;-19.889141;;-19.889141;;-19.889141;;-19.889141;;-19.889141;;-19.889141;;-19.889141;;-19.889141;;-19.889141;;-19.889828;;-20.560111;;-24.20014;;-29.88408;;-37.85346;;-48.649407;;-63.029324;;-82.112844;;-106.85401;;-138.9045;;-180.09551;;-232.55571;;-298.26444;;-379.35417;;-477.86717;;-595.14956;;-730.94014;;-881.55834;;-1036.2188;;-1170.4716;;-1265.7313;;-1343.1013;;-1420.8456;;-1507.0921;;-1600.0136;;-1689.8651;;-1766.0328;;-1823.5549;;-1864.0266;;-1891.7164;;-1909.6597;;-1917.9163;;-1914.3198;;-1899.4082;;-1882.9323;;-1881.7695;;-1905.4423;;-1946.3159;;-1988.5689;;-2022.3057;;-2046.9418;;-2065.8255;;-2081.3333;;-2093.465;;-2101.1239;;-2104.2715;;-2104.5651;;-2104.1013;;-2104.1013
-19.889141;;-19.889141;;-19.889141;;-19.889141;;-19.889141;;-19.889141;;-19.889141;;-19.889141;;-19.889141;;-19.889141;;-19.889141;;-19.889141;;-19.889141;;-19.889141;;-19.889141;;-19.889141;;-19.889228;;-20.001802;;-22.72881;;-27.623364;;-34.684533;;-44.338671;;-57.254105;;-74.459924;;-96.810504;;-125.84363;;-163.26629;;-211.10564;;-271.44226;;-346.29984;;-437.8216;;-547.70081;;-676.45795;;-822.07089;;-977.24881;;-1124.356;;-1236.4731;;-1322.0085;;-1402.2196;;-1487.9448;;-1579.8361;;-1669.7697;;-1747.2697;;-1806.8006;;-1849.6885;;-1879.8279;;-1899.1172;;-1906.8376;;-1901.8385;;-1886.4498;;-1870.4711;;-1869.1682;;-1891.5702;;-1931.8577;;-1975.791;;-2012.8197;;-2040.5491;;-2061.3769;;-2077.8205;;-2090.2514;;-2097.9486;;-2101.32;;-2102.1719;;-2102.2221;;-2102.2221
-19.889141;;-19.889141;;-19.889141;;-19.889141;;-19.889141;;-19.889141;;-19.889141;;-19.889141;;-19.889141;;-19.889141;;-19.889141;;-19.889141;;-19.889141;;-19.889141;;-19.889141;;-19.889141;;-19.889183;;-19.903637;;-21.53547;;-25.754041;;-32.059448;;-40.768851;;-52.481998;;-68.020176;;-88.57283;;-115.17696;;-149.58065;;-193.71943;;-249.79303;;-319.82242;;-406.00361;;-510.34304;;-634.01601;;-776.32465;;-932.64813;;-1090.3925;;-1222.9797;;-1319.2832;;-1401.5037;;-1484.5748;;-1571.6355;;-1655.6724;;-1726.7429;;-1781.3095;;-1823.9609;;-1859.226;;-1885.4785;;-1898.7552;;-1898.8929;;-1890.8584;;-1883.3141;;-1886.4667;;-1906.548;;-1940.739;;-1979.4846;;-2013.7391;;-2039.8524;;-2059.2156;;-2074.6065;;-2086.9329;;-2095.383;;-2099.6873;;-2101.0645;;-2101.2263;;-2101.2263
-19.889141;;-19.889141;;-19.889141;;-19.889141;;-19.889141;;-19.889141;;-19.889141;;-19.889141;;-19.889141;;-19.889141;;-19.889141;;-19.889141;;-19.889141;;-19.889141;;-19.889141;;-19.889141;;-19.889164;;-19.893103;;-20.709663;;-24.420291;;-30.161493;;-38.18705;;-49.051048;;-63.527797;;-82.7566;;-107.72429;;-140.12481;;-181.84181;;-235.10689;;-302.13367;;-385.10682;;-486.27244;;-607.28256;;-748.32116;;-906.40756;;-1071.9375;;-1222.149;;-1330.2346;;-1414.6148;;-1495.2338;;-1575.78;;-1647.8697;;-1702.0531;;-1741.2305;;-1779.5481;;-1824.1367;;-1866.1402;;-1893.4285;;-1904.5036;;-1907.135;;-1909.9301;;-1918.9794;;-1937.6986;;-1965.325;;-1996.5257;;-2024.596;;-2045.9168;;-2061.501;;-2074.3751;;-2085.9402;;-2095.2387;;-2100.9674;;-2103.2819;;-2103.7161;;-2103.7161
-19.889141;;-19.889141;;-19.889141;;-19.889141;;-19.889141;;-19.889141;;-19.889141;;-19.889141;;-19.889141;;-19.889141;;-19.889141;;-19.889141;;-19.889141;;-19.889141;;-19.889141;;-19.889141;;-19.88915;;-19.890482;;-20.24717;;-23.518768;;-28.83398;;-36.376261;;-46.656062;;-60.413506;;-78.755554;;-102.63957;;-133.72667;;-173.87331;;-225.29949;;-290.39838;;-371.36879;;-470.58399;;-590.00472;;-730.36462;;-889.69707;;-1060.3419;;-1222.99;;-1343.7307;;-1432.4753;;-1513.3268;;-1588.5748;;-1646.2172;;-1677.1803;;-1694.3636;;-1725.7857;;-1781.9461;;-1844.6004;;-1890.2078;;-1913.6434;;-1925.2203;;-1935.4202;;-1949.1446;;-1968.1034;;-1991.886;;-2017.2756;;-2039.5822;;-2056.0872;;-2067.9065;;-2078.1215;;-2088.4529;;-2098.0253;;-2104.8622;;-2108.1492;;-2109.0078;;-2109.0078
-19.889141;;-19.889141;;-19.889141;;-19.889141;;-19.889141;;-19.889141;;-19.889141;;-19.889141;;-19.889141;;-19.889141;;-19.889141;;-19.889141;;-19.889141;;-19.889142;;-19.889145;;-19.889163;;-19.889216;;-19.889682;;-20.020014;;-22.787118;;-27.711832;;-34.824694;;-44.580827;;-57.816077;;-75.210892;;-98.086728;;-127.93206;;-166.56294;;-216.16175;;-279.20862;;-357.94243;;-454.77234;;-571.8633;;-710.34754;;-869.04236;;-1041.8679;;-1212.5657;;-1347.1791;;-1443.975;;-1528.9415;;-1603.1072;;-1651.1798;;-1664.6184;;-1664.9105;;-1690.803;;-1754.7953;;-1831.6028;;-1889.3954;;-1919.9719;;-1935.6718;;-1949.6719;;-1967.117;;-1988.0393;;-2010.924;;-2033.3603;;-2052.3684;;-2066.2634;;-2076.1542;;-2084.8309;;-2094.1267;;-2103.4634;;-2110.7385;;-2114.602;;-2115.7805;;-2115.7805
-19.889141;;-19.889141;;-19.889141;;-19.889141;;-19.889141;;-19.889141;;-19.889141;;-19.889141;;-19.889141;;-19.889141;;-19.889141;;-19.889141;;-19.889143;;-19.889205;;-19.889703;;-19.891673;;-19.896352;;-19.903687;;-19.94795;;-22.051752;;-26.541719;;-33.165675;;-42.307807;;-54.757581;;-71.151478;;-92.758499;;-121.00473;;-157.63704;;-204.75777;;-264.83517;;-340.16036;;-433.09591;;-545.93228;;-680.12011;;-835.16678;;-1006.4465;;-1180.6948;;-1328.1485;;-1435.4704;;-1528.3193;;-1608.7651;;-1660.1056;;-1673.7164;;-1672.9073;;-1697.6445;;-1760.3446;;-1835.5459;;-1891.1872;;-1918.9779;;-1932.8736;;-1948.5875;;-1970.9651;;-1996.5537;;-2021.221;;-2043.1431;;-2061.2868;;-2074.8682;;-2084.6733;;-2093.0044;;-2101.6879;;-2110.4643;;-2117.432;;-2121.1825;;-2122.323;;-2122.323
-19.889141;;-19.889141;;-19.889141;;-19.889141;;-19.889141;;-19.889141;;-19.889141;;-19.889141;;-19.889141;;-19.889141;;-19.889141;;-19.889141;;-19.889182;;-19.890012;;-19.895903;;-19.917901;;-19.96875;;-20.052912;;-20.212454;;-21.419355;;-25.36147;;-31.37788;;-39.764566;;-51.24711;;-66.398757;;-86.410465;;-112.61916;;-146.66918;;-190.54877;;-246.61122;;-317.19456;;-404.54384;;-510.98148;;-638.17978;;-786.20726;;-951.69298;;-1124.0919;;-1278.9525;;-1395.0451;;-1497.6305;;-1593.2816;;-1664.1452;;-1697.5113;;-1710.8263;;-1738.078;;-1791.6923;;-1852.7171;;-1895.3333;;-1913.0784;;-1921.079;;-1937.4603;;-1966.2316;;-1998.8956;;-2027.3906;;-2050.3404;;-2068.9054;;-2083.1941;;-2093.5957;;-2101.9203;;-2109.8959;;-2117.5123;;-2123.3187;;-2126.2952;;-2127.1192;;-2127.1192
-19.889141;;-19.889141;;-19.889141;;-19.889141;;-19.889141;;-19.889141;;-19.889141;;-19.889141;;-19.889141;;-19.889141;;-19.889141;;-19.889146;;-19.889498;;-19.894879;;-19.928923;;-20.049438;;-20.335728;;-20.957531;;-21.906769;;-22.636653;;-24.878423;;-29.890367;;-37.429687;;-47.661489;;-61.407587;;-79.632212;;-103.56167;;-134.71376;;-174.93403;;-226.4232;;-291.5171;;-372.32243;;-471.10032;;-589.64524;;-728.42878;;-885.05624;;-1051.1659;;-1206.768;;-1326.7951;;-1438.0541;;-1554.5927;;-1655.9245;;-1720.0635;;-1753.0826;;-1782.8815;;-1825.5247;;-1872.0289;;-1903.5255;;-1913.7284;;-1917.0117;;-1933.1954;;-1966.2268;;-2004.0067;;-2035.2873;;-2058.8043;;-2077.4417;;-2092.147;;-2102.9877;;-2111.1268;;-2117.911;;-2123.578;;-2127.549;;-2129.5725;;-2130.2182;;-2130.2182
-19.889141;;-19.889141;;-19.889141;;-19.889141;;-19.889141;;-19.889141;;-19.889141;;-19.889141;;-19.889141;;-19.889141;;-19.889164;;-19.889377;;-19.891816;;-19.915149;;-20.042998;;-20.478287;;-21.508389;;-23.136431;;-24.797348;;-25.800446;;-26.726421;;-29.913267;;-35.903004;;-44.780995;;-57.026174;;-73.45473;;-95.165031;;-123.54226;;-160.28581;;-207.43696;;-267.31879;;-341.95265;;-433.48069;;-543.78283;;-673.65242;;-821.49493;;-980.74388;;-1135.0066;;-1257.5559;;-1375.4598;;-1510.9675;;-1641.2432;;-1734.293;;-1783.3951;;-1813.2541;;-1847.5564;;-1887.7387;;-1919.0201;;-1931.9297;;-1936.6393;;-1951.9914;;-1983.1174;;-2018.8579;;-2048.0358;;-2069.4366;;-2086.5194;;-2100.7192;;-2111.7517;;-2119.7524;;-2125.2867;;-2128.8683;;-2131.0855;;-2132.5314;;-2133.3617;;-2133.3617
-19.889141;;-19.889141;;-19.889141;;-19.889141;;-19.889141;;-19.889141;;-19.889141;;-19.889141;;-19.889141;;-19.889143;;-19.889395;;-19.891654;;-19.905601;;-19.986418;;-20.365137;;-21.568312;;-23.638782;;-26.177509;;-28.549698;;-30.031665;;-30.8054;;-32.985885;;-37.167353;;-43.896454;;-54.2543;;-68.829416;;-88.512659;;-114.52482;;-148.42101;;-192.10427;;-247.82713;;-317.73934;;-403.82978;;-508.10852;;-631.74236;;-773.96576;;-929.97796;;-1086.8335;;-1218.8436;;-1343.0135;;-1488.6924;;-1634.8151;;-1745.2397;;-1804.1798;;-1833.4972;;-1863.5542;;-1903.9922;;-1942.4073;;-1965.3974;;-1976.7253;;-1991.08;;-2014.8876;;-2041.7766;;-2063.9931;;-2080.6653;;-2094.7814;;-2107.7852;;-2118.9405;;-2127.1541;;-2132.0762;;-2134.4057;;-2135.5671;;-2136.6469;;-2137.5406;;-2137.5406
-19.889141;;-19.889141;;-19.889141;;-19.889141;;-19.889141;;-19.889141;;-19.889141;;-19.889141;;-19.889141;;-19.889152;;-19.890486;;-19.902462;;-19.961772;;-20.212493;;-21.264113;;-23.481941;;-26.467988;;-29.847492;;-33.042727;;-34.801643;;-35.672953;;-37.698623;;-41.504771;;-46.698756;;-53.871523;;-65.978578;;-83.583753;;-107.52815;;-139.13628;;-180.15974;;-232.7539;;-299.3014;;-381.74762;;-482.24144;;-602.41718;;-742.41087;;-899.20915;;-1063.3872;;-1214.3375;;-1347.1138;;-1493.1108;;-1640.0827;;-1755.8077;;-1822.1557;;-1855.5362;;-1886.0147;;-1927.1443;;-1969.9318;;-2000.5523;;-2017.8461;;-2031.0897;;-2046.7842;;-2063.6884;;-2078.3217;;-2090.3375;;-2101.8438;;-2113.9109;;-2125.2866;;-2133.8811;;-2138.6875;;-2140.3821;;-2140.508;;-2140.3179;;-2140.2542;;-2140.2542
-19.889141;;-19.889141;;-19.889141;;-19.889141;;-19.889141;;-19.889141;;-19.889141;;-19.889141;;-19.889141;;-19.889177;;-19.893635;;-19.934024;;-20.121423;;-20.871172;;-22.909125;;-25.944131;;-29.708844;;-33.89635;;-37.621219;;-39.75545;;-40.734476;;-42.655135;;-46.103768;;-50.515006;;-55.486284;;-63.739624;;-78.94618;;-100.75079;;-130.08839;;-168.52186;;-218.08655;;-281.2305;;-360.16139;;-457.0163;;-573.87234;;-711.70332;;-869.11981;;-1039.9447;;-1209.2484;;-1356.2069;;-1498.0879;;-1638.3674;;-1754.9908;;-1831.8525;;-1877.437;;-1914.1755;;-1954.8437;;-1995.2345;;-2025.8489;;-2044.4994;;-2056.367;;-2066.8162;;-2077.4992;;-2087.8222;;-2097.8542;;-2108.817;;-2121.0387;;-2132.6827;;-2141.1199;;-2145.0814;;-2145.1299;;-2142.7021;;-2139.4783;;-2137.2363;;-2137.2363
-19.889141;;-19.889141;;-19.889141;;-19.889141;;-19.889141;;-19.889141;;-19.889141;;-19.889141;;-19.889143;;-19.889285;;-19.90033;;-20.000564;;-20.500425;;-22.157673;;-24.954588;;-28.61707;;-33.063206;;-37.626035;;-41.719053;;-44.064328;;-45.125417;;-46.752604;;-49.37285;;-52.458199;;-55.838104;;-60.869402;;-73.199731;;-92.408625;;-118.90232;;-153.97138;;-199.47667;;-257.74909;;-331.26966;;-422.11084;;-532.58278;;-664.30415;;-817.16455;;-987.48269;;-1164.5635;;-1326.556;;-1467.7118;;-1602.3541;;-1721.4484;;-1812.7748;;-1877.9847;;-1928.7926;;-1973.2801;;-2011.0202;;-2038.5656;;-2055.899;;-2066.7322;;-2075.3403;;-2084.204;;-2093.9561;;-2104.8342;;-2117.2168;;-2130.4027;;-2141.9074;;-2148.9115;;-2150.2346;;-2146.6645;;-2140.1463;;-2133.3198;;-2128.9893;;-2128.9893
-19.889141;;-19.889141;;-19.889141;;-19.889141;;-19.889141;;-19.889141;;-19.889141;;-19.889141;;-19.889183;;-19.890179;;-19.915433;;-20.143937;;-21.393464;;-23.927167;;-27.366445;;-31.52442;;-36.187236;;-40.688983;;-44.348746;;-46.380239;;-47.429782;;-48.621101;;-50.178526;;-51.810019;;-53.858637;;-57.342571;;-66.267509;;-82.464594;;-105.4776;;-136.27478;;-176.47485;;-228.16928;;-293.83647;;-375.53713;;-475.50002;;-595.68478;;-736.81699;;-897.02964;;-1069.2809;;-1237.4185;;-1382.7786;;-1515.1631;;-1637.32;;-1743.1532;;-1831.8127;;-1906.0426;;-1966.3547;;-2011.2946;;-2041.1615;;-2059.3476;;-2070.7721;;-2079.8379;;-2089.1929;;-2099.8119;;-2112.0341;;-2125.8105;;-2139.7078;;-2150.5987;;-2155.3721;;-2153.1291;;-2145.6272;;-2136.1151;;-2127.9866;;-2123.5274;;-2123.5274
-19.889141;;-19.889141;;-19.889141;;-19.889141;;-19.889141;;-19.889141;;-19.889141;;-19.889144;;-19.889503;;-19.895181;;-19.962008;;-20.662874;;-22.916855;;-26.19301;;-30.268703;;-34.929819;;-39.487115;;-43.221146;;-45.546136;;-46.798693;;-47.539314;;-48.212895;;-48.836146;;-49.393325;;-50.564731;;-53.424627;;-59.425006;;-72.306293;;-91.496368;;-117.61523;;-151.96846;;-196.34207;;-252.92495;;-323.78841;;-410.86635;;-516.1636;;-640.83399;;-784.19154;;-941.89957;;-1103.0834;;-1250.0935;;-1381.7245;;-1505.6143;;-1623.3305;;-1736.0762;;-1841.1964;;-1930.2672;;-1995.6899;;-2037.2197;;-2061.1911;;-2075.4676;;-2085.8435;;-2095.2597;;-2104.9204;;-2115.8248;;-2128.7897;;-2142.7801;;-2154.0105;;-2158.2409;;-2154.4796;;-2145.9007;;-2137.2033;;-2131.5492;;-2129.2734;;-2129.2734
-19.889141;;-19.889141;;-19.889141;;-19.889141;;-19.889141;;-19.889142;;-19.889148;;-19.889205;;-19.891007;;-19.912992;;-20.158757;;-21.895785;;-24.913301;;-28.868642;;-33.549231;;-38.625741;;-43.117247;;-45.481007;;-46.013363;;-46.136172;;-46.31506;;-46.521456;;-46.569574;;-46.561945;;-47.307624;;-49.853444;;-54.39201;;-63.238149;;-78.462932;;-99.931691;;-128.53272;;-165.69669;;-213.26213;;-273.19895;;-347.13036;;-436.92303;;-543.91298;;-668.14794;;-807.14867;;-953.9512;;-1095.9926;;-1227.0914;;-1353.6603;;-1483.1845;;-1619.4367;;-1756.7238;;-1879.3492;;-1972.1454;;-2031.3915;;-2064.8388;;-2083.2446;;-2094.1115;;-2100.9611;;-2105.7942;;-2111.4376;;-2121.178;;-2135.4971;;-2149.8113;;-2157.618;;-2156.774;;-2151.2997;;-2146.769;;-2145.4783;;-2145.9618;;-2145.9618
-19.889141;;-19.889141;;-19.889141;;-19.889141;;-19.889143;;-19.889228;;-19.88994;;-19.892953;;-19.905329;;-19.981194;;-20.873277;;-23.454879;;-27.111625;;-31.674778;;-36.976339;;-42.309264;;-46.636909;;-47.502221;;-46.383784;;-45.353683;;-44.956413;;-44.921497;;-44.861523;;-44.78666;;-45.369571;;-47.513135;;-51.338131;;-56.770678;;-67.589213;;-84.480941;;-107.69392;;-138.22192;;-177.51395;;-227.34992;;-289.17769;;-364.59664;;-455.03169;;-561.0553;;-681.60511;;-812.846;;-947.72713;;-1081.8729;;-1219.2829;;-1366.4624;;-1525.7969;;-1688.9993;;-1837.963;;-1953.787;;-2029.3387;;-2071.8389;;-2093.32;;-2102.5841;;-2104.3164;;-2102.2142;;-2101.5233;;-2108.0334;;-2123.5753;;-2142.7852;;-2156.8727;;-2161.8887;;-2161.4925;;-2161.3233;;-2163.1708;;-2165.1547;;-2165.1547
-19.889141;;-19.889141;;-19.889142;;-19.889161;;-19.889309;;-19.890645;;-19.898841;;-19.929871;;-20.032948;;-20.382235;;-21.885974;;-24.887271;;-28.94092;;-33.897724;;-39.510244;;-44.984934;;-48.894747;;-48.794192;;-46.913592;;-45.29678;;-44.635374;;-44.680011;;-44.925268;;-45.159562;;-45.713493;;-47.255986;;-50.169975;;-54.327149;;-60.27667;;-72.530505;;-90.926997;;-115.83915;;-148.29522;;-189.74169;;-241.68493;;-305.44502;;-382.55559;;-474.12464;;-580.42699;;-700.49619;;-832.50941;;-976.78464;;-1135.5444;;-1307.227;;-1486.5109;;-1663.9106;;-1824.2222;;-1950.4119;;-2034.2109;;-2080.9864;;-2102.4398;;-2108.5783;;-2106.0682;;-2100.4035;;-2097.6598;;-2103.6836;;-2120.205;;-2141.8526;;-2159.5574;;-2168.5499;;-2171.4896;;-2173.4035;;-2176.0793;;-2178.1718;;-2178.1718
-19.889142;;-19.889142;;-19.889216;;-19.890065;;-19.894494;;-19.911588;;-19.973796;;-20.278269;;-21.294038;;-22.30632;;-23.451018;;-26.003791;;-29.872358;;-34.709048;;-40.14552;;-45.257197;;-48.598847;;-48.820221;;-47.479616;;-46.235279;;-45.842884;;-46.232585;;-46.940828;;-47.594806;;-48.229806;;-49.305714;;-51.360725;;-54.654404;;-58.979069;;-65.337249;;-79.297256;;-99.811004;;-127.27691;;-162.79512;;-207.90331;;-264.08624;;-333.06241;;-416.85478;;-517.61584;;-637.69788;;-779.24893;;-942.74939;;-1124.719;;-1316.5627;;-1506.2121;;-1682.9481;;-1837.9346;;-1959.9061;;-2041.4151;;-2086.122;;-2105.2281;;-2110.1025;;-2109.0919;;-2107.6577;;-2109.5542;;-2117.6702;;-2132.572;;-2150.3778;;-2164.6627;;-2172.0706;;-2174.8077;;-2176.9025;;-2179.7031;;-2181.8507;;-2181.8507
-19.889147;;-19.889147;;-19.889879;;-19.897629;;-19.935692;;-20.063288;;-20.613118;;-22.191917;;-24.102744;;-25.526151;;-26.488127;;-28.145888;;-30.942465;;-34.9251;;-39.309335;;-43.436737;;-46.477027;;-47.912509;;-48.116074;;-47.966509;;-48.197659;;-49.005201;;-50.131095;;-51.174017;;-51.966177;;-52.790351;;-54.235456;;-56.757885;;-60.22887;;-64.339909;;-75.708701;;-94.742372;;-121.14967;;-155.96313;;-200.90558;;-258.21129;;-330.27382;;-419.39631;;-528.21102;;-658.98797;;-812.98612;;-989.31373;;-1182.9833;;-1382.114;;-1567.4264;;-1727.6054;;-1863.0762;;-1968.7833;;-2039.2977;;-2078.557;;-2097.66;;-2107.7167;;-2115.9267;;-2124.8866;;-2134.3368;;-2143.8549;;-2153.3118;;-2161.3406;;-2165.7498;;-2166.5298;;-2166.8522;;-2169.6932;;-2174.5341;;-2178.2401;;-2178.2401
-19.889172;;-19.889172;;-19.892623;;-19.928234;;-20.105437;;-20.836612;;-22.716404;;-25.29868;;-27.960248;;-29.751338;;-30.570001;;-31.801458;;-33.477675;;-35.863999;;-38.498515;;-41.512078;;-44.624997;;-47.30914;;-49.116231;;-50.144349;;-51.000293;;-52.122293;;-53.50876;;-54.827762;;-55.772029;;-56.468189;;-57.488849;;-59.29785;;-61.77095;;-68.199622;;-83.793072;;-106.46663;;-136.83119;;-176.35787;;-227.06841;;-291.45004;;-371.9218;;-471.0982;;-591.61262;;-735.45286;;-903.10234;;-1091.953;;-1293.4186;;-1488.4929;;-1650.6169;;-1778.5592;;-1883.1574;;-1964.1897;;-2020.3459;;-2057.1542;;-2083.6297;;-2106.3979;;-2127.7372;;-2146.4418;;-2160.1001;;-2167.4062;;-2168.5947;;-2164.4351;;-2156.5724;;-2149.1335;;-2147.5437;;-2153.8405;;-2164.0359;;-2171.3928;;-2171.3928
-19.889323;;-19.889323;;-19.900143;;-20.011804;;-20.756344;;-22.842064;;-25.813686;;-29.316712;;-32.741841;;-34.856609;;-35.4542;;-35.903913;;-36.650844;;-37.528018;;-38.92222;;-41.300025;;-44.535885;;-47.914222;;-50.621982;;-52.384004;;-53.577622;;-54.741955;;-56.140881;;-57.577276;;-58.640589;;-59.309824;;-60.091513;;-61.340281;;-64.930474;;-78.200342;;-98.549343;;-126.2637;;-162.60352;;-209.41719;;-269.04426;;-343.99017;;-436.84828;;-550.42058;;-687.12433;;-848.26725;;-1032.7374;;-1234.6431;;-1438.6302;;-1612.6682;;-1734.4855;;-1822.2694;;-1891.2787;;-1946.7707;;-1993.0329;;-2035.2726;;-2075.9302;;-2113.3426;;-2144.1884;;-2166.0308;;-2177.8335;;-2179.6567;;-2172.1854;;-2157.0696;;-2138.6067;;-2124.7222;;-2123.3906;;-2135.5465;;-2153.0031;;-2164.953;;-2164.953
-19.890221;;-19.890221;;-19.920312;;-20.41749;;-22.531485;;-25.703635;;-29.681604;;-34.061456;;-38.209686;;-40.591099;;-40.36328;;-39.533753;;-38.783783;;-38.865453;;-40.196782;;-42.740569;;-46.09125;;-49.555742;;-52.444558;;-54.407124;;-55.583099;;-56.483521;;-57.630589;;-59.064306;;-60.531345;;-62.609528;;-65.430114;;-68.075805;;-76.016959;;-93.597064;;-118.97688;;-152.86189;;-196.8436;;-253.09168;;-324.14722;;-412.43793;;-520.83945;;-652.03341;;-807.93669;;-988.53587;;-1189.5536;;-1398.6991;;-1588.1804;;-1719.2661;;-1798.3949;;-1850.8881;;-1892.071;;-1932.3311;;-1978.8642;;-2032.4343;;-2086.2118;;-2131.3371;;-2162.8664;;-2180.7419;;-2187.0304;;-2183.0669;;-2169.1156;;-2146.7052;;-2121.7749;;-2104.9098;;-2105.4839;;-2122.9554;;-2145.9063;;-2161.0355;;-2161.0355
-19.894019;;-19.894019;;-20.068493;;-21.874858;;-24.992442;;-29.084259;;-33.952803;;-39.17954;;-44.117335;;-46.191101;;-44.482679;;-41.473084;;-39.270056;;-39.322109;;-41.517127;;-44.803005;;-48.342998;;-51.605231;;-54.277945;;-56.122689;;-57.153471;;-58.254313;;-60.510506;;-64.225548;;-69.257904;;-74.676509;;-79.493672;;-83.320162;;-92.642831;;-114.04471;;-145.01199;;-186.24173;;-239.50786;;-307.25726;;-391.92286;;-496.06764;;-622.49958;;-773.30587;;-948.98519;;-1146.6447;;-1356.4532;;-1554.8778;;-1699.5082;;-1782.4406;;-1831.6874;;-1866.2291;;-1899.0803;;-1940.5284;;-1994.9421;;-2056.7363;;-2113.5111;;-2155.208;;-2179.6621;;-2190.4907;;-2191.6849;;-2184.3833;;-2167.7566;;-2142.9108;;-2116.4622;;-2099.7087;;-2101.6317;;-2120.4627;;-2144.0469;;-2159.2711;;-2159.2711
-19.915101;;-19.915101;;-20.962559;;-23.773376;;-27.704489;;-32.611964;;-38.243626;;-44.30884;;-49.524418;;-50.352288;;-46.672547;;-42.262871;;-39.341169;;-39.881227;;-43.042584;;-47.036715;;-50.66795;;-53.572992;;-55.879295;;-58.229883;;-62.921905;;-67.906648;;-72.380193;;-77.980327;;-85.301632;;-93.198633;;-99.994616;;-105.17334;;-114.69338;;-139.64917;;-176.78989;;-226.41164;;-290.36658;;-371.30099;;-471.34662;;-593.12736;;-738.93623;;-909.59255;;-1102.9069;;-1310.5031;;-1511.4748;;-1663.7833;;-1750.8736;;-1804.1396;;-1844.942;;-1883.7765;;-1927.114;;-1979.1851;;-2038.9009;;-2098.0327;;-2145.7275;;-2176.1695;;-2191.195;;-2196.2011;;-2194.8803;;-2187.3175;;-2171.8785;;-2149.2294;;-2125.3234;;-2110.0534;;-2110.8486;;-2125.9311;;-2145.1075;;-2157.5512;;-2157.5512
-20.17132;;-20.17132;;-22.387872;;-25.914036;;-30.520989;;-36.112222;;-42.355206;;-48.856466;;-53.831396;;-52.563506;;-48.056542;;-43.43456;;-40.739068;;-41.951469;;-45.526472;;-49.619572;;-52.937716;;-55.491089;;-60.381239;;-68.16003;;-76.479415;;-83.98998;;-90.335411;;-97.899697;;-107.67317;;-118.2216;;-127.27491;;-134.12026;;-143.53984;;-170.81508;;-214.27917;;-273.08684;;-348.8925;;-444.39361;;-561.19324;;-701.66387;;-867.03106;;-1055.7636;;-1260.7215;;-1463.1426;;-1622.2204;;-1711.7706;;-1765.6081;;-1812.8872;;-1865.0103;;-1921.8652;;-1980.618;;-2038.8714;;-2093.1914;;-2138.5088;;-2170.5012;;-2188.7224;;-2196.7278;;-2198.892;;-2197.3898;;-2191.6139;;-2179.8819;;-2162.3318;;-2143.0624;;-2129.2689;;-2126.7126;;-2134.8492;;-2146.9327;;-2155.1935;;-2155.1935
-21.311879;;-21.311879;;-24.193388;;-28.388901;;-33.709879;;-39.980464;;-47.009621;;-53.825749;;-58.183706;;-55.116246;;-50.112284;;-45.802655;;-43.930137;;-45.628977;;-49.135805;;-52.722118;;-55.929636;;-62.794883;;-72.606987;;-84.159222;;-95.899366;;-106.07456;;-114.44042;;-124.25195;;-136.92711;;-150.62866;;-162.40758;;-171.34449;;-181.37292;;-208.64008;;-257.83707;;-326.07686;;-414.34566;;-525.11632;;-659.1145;;-817.91107;;-1000.8366;;-1202.3266;;-1406.6966;;-1578.034;;-1679.9961;;-1737.2468;;-1784.5376;;-1842.2161;;-1911.8357;;-1983.7393;;-2048.2452;;-2100.3874;;-2139.2501;;-2166.0807;;-2183.068;;-2192.746;;-2197.5887;;-2199.43;;-2198.955;;-2195.6212;;-2188.2739;;-2176.5363;;-2162.3183;;-2149.974;;-2143.9149;;-2145.1348;;-2150.2967;;-2154.4828;;-2154.4828
-22.844483;;-22.844483;;-26.126349;;-30.871832;;-36.855343;;-43.829732;;-51.590137;;-58.975413;;-62.920816;;-58.609128;;-53.048346;;-49.019637;;-48.088116;;-50.091735;;-53.269211;;-56.928086;;-64.87826;;-76.345141;;-90.364668;;-105.91318;;-121.49929;;-134.81274;;-145.54584;;-158.02002;;-174.18891;;-191.71197;;-206.82571;;-218.38465;;-230.16635;;-255.92537;;-308.35403;;-384.96851;;-485.17318;;-610.6424;;-760.74867;;-935.27512;;-1130.4114;;-1334.0972;;-1517.9658;;-1643.825;;-1721.0251;;-1777.1384;;-1834.985;;-1905.1154;;-1982.5238;;-2054.3336;;-2110.3022;;-2147.3233;;-2168.3369;;-2179.3211;;-2185.9508;;-2191.2907;;-2195.7268;;-2198.5761;;-2199.4475;;-2198.2378;;-2194.5457;;-2187.7747;;-2178.1991;;-2167.934;;-2160.1902;;-2156.8709;;-2157.0678;;-2158.1695;;-2158.1695
-24.148024;;-24.148024;;-27.726622;;-32.89652;;-39.407787;;-46.973827;;-55.366958;;-63.298292;;-67.113663;;-62.018786;;-55.952953;;-52.068528;;-51.915925;;-54.18599;;-57.873058;;-66.48579;;-79.166442;;-95.151153;;-113.75727;;-134.03792;;-154.23409;;-171.32468;;-184.86889;;-200.41529;;-220.54829;;-242.47061;;-261.51121;;-276.30688;;-291.54559;;-317.37254;;-369.1232;;-450.2432;;-559.54166;;-696.87415;;-859.73178;;-1044.4097;;-1242.3551;;-1432.7943;;-1581.53;;-1686.9267;;-1768.484;;-1840.729;;-1913.1776;;-1987.134;;-2056.4377;;-2113.1084;;-2152.3451;;-2174.0666;;-2182.3259;;-2183.7528;;-2184.6796;;-2188.0781;;-2193.0172;;-2197.126;;-2199.1884;;-2199.4108;;-2198.0927;;-2194.8355;;-2189.1775;;-2181.8048;;-2174.7112;;-2169.7709;;-2167.345;;-2166.5526;;-2166.5526
-25.168795;;-25.168795;;-28.955882;;-34.422553;;-41.298518;;-49.263979;;-58.06045;;-66.275701;;-69.645198;;-64.154672;;-57.956718;;-54.387143;;-54.812309;;-58.226804;;-67.387217;;-80.963463;;-98.442253;;-119.47711;;-143.52973;;-169.54753;;-195.22308;;-216.61114;;-233.26982;;-252.18438;;-276.81839;;-303.85605;;-327.56961;;-346.37831;;-365.99823;;-396.03793;;-447.70309;;-527.58978;;-638.44266;;-780.09247;;-948.11314;;-1132.6141;;-1319.488;;-1484.0817;;-1614.7072;;-1722.8483;;-1819.7616;;-1910.3634;;-1992.525;;-2060.867;;-2112.508;;-2148.8499;;-2172.5149;;-2184.9217;;-2187.819;;-2185.5327;;-2183.7789;;-2185.8817;;-2190.9133;;-2195.826;;-2198.7325;;-2199.7794;;-2199.7019;;-2198.5367;;-2195.8065;;-2191.5069;;-2186.5531;;-2182.1578;;-2179.0379;;-2177.4239;;-2177.4239
-26.11669;;-26.11669;;-30.068228;;-35.761431;;-42.899052;;-51.110706;;-60.085392;;-68.230497;;-70.339791;;-64.834607;;-59.110924;;-56.31948;;-58.299157;;-67.530215;;-81.659703;;-100.17235;;-123.06891;;-150.00343;;-180.45311;;-213.15966;;-245.19849;;-271.55608;;-291.73147;;-314.32062;;-343.87614;;-376.61401;;-405.72446;;-429.47614;;-454.74754;;-492.20839;;-549.07509;;-629.46469;;-735.01102;;-867.67908;;-1023.726;;-1189.0336;;-1351.4393;;-1501.3061;;-1632.6127;;-1747.6118;;-1855.4455;;-1958.2193;;-2045.8352;;-2107.4786;;-2143.7448;;-2164.7578;;-2179.0092;;-2187.9964;;-2190.4073;;-2187.831;;-2185.0414;;-2185.8569;;-2190.1611;;-2195.121;;-2198.4631;;-2199.9655;;-2200.4211;;-2200.2468;;-2199.2787;;-2197.359;;-2194.7194;;-2191.8483;;-2189.2993;;-2187.733;;-2187.733
-27.009294;;-27.009294;;-31.099966;;-36.978802;;-44.316356;;-52.676634;;-61.674311;;-69.506385;;-70.155647;;-64.983165;;-60.246739;;-59.129149;;-67.229276;;-81.324634;;-100.35477;;-124.42154;;-153.3744;;-187.07742;;-225.06907;;-265.68438;;-305.12014;;-337.0565;;-360.97888;;-387.23662;;-421.7207;;-460.37008;;-495.46921;;-525.31252;;-557.88251;;-604.68615;;-671.95942;;-758.71619;;-861.14294;;-975.26472;;-1095.8186;;-1226.2762;;-1370.8316;;-1516.6885;;-1644.8493;;-1752.604;;-1857.3865;;-1966.1673;;-2062.104;;-2126.0085;;-2157.6326;;-2172.1118;;-2182.0927;;-2189.8462;;-2192.8533;;-2191.0914;;-2188.1827;;-2187.8391;;-2190.7953;;-2195.0592;;-2198.4092;;-2200.154;;-2200.8136;;-2200.9673;;-2200.7683;;-2200.1591;;-2199.1179;;-2197.718;;-2196.2262;;-2195.2015;;-2195.2015
