-12.512057;;-12.512057;;-12.596282;;-13.748049;;-15.662465;;-18.283098;;-21.681658;;-25.981195;;-31.264977;;-37.623949;;-45.322623;;-53.873424;;-63.172276;;-72.546244;;-81.822684;;-95.127786;;-113.42128;;-136.78914;;-165.41808;;-199.03547;;-237.08746;;-278.59028;;-321.96217;;-365.89333;;-410.23908;;-454.87082;;-499.13865;;-542.44731;;-583.85737;;-621.83254;;-655.82789;;-687.43662;;-718.58178;;-749.38484;;-778.94478;;-807.01042;;-833.52862;;-857.3907;;-876.9165;;-891.28768;;-901.06075;;-907.78191;;-913.32068;;-919.05431;;-925.51833;;-932.97714;;-941.88483;;-952.32358;;-963.34957;;-973.35556;;-981.07144;;-986.23688;;-989.51316;;-991.88364;;-994.20228;;-997.08447;;-1000.7278;;-1004.6772;;-1007.9921;;-1009.6008;;-1008.3325;;-1003.4031;;-996.06975;;-990.38566;;-990.38566
-12.512016;;-12.512016;;-12.55978;;-13.589895;;-15.41957;;-17.950001;;-21.24061;;-25.408873;;-30.543587;;-36.7354;;-44.267904;;-52.701818;;-62.0753;;-72.183025;;-84.294923;;-100.64214;;-121.73825;;-147.90001;;-179.08539;;-214.67967;;-253.9148;;-295.25551;;-336.78795;;-377.72169;;-418.52506;;-459.20531;;-499.34939;;-538.88766;;-577.49394;;-614.10628;;-648.17593;;-680.60939;;-712.44609;;-743.42606;;-772.82849;;-800.73517;;-827.29155;;-851.37144;;-871.09727;;-885.49012;;-895.19919;;-902.03326;;-908.05735;;-914.70621;;-922.45747;;-931.35071;;-941.47692;;-952.62958;;-963.77611;;-973.33166;;-980.1371;;-984.27113;;-986.87454;;-989.16084;;-991.82051;;-995.21305;;-999.42849;;-1003.9597;;-1007.7077;;-1009.2485;;-1006.8188;;-999.12814;;-987.93202;;-979.27208;;-979.27208
-12.512006;;-12.512006;;-12.539451;;-13.445039;;-15.192675;;-17.634759;;-20.819026;;-24.858235;;-29.849817;;-36.093253;;-43.28387;;-51.676434;;-61.329832;;-72.734908;;-87.257256;;-105.82254;;-129.008;;-157.16166;;-189.84943;;-226.49951;;-265.84706;;-305.82732;;-344.67338;;-382.59889;;-420.67124;;-459.01386;;-497.16346;;-534.92369;;-572.14982;;-608.32497;;-643.05407;;-676.45252;;-708.527;;-738.78379;;-766.96987;;-793.60137;;-819.06428;;-842.48711;;-862.14296;;-876.9639;;-887.46341;;-895.40089;;-902.78483;;-910.98226;;-920.4169;;-930.89107;;-941.99856;;-953.16984;;-963.5433;;-972.11235;;-978.28951;;-982.43354;;-985.55622;;-988.41952;;-991.31867;;-994.61904;;-998.69356;;-1003.1991;;-1006.9204;;-1008.0979;;-1004.4708;;-994.38392;;-980.04673;;-969.03808;;-969.03808
-12.51206;;-12.51206;;-12.537902;;-13.399571;;-15.108472;;-17.502351;;-20.624507;;-24.585506;;-29.490262;;-35.647726;;-42.783342;;-51.238072;;-61.288464;;-73.696856;;-89.332867;;-108.92063;;-133.04027;;-161.76024;;-194.68658;;-231.08139;;-269.38109;;-307.48737;;-344.35029;;-380.91683;;-418.43342;;-456.98378;;-495.738;;-533.8668;;-570.98683;;-607.04081;;-641.99932;;-675.51909;;-706.86357;;-735.46609;;-761.5975;;-786.19914;;-809.91582;;-832.28715;;-851.91698;;-867.58585;;-879.37922;;-888.79169;;-897.76658;;-907.64417;;-918.76997;;-930.65895;;-942.38506;;-953.06651;;-962.21432;;-969.74172;;-975.86766;;-981.06106;;-985.7046;;-989.7167;;-992.94891;;-995.87843;;-999.23884;;-1002.9674;;-1005.9413;;-1006.3428;;-1001.8605;;-990.97373;;-976.12639;;-964.9343;;-964.9343
-12.512346;;-12.512346;;-12.554765;;-13.46615;;-15.171894;;-17.538862;;-20.610368;;-24.491238;;-29.477926;;-35.273558;;-42.217188;;-50.473156;;-60.404781;;-72.755708;;-88.277293;;-107.62159;;-131.3176;;-159.31789;;-191.27554;;-226.45571;;-263.43977;;-300.59059;;-337.43982;;-374.99124;;-414.28375;;-455.20184;;-496.41653;;-536.23234;;-573.69072;;-609.02789;;-642.90345;;-675.21805;;-705.04163;;-731.74772;;-755.8525;;-778.56473;;-800.76022;;-822.32156;;-842.09381;;-858.65172;;-871.60318;;-882.16281;;-892.2902;;-903.39945;;-915.76827;;-928.63315;;-940.72006;;-951.08454;;-959.66447;;-967.07534;;-974.02532;;-980.85054;;-987.24593;;-992.43603;;-995.99544;;-998.46411;;-1000.7775;;-1003.1717;;-1004.854;;-1004.3211;;-999.7787;;-990.36738;;-978.3716;;-969.6394;;-969.6394
-12.513521;;-12.513521;;-12.636373;;-13.716332;;-15.465762;;-17.818901;;-20.820262;;-24.553173;;-29.269976;;-34.666918;;-41.022349;;-48.416002;;-57.144918;;-68.143954;;-82.364699;;-100.40869;;-122.73993;;-149.39958;;-180.0405;;-214.12766;;-250.59072;;-288.20541;;-326.64473;;-366.67877;;-409.04798;;-453.33818;;-497.64486;;-539.33943;;-576.74381;;-610.34545;;-641.87514;;-672.17097;;-700.51637;;-726.03953;;-749.05493;;-770.80863;;-792.32937;;-813.61273;;-833.49623;;-850.40394;;-863.73986;;-874.60487;;-884.99079;;-896.41832;;-909.18981;;-922.43346;;-934.85377;;-945.75261;;-955.36317;;-964.33339;;-973.12819;;-981.70188;;-989.37895;;-995.21328;;-998.81164;;-1000.7718;;-1002.1138;;-1003.3118;;-1003.9106;;-1002.8413;;-999.0807;;-992.57798;;-985.11906;;-980.01445;;-980.01445
-12.520174;;-12.520174;;-12.974152;;-14.309344;;-16.215452;;-18.661857;;-21.668198;;-25.213535;;-29.542317;;-34.295894;;-39.715771;;-45.741583;;-52.433808;;-61.242822;;-73.615543;;-89.857943;;-110.31619;;-135.2678;;-164.46617;;-197.70641;;-234.32972;;-273.30335;;-314.01598;;-356.93206;;-402.58471;;-450.17463;;-497.12892;;-539.96377;;-576.46316;;-607.58116;;-636.37122;;-664.86694;;-692.65983;;-718.3751;;-741.68264;;-763.56853;;-785.11168;;-806.3146;;-825.91197;;-842.31419;;-855.0381;;-865.24977;;-874.93812;;-885.7124;;-898.04596;;-911.21607;;-924.1493;;-936.46823;;-948.46501;;-960.29246;;-971.63745;;-981.90904;;-990.36201;;-996.32615;;-999.71383;;-1001.2868;;-1002.1869;;-1003.0314;;-1003.4751;;-1002.6881;;-1000.2314;;-996.57018;;-992.93713;;-990.70379;;-990.70379
-12.619678;;-12.619678;;-13.621704;;-15.256217;;-17.418737;;-20.097811;;-23.217652;;-26.909266;;-30.627596;;-34.430217;;-38.61753;;-43.15605;;-47.727951;;-54.154409;;-64.777946;;-79.291711;;-97.901758;;-121.02834;;-148.66714;;-180.87935;;-217.45303;;-257.69871;;-300.78595;;-346.6098;;-395.26875;;-445.42493;;-493.84253;;-536.46842;;-571.08328;;-599.44663;;-625.86021;;-653.40273;;-681.89806;;-709.30125;;-734.25799;;-757.08344;;-778.76699;;-799.48667;;-818.15123;;-833.38548;;-844.93289;;-854.0009;;-862.48362;;-872.07067;;-883.57051;;-896.61337;;-910.31694;;-924.33362;;-938.80384;;-953.45312;;-967.32691;;-979.3092;;-988.56766;;-994.73411;;-998.09162;;-999.67636;;-1000.8289;;-1002.2281;;-1003.4509;;-1003.6886;;-1002.7165;;-1001.0776;;-999.57804;;-998.7559;;-998.7559
-13.177503;;-13.177503;;-14.50975;;-16.457337;;-18.940708;;-21.906915;;-25.254233;;-28.995898;;-32.25902;;-34.723519;;-37.564536;;-40.874313;;-43.905828;;-48.143546;;-57.342041;;-70.406939;;-87.429994;;-108.85787;;-134.95127;;-165.92943;;-201.98;;-242.88356;;-288.01333;;-336.60969;;-387.75742;;-439.36945;;-487.70748;;-528.63901;;-560.56359;;-586.21363;;-610.8285;;-638.20609;;-668.31692;;-698.41933;;-725.91701;;-750.10618;;-771.73178;;-791.38976;;-808.62856;;-822.60563;;-833.25326;;-841.55279;;-849.08879;;-857.61567;;-868.40779;;-881.522;;-896.05824;;-911.31718;;-927.23009;;-943.58622;;-959.38602;;-973.16561;;-983.7524;;-990.74257;;-994.63217;;-996.72744;;-998.55272;;-1000.8275;;-1003.1166;;-1004.6397;;-1005.1225;;-1004.8463;;-1004.3042;;-1003.9289;;-1003.9289
-14.015696;;-14.015696;;-15.548471;;-17.765005;;-20.561043;;-23.828451;;-27.435949;;-31.243035;;-33.853139;;-34.924838;;-36.676725;;-39.20342;;-41.412478;;-43.723787;;-51.772425;;-63.672074;;-79.411686;;-99.443635;;-124.24079;;-154.10355;;-189.50708;;-230.58122;;-276.9556;;-327.53695;;-380.31685;;-432.16567;;-478.96933;;-517.13865;;-546.13864;;-569.50551;;-592.97396;;-620.6905;;-652.63809;;-685.44995;;-715.41241;;-740.86766;;-762.30036;;-780.77425;;-796.69639;;-809.96413;;-820.62288;;-829.12531;;-836.51599;;-844.56279;;-854.9934;;-868.21278;;-883.19027;;-898.82159;;-914.971;;-931.88006;;-948.9415;;-964.52625;;-976.95702;;-985.46988;;-990.51163;;-993.48317;;-995.97597;;-998.81086;;-1001.8002;;-1004.3831;;-1006.1633;;-1006.9946;;-1007.0578;;-1006.8638;;-1006.8638
-14.815014;;-14.815014;;-16.50587;;-18.942203;;-21.997416;;-25.518777;;-29.333056;;-33.148443;;-34.931796;;-35.015339;;-36.075273;;-38.208179;;-40.173885;;-41.147924;;-48.170756;;-59.153439;;-73.946276;;-92.965877;;-116.83307;;-145.87546;;-180.68362;;-221.56349;;-268.28192;;-319.66342;;-373.06545;;-424.23879;;-468.72915;;-504.05038;;-530.83787;;-553.00882;;-576.23576;;-604.55449;;-637.78774;;-672.15363;;-703.36309;;-729.3505;;-750.53828;;-768.29597;;-783.65536;;-797.09785;;-808.65687;;-818.17881;;-826.16234;;-834.31688;;-844.60492;;-857.6214;;-872.34923;;-887.6068;;-903.36043;;-920.24883;;-938.03839;;-955.09475;;-969.40878;;-979.82488;;-986.47877;;-990.54557;;-993.52287;;-996.41824;;-999.52205;;-1002.6984;;-1005.523;;-1007.4098;;-1008.1419;;-1008.1996;;-1008.1996
-15.456582;;-15.456582;;-17.259092;;-19.84859;;-23.078761;;-26.757789;;-30.666914;;-34.383506;;-35.447532;;-35.094469;;-35.792502;;-37.716963;;-39.726925;;-40.345733;;-46.152832;;-56.372602;;-70.474307;;-88.775858;;-111.90748;;-140.28509;;-174.46974;;-214.85848;;-261.29571;;-312.62519;;-365.97215;;-416.32313;;-458.99488;;-492.72595;;-519.03531;;-541.69065;;-565.67458;;-594.46816;;-627.72132;;-661.7081;;-692.33654;;-717.79235;;-738.65432;;-756.3454;;-772.02491;;-786.30723;;-799.08333;;-809.82317;;-818.7183;;-827.30926;;-837.46946;;-849.90503;;-863.93795;;-878.66338;;-894.07324;;-910.77662;;-928.68107;;-946.405;;-962.06527;;-974.30584;;-982.75472;;-988.05518;;-991.46126;;-994.14969;;-996.92024;;-1000.1948;;-1003.7247;;-1006.5763;;-1008.0508;;-1008.446;;-1008.446
-16.000559;;-16.000559;;-17.880851;;-20.572982;;-23.910413;;-27.661;;-31.754097;;-35.015343;;-35.723907;;-35.434949;;-36.006075;;-37.732682;;-39.784886;;-40.719465;;-44.940072;;-54.439943;;-67.918284;;-85.558888;;-107.96237;;-135.63028;;-169.05353;;-208.69187;;-254.46459;;-305.315;;-358.44231;;-408.66881;;-451.23032;;-485.59088;;-513.61658;;-538.43549;;-563.83232;;-592.49024;;-624.18536;;-655.94032;;-684.52815;;-708.7144;;-729.20312;;-747.20776;;-763.59856;;-778.7615;;-792.47492;;-804.21389;;-814.09594;;-823.31526;;-833.40293;;-845.22392;;-858.68415;;-873.22433;;-888.5812;;-904.94791;;-922.29287;;-939.79965;;-956.08421;;-969.71947;;-979.76224;;-986.26523;;-990.18651;;-992.70472;;-994.93621;;-997.87324;;-1001.6537;;-1005.178;;-1007.2858;;-1008.0063;;-1008.0063
-16.57314;;-16.57314;;-18.516627;;-21.286493;;-24.691096;;-28.451898;;-32.433335;;-35.304647;;-36.136973;;-36.305337;;-36.960261;;-38.449824;;-40.324625;;-41.514206;;-44.010839;;-52.752907;;-65.540789;;-82.435487;;-104.00208;;-130.83456;;-163.3285;;-201.99964;;-246.86609;;-297.05145;;-350.06486;;-401.10084;;-445.38882;;-482.33148;;-513.60071;;-541.42951;;-568.25063;;-596.04744;;-625.11004;;-653.76179;;-679.93273;;-702.8537;;-723.07896;;-741.40157;;-758.26843;;-773.84404;;-788.04028;;-800.63292;;-811.69416;;-821.88104;;-832.27607;;-843.91791;;-857.22307;;-871.7923;;-886.99805;;-902.692;;-919.08869;;-936.06306;;-952.67605;;-967.29863;;-978.4581;;-985.85141;;-990.2781;;-992.76547;;-994.45304;;-996.73723;;-1000.2203;;-1003.8814;;-1006.2995;;-1007.2357;;-1007.2357
-17.24166;;-17.24166;;-19.242541;;-22.07335;;-25.500633;;-29.399546;;-32.959234;;-35.505767;;-36.829499;;-37.666742;;-38.572883;;-39.841872;;-41.341179;;-42.485657;;-43.61588;;-51.355868;;-63.327458;;-79.420539;;-100.11112;;-126.0667;;-157.60648;;-195.27382;;-239.20378;;-288.73418;;-341.77258;;-394.09885;;-440.93698;;-481.01563;;-515.48689;;-545.85098;;-573.55071;;-600.07715;;-626.39745;;-652.23066;;-676.56305;;-698.79868;;-719.06159;;-737.61291;;-754.56149;;-770.0991;;-784.5548;;-798.12657;;-810.76293;;-822.4839;;-833.87085;;-845.96122;;-859.34877;;-873.62529;;-888.0591;;-902.6356;;-918.07061;;-934.79288;;-951.95525;;-967.45505;;-979.30019;;-987.0816;;-991.71057;;-994.16074;;-995.4409;;-997.02936;;-999.81466;;-1003.0351;;-1005.3254;;-1006.291;;-1006.291
-18.033281;;-18.033281;;-20.08924;;-22.969099;;-26.550689;;-30.07991;;-33.288816;;-35.762299;;-37.655068;;-39.133109;;-40.350779;;-41.507007;;-42.698622;;-43.77396;;-44.46688;;-50.495951;;-61.585483;;-76.95813;;-96.904522;;-122.07309;;-152.83409;;-189.68303;;-232.87265;;-281.93291;;-335.12035;;-388.71449;;-437.82335;;-480.16955;;-516.38453;;-547.78834;;-575.46137;;-600.63118;;-624.71854;;-648.49764;;-671.78126;;-694.04839;;-714.90845;;-734.01693;;-751.1648;;-766.68315;;-781.42671;;-796.08941;;-810.58599;;-824.36742;;-837.39777;;-850.3758;;-863.78684;;-877.29447;;-890.46879;;-903.76518;;-918.37252;;-935.0108;;-952.73838;;-968.95211;;-981.13414;;-988.75637;;-993.01595;;-995.20113;;-996.33828;;-997.64059;;-999.82166;;-1002.3202;;-1004.1123;;-1004.8893;;-1004.8893
-18.993114;;-18.993114;;-21.02083;;-23.887481;;-27.358335;;-30.613962;;-33.48222;;-36.043177;;-38.344693;;-40.256031;;-41.729492;;-42.917373;;-44.112149;;-45.426806;;-46.405645;;-50.160192;;-60.417037;;-75.170082;;-94.513706;;-119.04841;;-149.24671;;-185.51042;;-228.19626;;-276.98561;;-330.3892;;-384.99411;;-435.57336;;-478.65575;;-514.63634;;-545.33047;;-572.08785;;-596.02346;;-618.57345;;-641.01951;;-663.85833;;-686.82363;;-709.13153;;-729.73271;;-747.89843;;-763.90177;;-779.00517;;-794.50497;;-810.62797;;-826.52958;;-841.44622;;-855.41813;;-868.75607;;-881.47952;;-893.70735;;-906.22848;;-920.27137;;-936.53241;;-954.08989;;-970.22718;;-982.08157;;-988.85911;;-992.0386;;-993.63731;;-995.02065;;-996.84207;;-999.03071;;-1000.9481;;-1002.0901;;-1002.5247;;-1002.5247
-20.897717;;-20.897717;;-22.620327;;-25.445201;;-28.422446;;-31.237785;;-33.834241;;-36.405245;;-38.828569;;-40.881288;;-42.453968;;-43.726021;;-45.17542;;-47.004538;;-48.462649;;-50.193339;;-59.593118;;-73.72086;;-92.494854;;-116.44945;;-146.14685;;-181.88647;;-224.10515;;-272.60085;;-326.05977;;-381.2223;;-432.36947;;-474.75589;;-508.98977;;-537.9022;;-563.4123;;-586.56117;;-608.46278;;-630.43055;;-653.46733;;-677.73173;;-702.24124;;-725.23553;;-745.28638;;-762.3442;;-777.84532;;-793.68473;;-810.70994;;-828.14772;;-844.6137;;-859.42234;;-872.77848;;-885.24709;;-897.48316;;-910.24731;;-924.29226;;-939.94361;;-956.36147;;-971.15341;;-981.53945;;-986.57263;;-988.0177;;-988.81357;;-990.82564;;-993.92167;;-996.79667;;-998.49713;;-999.11079;;-999.23105;;-999.23105
-23.755705;;-23.755705;;-25.234199;;-27.736793;;-30.254536;;-32.647233;;-34.997984;;-37.311613;;-39.447896;;-41.245287;;-42.62635;;-43.831923;;-45.479941;;-47.735681;;-49.511688;;-50.097789;;-58.557907;;-72.02275;;-90.174535;;-113.45193;;-142.46637;;-177.46042;;-218.91688;;-266.72774;;-319.72103;;-374.77051;;-425.81871;;-466.97204;;-499.27539;;-526.67459;;-551.58094;;-574.90395;;-597.29826;;-619.8271;;-643.73122;;-669.53069;;-696.20646;;-721.52873;;-743.52577;;-761.80139;;-777.76945;;-793.67509;;-810.90238;;-828.95406;;-846.20549;;-861.55626;;-875.19608;;-888.11575;;-901.28377;;-915.20952;;-929.95275;;-945.21379;;-960.0535;;-972.54689;;-980.47499;;-983.17845;;-982.76858;;-982.87643;;-985.65035;;-990.12947;;-993.84758;;-995.59102;;-995.98474;;-996.00473;;-996.00473
-27.318309;;-27.318309;;-28.637242;;-30.863765;;-33.126871;;-35.490314;;-37.701447;;-39.438385;;-40.744491;;-41.7513;;-42.520634;;-43.356187;;-44.882016;;-47.140646;;-48.873394;;-49.068372;;-56.779979;;-69.5632;;-86.933364;;-109.2644;;-137.18842;;-170.94697;;-211.04629;;-257.47841;;-309.25846;;-363.567;;-414.58742;;-455.68657;;-487.73353;;-515.3338;;-541.11003;;-565.73127;;-589.42184;;-612.99644;;-637.79429;;-664.5536;;-692.34126;;-718.87072;;-742.04441;;-761.30077;;-777.89826;;-794.01804;;-811.14223;;-829.00993;;-846.22798;;-861.81437;;-876.03294;;-889.97749;;-904.61165;;-920.11333;;-935.89344;;-950.9963;;-964.27846;;-974.33495;;-979.87144;;-980.8698;;-979.58595;;-979.61002;;-982.89155;;-987.9525;;-991.87789;;-993.54834;;-993.93644;;-994.05575;;-994.05575
-31.19441;;-31.403459;;-32.602976;;-34.49181;;-36.867609;;-39.571134;;-41.832477;;-42.910445;;-42.974337;;-42.67543;;-42.426207;;-42.607156;;-43.69797;;-45.562598;;-46.995133;;-47.230367;;-54.279521;;-66.248872;;-82.582981;;-103.61303;;-129.98302;;-161.9811;;-200.1273;;-244.55803;;-294.58247;;-347.961;;-399.82824;;-443.48189;;-478.25754;;-508.43401;;-536.52268;;-562.92949;;-587.67342;;-611.61493;;-636.30805;;-662.685;;-690.02141;;-716.3532;;-739.84236;;-759.89054;;-777.40724;;-794.08236;;-811.07456;;-828.28719;;-844.91972;;-860.52864;;-875.51286;;-890.80256;;-907.08747;;-924.12265;;-940.72744;;-955.46526;;-967.24452;;-975.43704;;-979.8382;;-980.96506;;-980.60993;;-981.40387;;-984.67492;;-989.00752;;-992.01545;;-993.10769;;-993.39034;;-993.60901;;-993.60901
-34.861029;;-35.073234;;-36.103939;;-38.062459;;-40.985374;;-44.317034;;-46.765326;;-47.179813;;-45.871308;;-44.050394;;-42.580981;;-41.951367;;-42.444935;;-43.718649;;-44.799159;;-45.358039;;-51.629543;;-62.642972;;-77.766864;;-97.297656;;-121.87111;;-151.93098;;-187.96881;;-230.30912;;-278.62061;;-331.36278;;-384.89404;;-433.19376;;-473.2956;;-507.90929;;-538.99926;;-566.77569;;-591.51398;;-614.54214;;-637.76049;;-662.31036;;-687.82228;;-712.92311;;-736.24735;;-757.13759;;-775.88943;;-793.38435;;-810.29706;;-826.73703;;-842.64507;;-858.24057;;-874.05594;;-890.729;;-908.52775;;-926.72662;;-943.65873;;-957.70529;;-968.21264;;-975.51757;;-980.31597;;-983.21676;;-985.04067;;-987.02497;;-989.78881;;-992.40292;;-993.61654;;-993.64808;;-993.63889;;-993.89769;;-993.89769
-37.298582;;-37.298582;;-38.541051;;-40.950999;;-44.64954;;-48.679874;;-51.362474;;-51.175914;;-48.732408;;-45.629931;;-43.062153;;-41.646698;;-41.496011;;-42.136172;;-42.907361;;-44.013732;;-49.676643;;-59.771523;;-73.71517;;-91.802284;;-114.67632;;-143.04455;;-177.34672;;-218.02008;;-265.02261;;-317.36984;;-372.41273;;-425.23349;;-471.47642;;-511.34959;;-545.54907;;-574.15515;;-598.14038;;-619.53162;;-640.49517;;-662.35514;;-685.25624;;-708.58101;;-731.48087;;-753.17683;;-773.22505;;-791.63193;;-808.64455;;-824.61267;;-840.11852;;-855.91842;;-872.60712;;-890.44415;;-909.21649;;-927.88303;;-944.69654;;-958.23379;;-968.32547;;-975.86789;;-981.83224;;-986.58482;;-990.17924;;-992.88896;;-994.85149;;-995.61574;;-995.02144;;-994.09226;;-993.966;;-994.40584;;-994.40584
-38.488889;;-38.488889;;-39.828958;;-42.617205;;-46.839206;;-51.31634;;-54.163173;;-53.66718;;-50.667313;;-46.908819;;-43.69729;;-41.704581;;-40.961996;;-40.986528;;-41.489212;;-43.27528;;-48.917908;;-58.316;;-71.27085;;-88.14938;;-109.60683;;-136.47056;;-169.41137;;-208.76879;;-254.63211;;-306.35889;;-361.98997;;-417.71209;;-469.21765;;-514.38842;;-551.85244;;-581.34841;;-604.71246;;-624.63779;;-643.38041;;-662.46032;;-682.67191;;-704.14072;;-726.41134;;-748.56379;;-769.56518;;-788.78;;-806.19818;;-822.34606;;-838.14285;;-854.5677;;-872.11319;;-890.59165;;-909.39702;;-927.63865;;-944.18303;;-958.11015;;-969.24352;;-978.04096;;-984.99293;;-990.28687;;-994.02581;;-996.42273;;-997.48103;;-996.98934;;-995.44833;;-994.3497;;-994.65377;;-995.53696;;-995.53696
-39.296737;;-39.509177;;-40.392829;;-42.94393;;-47.014302;;-51.370243;;-54.139768;;-53.78285;;-51.005585;;-47.384189;;-44.15906;;-41.9655;;-40.794833;;-40.314304;;-40.654155;;-43.244588;;-49.286549;;-58.278582;;-70.390763;;-86.197642;;-106.44462;;-131.96552;;-163.63876;;-201.82056;;-246.52356;;-297.31348;;-352.7234;;-409.86097;;-465.03843;;-514.65374;;-555.22448;;-585.88101;;-609.11033;;-628.0586;;-645.03019;;-661.84878;;-679.97354;;-700.04225;;-721.72233;;-743.93512;;-765.34108;;-785.04984;;-803.04516;;-819.98413;;-836.76856;;-854.14643;;-872.24544;;-890.48738;;-908.24286;;-925.39454;;-941.99189;;-957.58732;;-971.20159;;-981.89164;;-989.2991;;-993.82343;;-996.36306;;-997.67807;;-997.878;;-996.88997;;-995.50596;;-995.18654;;-996.39485;;-997.81981;;-997.81981
-39.803451;;-40.016875;;-40.41223;;-42.298135;;-45.781689;;-49.631965;;-52.076195;;-51.944658;;-49.826342;;-46.94748;;-44.26968;;-42.268258;;-40.951127;;-40.247489;;-40.697188;;-44.112323;;-50.650693;;-59.626657;;-71.111653;;-85.877818;;-105.03549;;-129.50711;;-160.13531;;-197.49329;;-241.38402;;-291.45372;;-346.52007;;-404.20358;;-461.15449;;-513.0701;;-555.32551;;-586.60551;;-609.64657;;-627.81786;;-643.58423;;-659.12488;;-676.30689;;-695.89237;;-717.3832;;-739.51424;;-760.87575;;-780.65483;;-799.06957;;-816.94331;;-834.93482;;-853.17315;;-871.20354;;-888.2823;;-904.28558;;-920.30219;;-937.60829;;-955.83228;;-972.6069;;-985.28422;;-992.86763;;-996.3745;;-997.679;;-998.04253;;-997.67146;;-996.68254;;-996.04813;;-996.89934;;-999.03747;;-1000.863;;-1000.863
-39.731908;;-39.946065;;-39.928194;;-41.212654;;-44.093963;;-47.339693;;-49.331192;;-49.325574;;-47.930822;;-46.013825;;-44.144329;;-42.598899;;-41.466924;;-40.936504;;-41.78123;;-45.704935;;-52.565519;;-61.694173;;-72.961773;;-87.031509;;-105.57978;;-129.65783;;-160.02911;;-197.33753;;-241.26871;;-291.40017;;-346.53038;;-404.18637;;-460.78239;;-511.87343;;-553.04696;;-583.19988;;-605.09049;;-622.29358;;-637.61536;;-653.32384;;-671.03207;;-691.12868;;-712.85176;;-734.89555;;-755.99162;;-775.55639;;-794.0807;;-812.53361;;-831.30794;;-849.88824;;-867.30014;;-882.89851;;-897.33158;;-912.78044;;-931.24943;;-952.04268;;-971.4913;;-985.74197;;-993.64198;;-996.92087;;-998.0814;;-998.44811;;-998.117;;-997.35882;;-997.31397;;-998.87109;;-1001.4283;;-1003.3484;;-1003.3484
-39.046896;;-39.261546;;-39.077254;;-40.072693;;-42.557655;;-45.293747;;-46.868898;;-46.949536;;-46.195422;;-45.152974;;-44.047597;;-43.048089;;-42.364102;;-42.32449;;-43.619982;;-47.619278;;-54.470882;;-63.59259;;-74.833708;;-88.971107;;-107.86611;;-132.51501;;-163.64103;;-201.85086;;-246.74123;;-297.77858;;-353.448;;-410.62134;;-464.91174;;-512.17816;;-549.41081;;-576.28158;;-595.61654;;-611.52119;;-627.37527;;-644.96005;;-664.60964;;-685.81345;;-707.77131;;-729.60199;;-750.42423;;-769.8217;;-788.30137;;-806.791;;-825.55457;;-843.84832;;-860.58607;;-875.36439;;-889.31823;;-905.00421;;-924.44158;;-946.57479;;-967.22904;;-982.31985;;-990.92759;;-995.14481;;-997.4864;;-998.94269;;-999.35195;;-998.98793;;-999.03727;;-1000.3841;;-1002.5539;;-1004.1802;;-1004.1802
-38.000899;;-38.216001;;-38.089778;;-39.086101;;-41.4014;;-43.814597;;-45.135141;;-45.326473;;-45.055463;;-44.637698;;-44.107389;;-43.626577;;-43.496763;;-44.033926;;-45.678205;;-49.42159;;-55.890078;;-64.771223;;-76.170592;;-91.262513;;-111.40838;;-137.41768;;-170.05055;;-209.7629;;-256.1447;;-308.52745;;-364.90581;;-421.16296;;-471.83001;;-513.62567;;-545.51241;;-567.96728;;-583.99206;;-598.56232;;-615.74624;;-636.31493;;-658.55248;;-680.78338;;-702.58118;;-724.01375;;-744.74525;;-764.29864;;-782.78982;;-800.85035;;-818.83294;;-836.38873;;-852.84579;;-867.995;;-882.78794;;-899.25291;;-918.90217;;-940.64116;;-960.82387;;-976.07506;;-985.8157;;-991.86625;;-996.12812;;-999.13598;;-1000.6188;;-1000.8158;;-1000.7671;;-1001.4042;;-1002.708;;-1003.804;;-1003.804
-36.873725;;-37.089218;;-37.153664;;-38.334448;;-40.678432;;-42.999752;;-44.243605;;-44.48826;;-44.418385;;-44.322986;;-44.203008;;-44.195701;;-44.585013;;-45.593466;;-47.449684;;-50.830685;;-56.681901;;-65.353397;;-77.538098;;-94.192467;;-116.03007;;-143.78591;;-178.2577;;-219.58421;;-267.52161;;-321.1641;;-377.93183;;-432.65896;;-479.19607;;-515.72755;;-542.92668;;-561.77235;;-575.32709;;-589.16072;;-607.69853;;-630.69624;;-654.69052;;-677.20016;;-698.42056;;-719.45444;;-740.41109;;-760.49033;;-779.10422;;-796.44517;;-813.16543;;-829.7633;;-846.27458;;-862.5136;;-878.72036;;-895.90718;;-914.97781;;-935.17391;;-954.00446;;-969.19839;;-980.33523;;-988.42363;;-994.44493;;-998.65685;;-1001.0279;;-1001.9087;;-1002.1141;;-1002.4593;;-1003.2209;;-1003.9415;;-1003.9415
-35.832046;;-36.048093;;-36.313973;;-37.722394;;-40.220087;;-42.659019;;-43.97165;;-44.164262;;-44.00921;;-43.996862;;-44.194339;;-44.622978;;-45.431324;;-46.763195;;-48.744271;;-51.837407;;-57.200984;;-66.404517;;-80.085204;;-98.495137;;-122.17484;;-151.87538;;-188.133;;-230.99518;;-280.27237;;-334.7161;;-391.12514;;-443.52095;;-486.17229;;-518.90016;;-543.35383;;-560.75479;;-573.92324;;-588.05545;;-607.163;;-630.50066;;-654.21857;;-675.91703;;-696.32367;;-717.10894;;-738.52841;;-759.32167;;-778.12464;;-794.72105;;-810.15042;;-825.7535;;-842.15159;;-859.08417;;-876.13151;;-893.4888;;-911.68663;;-930.42996;;-948.27491;;-963.71661;;-976.1451;;-985.69068;;-992.67328;;-997.4033;;-1000.2835;;-1001.8964;;-1002.9043;;-1003.8301;;-1004.8221;;-1005.5555;;-1005.5555
-34.903487;;-35.120311;;-35.476122;;-36.97008;;-39.562055;;-42.191524;;-43.71933;;-43.947502;;-43.695423;;-43.707983;;-44.155266;;-44.935886;;-46.052602;;-47.603725;;-49.684329;;-52.645806;;-58.406993;;-69.297516;;-84.8387;;-105.21157;;-130.99245;;-162.80121;;-200.80742;;-245.20442;;-295.52737;;-350.03929;;-404.88126;;-453.95852;;-493.25318;;-523.70451;;-547.17658;;-564.98822;;-579.51093;;-594.73642;;-613.57784;;-635.30167;;-656.97721;;-677.04247;;-696.49453;;-717.00842;;-738.76444;;-760.1256;;-779.12802;;-795.27982;;-809.87724;;-824.64398;;-840.37807;;-856.84067;;-873.53398;;-890.46467;;-908.06941;;-926.31234;;-944.18163;;-960.25188;;-973.4854;;-983.53617;;-990.65553;;-995.44249;;-998.63471;;-1000.9972;;-1003.1129;;-1005.1288;;-1006.7931;;-1007.7484;;-1007.7484
-34.07391;;-34.291323;;-34.599552;;-35.951857;;-38.433027;;-41.166971;;-43.024338;;-43.592647;;-43.536655;;-43.68518;;-44.306326;;-45.299962;;-46.621639;;-48.335209;;-50.504359;;-53.678151;;-61.642264;;-74.727576;;-92.495274;;-115.27541;;-143.68577;;-177.88716;;-218.14407;;-264.30347;;-315.29851;;-368.58734;;-419.7858;;-464.21096;;-500.3049;;-529.28184;;-552.5883;;-571.39942;;-587.66567;;-604.15447;;-622.57835;;-642.30483;;-661.61957;;-679.92391;;-698.29151;;-718.16734;;-739.677;;-761.0935;;-780.21053;;-796.38997;;-810.87219;;-825.16755;;-839.8685;;-854.94189;;-870.41488;;-886.65063;;-904.10143;;-922.63179;;-941.08951;;-957.73857;;-971.20217;;-981.1162;;-988.03335;;-992.84466;;-996.43298;;-999.61753;;-1002.8469;;-1005.8643;;-1008.0558;;-1009.1273;;-1009.1273
-33.362388;;-33.580074;;-33.8188;;-34.939873;;-37.175888;;-39.89969;;-42.11385;;-43.268835;;-43.701977;;-44.099476;;-44.818783;;-45.906836;;-47.372622;;-49.225268;;-51.478488;;-56.137721;;-66.875079;;-82.371115;;-102.69978;;-128.39334;;-159.82976;;-197.15079;;-240.40466;;-288.79109;;-340.09025;;-390.21801;;-435.10108;;-473.53588;;-506.1029;;-533.74546;;-557.11866;;-576.89053;;-594.55883;;-612.08301;;-630.39169;;-648.88459;;-666.6205;;-683.58929;;-700.825;;-719.56135;;-740.01663;;-760.75792;;-779.75931;;-796.29448;;-811.21235;;-825.47162;;-839.36395;;-853.13669;;-867.47331;;-883.18377;;-900.65788;;-919.43119;;-938.09174;;-954.78368;;-968.13175;;-977.91432;;-984.87435;;-990.00272;;-994.20255;;-998.24957;;-1002.3795;;-1006.0023;;-1008.3617;;-1009.3714;;-1009.3714
-32.64152;;-32.858853;;-33.169579;;-34.224156;;-36.291318;;-38.993882;;-41.536659;;-43.302996;;-44.285342;;-44.947133;;-45.730447;;-46.881861;;-48.48544;;-50.463122;;-52.91482;;-60.24392;;-73.187456;;-90.984446;;-113.92444;;-142.64345;;-177.28583;;-218.08024;;-264.70061;;-315.5453;;-366.74709;;-411.97641;;-449.21227;;-481.30471;;-510.19754;;-536.54886;;-560.22143;;-581.10058;;-599.96799;;-618.18304;;-636.4115;;-654.25687;;-671.19214;;-687.37451;;-703.61352;;-720.8939;;-739.63076;;-759.02648;;-777.56408;;-794.41367;;-809.86068;;-824.38678;;-838.18479;;-851.69014;;-865.83866;;-881.50503;;-898.85477;;-917.17612;;-935.14;;-951.2598;;-964.46382;;-974.55918;;-982.10806;;-987.89011;;-992.69055;;-997.24585;;-1001.7515;;-1005.5763;;-1007.9857;;-1008.9816;;-1008.9816
-31.511496;;-31.511496;;-32.35114;;-33.666507;;-35.800347;;-38.576256;;-41.423268;;-43.70573;;-45.164057;;-46.079539;;-46.961679;;-48.209673;;-49.937294;;-51.96118;;-54.865634;;-64.280563;;-78.934463;;-98.601727;;-123.74616;;-154.95654;;-192.33535;;-236.08146;;-285.53731;;-338.36088;;-389.07076;;-429.60911;;-460.78025;;-487.95273;;-513.92102;;-539.31815;;-563.51584;;-585.64102;;-605.56896;;-624.04612;;-641.80638;;-658.97075;;-675.39709;;-691.15587;;-706.59961;;-722.34554;;-739.04426;;-756.69321;;-774.39206;;-791.19495;;-806.91343;;-821.86995;;-836.40585;;-850.93817;;-866.05397;;-882.15997;;-899.1101;;-916.2867;;-932.91652;;-948.2037;;-961.44721;;-972.31585;;-980.87382;;-987.35293;;-992.24386;;-996.41873;;-1000.5329;;-1004.3343;;-1007.0541;;-1008.3508;;-1008.3508
-29.750753;;-29.750753;;-31.093075;;-32.953002;;-35.393893;;-38.359448;;-41.501187;;-44.224259;;-46.121869;;-47.333423;;-48.382993;;-49.730824;;-51.467822;;-53.316574;;-56.451962;;-66.840133;;-82.444087;;-103.17783;;-129.57264;;-162.14143;;-201.01906;;-246.3414;;-297.25689;;-351.01201;;-401.30696;;-439.89974;;-468.84761;;-493.99683;;-518.6183;;-543.60257;;-568.23529;;-591.22338;;-611.76892;;-630.12533;;-647.15411;;-663.5188;;-679.40759;;-694.69217;;-709.21983;;-723.31633;;-737.93508;;-753.77406;;-770.39655;;-786.80899;;-802.64916;;-818.33328;;-834.34757;;-850.82379;;-867.60376;;-884.37527;;-900.79598;;-916.6772;;-931.99297;;-946.58824;;-960.02857;;-971.78978;;-981.34434;;-988.21752;;-992.54695;;-995.55263;;-998.74193;;-1002.4641;;-1005.767;;-1007.6222;;-1007.6222
-27.745516;;-27.745516;;-29.63509;;-32.129044;;-35.001996;;-38.219716;;-41.630133;;-44.738433;;-47.071615;;-48.631563;;-49.872287;;-51.231472;;-52.753705;;-54.112876;;-56.834523;;-67.315625;;-83.034362;;-103.87535;;-130.35893;;-162.94367;;-201.77826;;-246.98009;;-297.68732;;-351.21168;;-401.64436;;-441.75694;;-472.52215;;-498.70174;;-523.6756;;-548.75129;;-573.48347;;-596.643;;-617.30147;;-635.49555;;-652.03745;;-667.73457;;-682.80414;;-696.87091;;-709.5755;;-721.49048;;-734.14154;;-748.5797;;-764.38083;;-780.55555;;-796.9059;;-813.97686;;-832.09027;;-850.83778;;-869.33201;;-886.77137;;-902.8741;;-917.93108;;-932.43784;;-946.59553;;-960.13037;;-972.41126;;-982.51522;;-989.48973;;-993.24136;;-995.2298;;-997.56065;;-1001.0547;;-1004.6889;;-1006.9318;;-1006.9318
-26.198607;;-26.198607;;-28.552517;;-31.565158;;-34.843508;;-38.289158;;-41.894118;;-45.283511;;-47.980976;;-49.867971;;-51.267968;;-52.534963;;-53.661593;;-54.346714;;-56.235586;;-66.263189;;-81.509821;;-101.76147;;-127.48345;;-159.09531;;-196.73538;;-240.53959;;-289.76212;;-342.10293;;-392.78028;;-436.03553;;-470.95349;;-500.2604;;-526.91377;;-552.57841;;-577.30443;;-600.33839;;-621.07019;;-639.4935;;-656.09471;;-671.31572;;-684.98294;;-696.39444;;-705.52411;;-714.21472;;-725.13905;;-739.23648;;-755.28456;;-772.07248;;-789.77038;;-808.9953;;-829.55689;;-850.39529;;-870.2589;;-888.35265;;-904.61292;;-919.5414;;-933.7601;;-947.57617;;-960.8172;;-972.91472;;-982.99878;;-990.14454;;-994.12185;;-996.09261;;-998.01325;;-1000.9438;;-1004.2245;;-1006.3808;;-1006.3808
-25.46651;;-25.46651;;-27.899384;;-31.453571;;-35.016944;;-38.604786;;-42.268575;;-45.752897;;-48.639768;;-50.76639;;-52.326229;;-53.545602;;-54.363288;;-54.570895;;-55.62095;;-64.805545;;-79.249968;;-98.558947;;-123.10058;;-153.26667;;-189.14231;;-230.88411;;-277.89502;;-328.33954;;-378.62787;;-424.4063;;-463.54247;;-496.71371;;-525.93463;;-552.86301;;-578.06414;;-601.45632;;-622.87644;;-642.24026;;-659.51917;;-674.50265;;-686.31646;;-693.81747;;-697.7851;;-702.32884;;-711.90037;;-726.95025;;-744.59645;;-762.9203;;-782.47339;;-804.00611;;-826.77448;;-849.2013;;-870.08533;;-888.95625;;-905.85073;;-921.11551;;-935.24028;;-948.52114;;-960.87267;;-972.04744;;-981.76024;;-989.48351;;-994.66868;;-997.57533;;-999.49498;;-1001.6874;;-1004.21;;-1006.0029;;-1006.0029
-25.14782;;-25.14782;;-27.757372;;-31.524882;;-35.292845;;-38.940925;;-42.500691;;-45.857608;;-48.738026;;-51.041504;;-52.868598;;-54.296745;;-55.214681;;-55.534216;;-56.25268;;-63.883134;;-77.20386;;-95.329598;;-118.44997;;-146.96995;;-180.84325;;-220.21019;;-264.59851;;-312.56884;;-361.47501;;-408.09858;;-450.06089;;-486.69241;;-518.83366;;-547.73637;;-574.31142;;-599.09895;;-622.27425;;-643.56286;;-662.38396;;-677.85284;;-688.36131;;-692.38061;;-691.62391;;-692.51305;;-701.17386;;-717.46621;;-736.77446;;-756.33587;;-777.01886;;-799.8742;;-823.92964;;-847.39025;;-869.23633;;-889.20122;;-907.12153;;-922.93371;;-936.86538;;-949.13515;;-959.85141;;-969.48633;;-978.73514;;-987.43388;;-994.33806;;-998.55676;;-1000.7555;;-1002.4648;;-1004.412;;-1005.9147;;-1005.9147
-24.581607;;-24.581607;;-27.322293;;-31.265851;;-35.243174;;-38.964039;;-42.323628;;-45.413277;;-48.198638;;-50.701822;;-52.96738;;-54.938013;;-56.472957;;-57.577597;;-58.98893;;-64.449558;;-76.102883;;-92.618524;;-113.94491;;-140.44948;;-172.12048;;-208.88276;;-250.3745;;-295.48172;;-342.25489;;-388.30954;;-431.50834;;-470.59977;;-505.46259;;-536.74004;;-565.43399;;-592.51716;;-618.38534;;-642.58801;;-664.08341;;-681.38392;;-692.39386;;-695.60183;;-693.41423;;-693.15955;;-701.31187;;-717.34756;;-736.15836;;-754.91442;;-774.81496;;-797.2693;;-821.46463;;-845.62079;;-868.67223;;-890.14182;;-909.41391;;-925.91674;;-939.50466;;-950.28648;;-958.80488;;-966.59613;;-975.36474;;-985.00879;;-993.42427;;-998.80843;;-1001.4928;;-1003.182;;-1004.9233;;-1006.2697;;-1006.2697
-23.667559;;-23.667559;;-26.458143;;-30.493131;;-34.645551;;-38.521971;;-41.72805;;-44.571306;;-47.314496;;-50.087836;;-52.892304;;-55.597276;;-58.067651;;-60.359149;;-63.063528;;-67.916179;;-77.254951;;-91.409387;;-110.28593;;-134.0843;;-163.14234;;-197.15093;;-235.7253;;-278.047;;-322.67963;;-367.7556;;-411.38627;;-452.13909;;-489.2968;;-522.92157;;-553.8711;;-583.33062;;-611.93507;;-639.2974;;-664.13452;;-684.47278;;-698.03108;;-703.75996;;-704.32306;;-706.05082;;-714.00131;;-727.61003;;-743.0411;;-758.61481;;-775.94113;;-796.65859;;-820.26351;;-845.01457;;-869.45566;;-892.54093;;-913.14367;;-930.25538;;-943.39044;;-952.66908;;-959.24458;;-965.57723;;-973.87554;;-983.8049;;-992.76213;;-998.69766;;-1001.8888;;-1003.9164;;-1005.7195;;-1006.9801;;-1006.9801
-22.744086;;-22.744086;;-25.508057;;-29.535872;;-33.773714;;-37.834094;;-41.032645;;-43.753576;;-46.549832;;-49.603056;;-52.88102;;-56.24926;;-59.625324;;-63.102497;;-67.130278;;-72.695066;;-80.926522;;-92.600983;;-108.49172;;-129.17487;;-155.01648;;-186.27081;;-222.43562;;-262.79145;;-306.22172;;-351.08812;;-395.50681;;-437.83314;;-476.96051;;-512.54328;;-545.2121;;-576.19664;;-606.44546;;-635.96464;;-663.55375;;-686.97286;;-703.95683;;-713.98633;;-719.48082;;-724.709;;-732.6053;;-742.86622;;-753.8191;;-765.48732;;-779.86155;;-798.61435;;-821.45144;;-846.5805;;-872.01654;;-896.09532;;-917.31609;;-934.48206;;-947.06308;;-955.45084;;-961.30058;;-967.27058;;-975.20923;;-984.42016;;-992.54198;;-998.11977;;-1001.6297;;-1004.2357;;-1006.3878;;-1007.7165;;-1007.7165
-22.124112;;-22.124112;;-24.854071;;-28.857263;;-33.143532;;-37.35868;;-40.668813;;-43.361089;;-46.226105;;-49.451791;;-52.984658;;-56.742237;;-60.736642;;-65.111425;;-70.204004;;-76.577761;;-84.730608;;-94.96212;;-108.10519;;-125.78059;;-148.9466;;-177.91009;;-212.7581;;-252.64298;;-296.50568;;-342.72615;;-389.11093;;-433.47285;;-474.27457;;-511.04704;;-544.41673;;-575.65196;;-605.99828;;-635.96977;;-664.68814;;-689.9771;;-709.76119;;-723.75078;;-733.67634;;-741.87258;;-749.73389;;-757.46406;;-765.20397;;-774.1883;;-786.53355;;-803.79608;;-825.74317;;-850.52467;;-875.81668;;-899.60635;;-920.28832;;-936.77445;;-948.81088;;-957.19051;;-963.69343;;-970.3592;;-978.05866;;-985.84102;;-992.21227;;-996.83859;;-1000.5168;;-1003.8591;;-1006.636;;-1008.2386;;-1008.2386
-21.900968;;-21.900968;;-24.632634;;-28.652869;;-33.006521;;-37.354583;;-40.791192;;-43.435644;;-46.281955;;-49.520646;;-53.073796;;-56.928002;;-61.209496;;-66.114611;;-71.894668;;-78.836566;;-87.070561;;-96.546888;;-107.80904;;-123.25284;;-144.90598;;-173.09076;;-207.8807;;-248.90475;;-294.76913;;-343.82464;;-393.38337;;-440.2836;;-482.35935;;-519.32482;;-552.22501;;-582.5698;;-611.83184;;-640.85389;;-669.09995;;-694.77591;;-716.16989;;-732.86692;;-745.62296;;-755.49543;;-763.39907;;-770.18358;;-776.89137;;-785.04134;;-796.50898;;-812.62859;;-833.18402;;-856.43671;;-880.12159;;-902.28885;;-921.50873;;-936.96458;;-948.70483;;-957.70071;;-965.42356;;-972.98799;;-980.38092;;-986.70968;;-991.48019;;-995.33585;;-999.23278;;-1003.2618;;-1006.6368;;-1008.5315;;-1008.5315
-21.8746;;-21.8746;;-24.626288;;-28.46325;;-33.108511;;-37.563352;;-41.092179;;-43.624016;;-46.358185;;-49.513513;;-52.971528;;-56.757285;;-61.097167;;-66.234248;;-72.345308;;-79.528655;;-87.699271;;-96.597064;;-106.67099;;-121.05072;;-142.56741;;-171.27192;;-207.17039;;-250.08796;;-298.5678;;-350.96476;;-404.20217;;-454.05773;;-497.38417;;-534.00191;;-565.61677;;-594.27844;;-621.76594;;-649.1018;;-676.03889;;-701.3154;;-723.59583;;-742.0663;;-756.47201;;-767.22883;;-775.51325;;-782.77895;;-790.20526;;-798.88005;;-810.13394;;-825.0273;;-843.45667;;-864.06123;;-884.99896;;-904.6963;;-922.07824;;-936.59984;;-948.35661;;-958.0444;;-966.55346;;-974.35914;;-981.20117;;-986.56297;;-990.61855;;-994.36984;;-998.60044;;-1003.0145;;-1006.61;;-1008.5764;;-1008.5764
-21.651435;;-21.651435;;-24.388041;;-28.213698;;-32.88173;;-37.408877;;-41.084674;;-43.559225;;-46.18004;;-49.249874;;-52.61881;;-56.307706;;-60.595109;;-65.753499;;-71.90726;;-79.037622;;-86.933129;;-95.260089;;-104.6023;;-119.02442;;-141.26698;;-171.00321;;-208.28125;;-252.98645;;-303.81767;;-359.23996;;-416.01876;;-469.11666;;-514.16486;;-550.65518;;-580.81666;;-607.39783;;-632.68034;;-657.98317;;-683.44928;;-708.32528;;-731.3893;;-751.22069;;-766.77585;;-778.32258;;-787.54834;;-796.29327;;-805.43845;;-815.30393;;-826.54127;;-839.99121;;-855.83134;;-873.26401;;-891.0205;;-908.00874;;-923.54886;;-937.27446;;-949.04603;;-958.9688;;-967.37226;;-974.59952;;-980.72685;;-985.69918;;-989.87089;;-994.02102;;-998.54734;;-1002.9583;;-1006.3556;;-1008.1516;;-1008.1516
-21.029028;;-21.029028;;-23.688947;;-27.422412;;-32.041111;;-36.609272;;-40.561451;;-43.197189;;-45.791677;;-48.814107;;-52.141822;;-55.771793;;-59.963056;;-64.982894;;-70.939686;;-77.774669;;-85.226598;;-92.989369;;-102.00957;;-117.18997;;-140.30025;;-170.92947;;-209.25182;;-255.17701;;-307.65443;;-365.31286;;-424.9782;;-481.23321;;-528.58411;;-565.71978;;-594.99642;;-619.72986;;-642.77848;;-665.98723;;-690.09396;;-714.75243;;-738.54591;;-759.43458;;-775.98238;;-788.59427;;-799.2976;;-809.97175;;-821.04149;;-832.10276;;-843.26144;;-855.29072;;-868.71328;;-883.23459;;-898.08642;;-912.63431;;-926.52724;;-939.4143;;-950.78167;;-960.21343;;-967.79057;;-974.07997;;-979.62318;;-984.62253;;-989.24178;;-993.79871;;-998.35999;;-1002.4641;;-1005.4793;;-1007.0446;;-1007.0446
-20.219019;;-20.219019;;-22.773865;;-26.377447;;-30.912022;;-35.498436;;-39.750011;;-42.747294;;-45.413932;;-48.432011;;-51.770979;;-55.401034;;-59.483112;;-64.222269;;-69.740654;;-76.029506;;-82.892782;;-90.147621;;-99.307118;;-115.47099;;-139.24665;;-170.39862;;-209.24175;;-255.68555;;-308.94268;;-367.8084;;-429.30279;;-488.0641;;-537.98504;;-576.7892;;-606.44161;;-630.38591;;-651.88508;;-673.39608;;-696.3193;;-720.60664;;-744.62966;;-766.08595;;-783.59404;;-797.66507;;-810.13911;;-822.51747;;-834.86842;;-846.49804;;-857.36758;;-868.32132;;-880.05711;;-892.47914;;-905.13565;;-917.79954;;-930.34421;;-942.27736;;-952.75649;;-961.19257;;-967.78509;;-973.37253;;-978.69456;;-983.90143;;-988.83342;;-993.44292;;-997.69665;;-1001.3487;;-1004.0393;;-1005.4807;;-1005.4807
-19.547274;;-19.547274;;-22.014313;;-25.508195;;-29.966565;;-34.549449;;-38.990889;;-42.362171;;-45.170853;;-48.244646;;-51.657799;;-55.344213;;-59.312963;;-63.657973;;-68.527534;;-74.046251;;-80.189519;;-87.008443;;-96.718747;;-113.75342;;-137.928;;-169.22073;;-208.05191;;-254.27024;;-307.32967;;-366.16492;;-428.08212;;-488.20055;;-540.63642;;-582.32055;;-614.17391;;-639.09124;;-660.40746;;-681.08799;;-703.05975;;-726.5159;;-749.95506;;-771.42131;;-789.91307;;-805.73928;;-819.90849;;-833.22563;;-845.71975;;-857.04038;;-867.42888;;-877.78192;;-888.65175;;-899.81715;;-910.98135;;-922.25684;;-933.66653;;-944.58383;;-954.05697;;-961.63794;;-967.74964;;-973.26059;;-978.72965;;-984.06666;;-988.92024;;-993.18123;;-996.93907;;-1000.1752;;-1002.6741;;-1004.0913;;-1004.0913
-19.02525;;-19.02525;;-21.417089;;-24.814826;;-29.186642;;-33.726674;;-38.246652;;-41.917452;;-44.936777;;-48.140017;;-51.674335;;-55.434483;;-59.283197;;-63.1968;;-67.354218;;-72.043776;;-77.451247;;-83.904858;;-94.348416;;-112.00255;;-136.34706;;-167.48906;;-205.88262;;-251.21484;;-303.15229;;-360.71782;;-421.58199;;-481.74415;;-536.35892;;-581.99419;;-617.92459;;-645.7503;;-668.46541;;-689.31481;;-710.58705;;-732.82127;;-755.10731;;-776.28844;;-795.76611;;-813.28345;;-828.65764;;-841.99065;;-853.6662;;-864.14409;;-874.08032;;-884.20079;;-894.65229;;-904.99192;;-915.04296;;-925.16576;;-935.49091;;-945.4188;;-954.16448;;-961.54851;;-968.05026;;-974.20384;;-980.06954;;-985.29143;;-989.63349;;-993.30135;;-996.6205;;-999.61433;;-1002.0027;;-1003.3805;;-1003.3805
-18.362111;;-18.362111;;-20.648561;;-23.905874;;-27.908994;;-32.561995;;-37.10206;;-41.07995;;-44.386877;;-47.734494;;-51.346564;;-55.124579;;-58.854689;;-62.431833;;-66.046769;;-70.108903;;-74.950167;;-81.130405;;-92.214592;;-110.24866;;-134.64224;;-165.56311;;-203.37964;;-247.61865;;-298.04377;;-353.69224;;-412.61908;;-471.92014;;-528.11587;;-577.7998;;-618.67773;;-650.6485;;-675.88511;;-697.58493;;-718.34839;;-739.32064;;-760.47561;;-781.43339;;-801.71876;;-820.37469;;-836.21399;;-848.9361;;-859.48391;;-869.1534;;-878.83321;;-888.83703;;-898.86162;;-908.38957;;-917.43902;;-926.52589;;-935.82305;;-944.85251;;-953.1414;;-960.82216;;-968.33088;;-975.64051;;-982.08723;;-987.05068;;-990.68475;;-993.78377;;-996.90805;;-999.89795;;-1002.2427;;-1003.5376;;-1003.5376
-17.433947;;-17.433947;;-19.569376;;-22.622981;;-26.403209;;-30.880476;;-35.385219;;-39.641974;;-43.22485;;-46.583255;;-50.081802;;-53.746243;;-57.390142;;-60.855927;;-64.289161;;-68.116012;;-72.693478;;-78.702519;;-90.230264;;-108.50344;;-132.96868;;-163.83932;;-201.32913;;-244.98127;;-294.49978;;-348.84059;;-406.23875;;-464.6049;;-521.55388;;-574.03178;;-618.94664;;-654.80052;;-682.66526;;-705.35214;;-725.75777;;-745.80172;;-766.26722;;-787.12488;;-807.70675;;-826.62155;;-842.31492;;-854.42224;;-864.22314;;-873.42163;;-882.8943;;-892.57512;;-901.93354;;-910.59488;;-918.79753;;-927.08407;;-935.54283;;-943.72004;;-951.38693;;-959.07363;;-967.4036;;-975.91742;;-983.14604;;-988.12243;;-991.41488;;-994.38421;;-997.70073;;-1000.9285;;-1003.3336;;-1004.5717;;-1004.5717
-16.435264;;-16.435264;;-18.406317;;-21.236123;;-24.764992;;-29.022131;;-33.404452;;-37.745253;;-41.413105;;-44.502144;;-47.60117;;-50.989601;;-54.593674;;-58.210283;;-61.861094;;-65.856164;;-70.461657;;-76.441957;;-88.436412;;-107.0094;;-131.72155;;-162.86195;;-200.61067;;-244.61584;;-294.56663;;-349.30023;;-406.81102;;-464.93594;;-521.76335;;-574.91618;;-621.52026;;-659.52951;;-689.10769;;-712.52589;;-732.83338;;-752.52032;;-772.75183;;-793.3816;;-813.49808;;-831.82458;;-847.1285;;-859.11434;;-868.8601;;-877.87265;;-886.90172;;-895.83664;;-904.31614;;-912.26292;;-920.01532;;-927.92979;;-935.83259;;-943.09551;;-949.5542;;-956.23307;;-964.39549;;-973.61566;;-981.77549;;-987.42847;;-991.26114;;-994.83895;;-998.72232;;-1002.2744;;-1004.7422;;-1005.9337;;-1005.9337
-15.610481;;-15.610481;;-17.439489;;-20.071936;;-23.368767;;-27.390758;;-31.559701;;-35.737183;;-39.174097;;-41.698002;;-44.196079;;-47.219377;;-50.802309;;-54.720115;;-58.843285;;-63.266379;;-68.081988;;-74.314918;;-87.120191;;-106.26568;;-131.55421;;-163.41225;;-202.06944;;-247.34302;;-298.97834;;-355.71561;;-415.0255;;-473.74035;;-529.69255;;-581.4681;;-627.24077;;-665.26972;;-695.35013;;-719.30846;;-740.03341;;-760.00716;;-780.2386;;-800.29441;;-819.28761;;-836.52945;;-851.43695;;-863.71872;;-873.84477;;-882.75199;;-891.07356;;-898.98416;;-906.59046;;-914.15781;;-921.96882;;-929.9967;;-937.65274;;-943.99722;;-948.78961;;-953.53859;;-960.42153;;-969.5313;;-978.46887;;-985.26674;;-990.31351;;-994.91424;;-999.35059;;-1002.9664;;-1005.2625;;-1006.3066;;-1006.3066
-15.031364;;-15.031364;;-16.747196;;-19.217359;;-22.311666;;-26.097777;;-29.995968;;-33.846371;;-36.771069;;-38.582103;;-40.484407;;-43.188137;;-46.764878;;-50.979075;;-55.600809;;-60.507977;;-65.608669;;-72.6203;;-86.555904;;-106.55723;;-132.72395;;-165.65527;;-205.63274;;-252.66911;;-306.56099;;-365.94536;;-427.71396;;-487.25951;;-541.68323;;-590.78509;;-634.18376;;-670.91429;;-700.89422;;-725.6405;;-747.4813;;-768.26106;;-788.51908;;-807.73997;;-825.42636;;-841.57446;;-856.10676;;-868.63968;;-879.06199;;-887.79449;;-895.42545;;-902.48574;;-909.51911;;-917.01749;;-925.1371;;-933.47422;;-941.05921;;-946.69745;;-950.0685;;-952.94776;;-958.17297;;-966.46213;;-975.55837;;-983.178;;-989.20269;;-994.43366;;-998.89408;;-1002.0976;;-1003.9428;;-1004.7453;;-1004.7453
-14.567883;;-14.567883;;-16.181177;;-18.501824;;-21.404022;;-24.954555;;-28.56551;;-32.044919;;-34.397094;;-35.621251;;-37.135712;;-39.665466;;-43.247385;;-47.634714;;-52.576394;;-57.833662;;-63.230161;;-71.51297;;-86.468388;;-107.30008;;-134.32953;;-168.29946;;-209.52053;;-258.17846;;-314.08948;;-375.77753;;-439.61163;;-499.53995;;-551.94109;;-598.11002;;-639.05511;;-674.56606;;-704.78834;;-730.88637;;-754.33342;;-776.08086;;-796.31026;;-814.79571;;-831.58149;;-847.05591;;-861.2772;;-873.77479;;-884.1851;;-892.70378;;-899.944;;-906.65984;;-913.55133;;-921.06485;;-929.19779;;-937.40801;;-944.67314;;-949.82522;;-952.56385;;-954.59816;;-958.75354;;-966.02138;;-974.54603;;-982.11211;;-988.23411;;-993.29689;;-997.2338;;-999.81136;;-1001.234;;-1001.8822;;-1001.8822
-14.049473;;-14.049473;;-15.547605;;-17.703184;;-20.399087;;-23.496926;;-27.059022;;-30.256193;;-32.315213;;-33.302548;;-34.692577;;-37.170586;;-40.710948;;-45.077366;;-50.065919;;-55.439628;;-61.074332;;-70.430229;;-85.945561;;-107.19585;;-134.64781;;-169.1312;;-210.98162;;-260.49736;;-317.50973;;-380.47652;;-445.42346;;-505.16895;;-555.62366;;-599.67773;;-639.39448;;-674.93757;;-706.37024;;-734.28965;;-759.31317;;-781.78933;;-801.97119;;-820.1568;;-836.75264;;-852.113;;-866.17945;;-878.52602;;-888.85623;;-897.33421;;-904.5636;;-911.34852;;-918.30524;;-925.59936;;-933.0279;;-940.18378;;-946.40177;;-950.84065;;-953.35694;;-955.48702;;-959.59659;;-966.42513;;-974.33595;;-981.37261;;-986.9971;;-991.48549;;-994.8754;;-997.1304;;-998.50987;;-999.2366;;-999.2366
-13.466888;;-13.466888;;-14.83212;;-16.804505;;-19.283351;;-22.161431;;-25.517247;;-28.596577;;-30.811377;;-31.990487;;-33.477728;;-35.899891;;-39.245543;;-43.367056;;-48.154162;;-53.425529;;-59.113839;;-68.763935;;-84.223063;;-105.27156;;-132.44143;;-166.59652;;-208.11638;;-257.34788;;-314.17522;;-377.11714;;-442.18548;;-501.72354;;-551.21778;;-594.73711;;-635.01012;;-672.18792;;-705.84758;;-735.8184;;-762.09731;;-784.96964;;-805.15598;;-823.45637;;-840.33965;;-855.88311;;-869.91143;;-882.21236;;-892.70264;;-901.49665;;-909.01783;;-915.9527;;-922.7876;;-929.43581;;-935.53486;;-940.87832;;-945.1985;;-947.99229;;-949.49769;;-951.62932;;-956.60346;;-964.43849;;-972.89809;;-979.93233;;-985.1966;;-989.25806;;-992.45825;;-994.87485;;-996.59839;;-997.58034;;-997.58034
-12.979181;;-12.979181;;-14.199389;;-15.993657;;-18.279062;;-20.99244;;-24.221796;;-27.312385;;-29.931343;;-31.586435;;-33.228753;;-35.502615;;-38.526203;;-42.295503;;-46.784198;;-51.847292;;-57.350801;;-66.438753;;-81.23477;;-101.47917;;-127.68436;;-160.70362;;-200.99546;;-248.89932;;-304.4069;;-366.24304;;-430.78332;;-490.73599;;-540.90072;;-585.49915;;-627.71928;;-667.6034;;-704.09621;;-736.23117;;-763.62388;;-786.81431;;-807.08095;;-825.58945;;-842.7558;;-858.41176;;-872.36108;;-884.66823;;-895.47687;;-904.80252;;-912.74891;;-919.74494;;-926.18997;;-931.97189;;-936.7054;;-940.18032;;-942.05211;;-941.83809;;-940.58207;;-941.73874;;-948.23619;;-958.95075;;-969.82776;;-977.98112;;-983.37307;;-987.25335;;-990.47628;;-993.23826;;-995.3985;;-996.64522;;-996.64522
-12.725821;;-12.725821;;-13.800432;;-15.459905;;-17.615035;;-20.233777;;-23.40284;;-26.531593;;-29.427435;;-31.456809;;-33.159265;;-35.263045;;-38.031729;;-41.560392;;-45.840177;;-50.714116;;-55.939438;;-63.739857;;-77.343985;;-96.291858;;-121.00258;;-152.27796;;-190.70061;;-236.5529;;-289.98152;;-350.04086;;-413.76861;;-474.94687;;-527.59311;;-574.64484;;-619.55268;;-662.45259;;-701.87164;;-736.22699;;-764.87019;;-788.56648;;-809.00798;;-827.65529;;-844.95735;;-860.59965;;-874.34421;;-886.45272;;-897.30036;;-906.91004;;-915.15204;;-922.19003;;-928.34055;;-933.58221;;-937.56056;;-939.771;;-939.23933;;-935.21852;;-929.94597;;-929.28824;;-937.51862;;-952.14114;;-966.53966;;-976.49302;;-982.29003;;-986.06236;;-989.27396;;-992.27877;;-994.76321;;-996.20718;;-996.20718
-12.639666;;-12.639666;;-13.619265;;-15.210224;;-17.301834;;-19.865944;;-22.991463;;-26.10066;;-29.025823;;-31.079068;;-32.702903;;-34.72952;;-37.475406;;-40.996035;;-45.214732;;-49.95558;;-54.948183;;-61.132595;;-72.966278;;-90.183781;;-112.99066;;-142.06863;;-178.15984;;-221.47097;;-272.30664;;-330.12979;;-392.80699;;-455.58452;;-512.27247;;-563.08503;;-611.18313;;-657.0825;;-699.29348;;-735.89193;;-766.00359;;-790.4892;;-811.33859;;-830.30073;;-847.88598;;-863.58681;;-877.00374;;-888.51622;;-898.78864;;-908.04858;;-916.1893;;-923.28621;;-929.56654;;-934.96828;;-939.03655;;-940.88239;;-938.87936;;-932.03384;;-923.56942;;-921.26178;;-930.49869;;-947.82981;;-964.74684;;-975.98474;;-982.05094;;-985.74876;;-988.9903;;-992.23196;;-995.03026;;-996.68252;;-996.68252
-12.593716;;-12.593716;;-13.48298;;-15.011417;;-17.041225;;-19.537111;;-22.374348;;-25.615565;;-28.440998;;-30.346314;;-31.88403;;-33.9867;;-36.915866;;-40.58578;;-44.817546;;-49.420004;;-54.209927;;-59.292321;;-68.537589;;-83.64762;;-104.26135;;-130.84239;;-164.19432;;-204.63877;;-252.50405;;-307.68691;;-368.89146;;-432.84536;;-494.14685;;-549.8938;;-601.7597;;-650.75861;;-695.79417;;-734.8328;;-766.75558;;-792.45448;;-814.21623;;-834.01339;;-852.25359;;-868.11491;;-881.03238;;-891.55823;;-900.70542;;-909.00386;;-916.57625;;-923.65188;;-930.41785;;-936.56276;;-941.35263;;-943.71659;;-941.94058;;-935.03201;;-926.24648;;-923.38981;;-931.97426;;-948.75194;;-965.30865;;-976.31969;;-982.25789;;-985.99332;;-989.49657;;-993.17703;;-996.44152;;-998.39588;;-998.39588
-12.543056;;-12.543056;;-13.178061;;-14.545319;;-16.41869;;-18.749526;;-21.436226;;-24.545406;;-27.311601;;-29.292788;;-30.924912;;-33.18059;;-36.272222;;-40.028753;;-44.213224;;-48.68412;;-53.36684;;-58.187598;;-64.759411;;-77.463038;;-95.694733;;-119.67352;;-150.08839;;-187.57198;;-232.33079;;-284.61976;;-343.84054;;-407.93015;;-472.76657;;-533.65764;;-589.66183;;-641.95483;;-690.15104;;-732.27527;;-766.83666;;-794.57388;;-817.96;;-839.04679;;-858.02497;;-873.85364;;-886.02562;;-895.37388;;-903.20516;;-910.29486;;-917.05926;;-924.02337;;-931.40026;;-938.54596;;-944.3851;;-947.92395;;-947.9496;;-943.69593;;-937.48628;;-935.27966;;-941.68079;;-954.70915;;-968.01293;;-977.26795;;-982.69592;;-986.58481;;-990.53543;;-994.76039;;-998.51695;;-1000.768;;-1000.768
-12.522004;;-12.522004;;-12.74819;;-13.801041;;-15.392681;;-17.440775;;-19.88954;;-22.811;;-25.560837;;-27.914378;;-29.827051;;-32.056383;;-34.906485;;-38.265319;;-42.140186;;-46.668354;;-51.682124;;-56.922918;;-62.574459;;-72.50971;;-88.36276;;-109.87186;;-137.51717;;-172.1031;;-213.91922;;-263.28723;;-320.10139;;-383.13318;;-449.38311;;-514.05613;;-573.88461;;-629.4477;;-681.16992;;-727.3384;;-765.88669;;-796.8434;;-822.39935;;-844.61237;;-863.77428;;-879.10456;;-890.44241;;-898.82379;;-905.61151;;-911.71489;;-917.84712;;-924.80456;;-932.81271;;-940.97254;;-947.96335;;-952.94007;;-955.30527;;-954.60703;;-952.00015;;-951.01522;;-954.88461;;-963.05776;;-971.93016;;-978.73125;;-983.46544;;-987.54287;;-991.91443;;-996.49352;;-1000.4559;;-1002.789;;-1002.789
-12.515964;;-12.515964;;-12.564424;;-13.066718;;-14.29758;;-16.022393;;-18.179197;;-20.676815;;-23.597032;;-26.27266;;-28.532584;;-30.402316;;-32.385634;;-34.735381;;-38.042783;;-42.592724;;-48.226497;;-54.516704;;-61.012724;;-69.196763;;-82.96383;;-102.31222;;-127.59468;;-159.54123;;-198.77002;;-245.44581;;-299.74471;;-360.95776;;-426.88543;;-493.37805;;-556.0958;;-614.48133;;-669.57145;;-720.20154;;-763.65591;;-798.55389;;-826.15441;;-848.64955;;-867.15104;;-881.74444;;-892.67062;;-900.8041;;-907.23558;;-912.95974;;-918.99843;;-926.26001;;-934.8522;;-943.77241;;-951.68982;;-957.86597;;-962.02723;;-963.94618;;-964.0439;;-964.10197;;-966.17929;;-970.59276;;-975.82824;;-980.49771;;-984.58834;;-988.80526;;-993.46034;;-998.13405;;-1001.9736;;-1004.1499;;-1004.1499
-12.513218;;-12.513218;;-12.528308;;-12.646087;;-13.407541;;-14.807044;;-16.679996;;-18.976673;;-21.581773;;-24.542146;;-27.023797;;-28.485996;;-29.305434;;-30.625101;;-33.429914;;-37.818628;;-43.620295;;-50.633796;;-58.396683;;-67.035081;;-79.498153;;-97.275652;;-120.77906;;-150.69213;;-187.86145;;-232.463;;-284.72016;;-344.25434;;-409.40598;;-476.66074;;-541.36816;;-601.73007;;-659.05234;;-712.97851;;-760.41429;;-798.44085;;-827.15306;;-849.07057;;-866.59731;;-880.87671;;-892.29887;;-901.18337;;-908.14116;;-914.24902;;-920.80237;;-928.63499;;-937.60442;;-946.74622;;-954.98964;;-961.72963;;-966.69979;;-969.65938;;-970.7352;;-971.0114;;-972.09963;;-974.76073;;-978.39234;;-982.12343;;-985.89049;;-990.14498;;-994.94338;;-999.64308;;-1003.3253;;-1005.3204;;-1005.3204
-12.512226;;-12.512226;;-12.515913;;-12.541915;;-12.802265;;-13.86823;;-15.468959;;-17.515242;;-19.922742;;-22.517249;;-25.179944;;-26.513626;;-26.279903;;-26.660148;;-29.134348;;-33.382095;;-39.139714;;-46.325813;;-54.785275;;-64.635144;;-77.367283;;-94.618453;;-117.24547;;-146.08594;;-182.08439;;-225.67845;;-277.03375;;-335.95581;;-401.08465;;-469.21338;;-535.37247;;-596.53606;;-654.02537;;-708.40679;;-756.80659;;-795.59584;;-824.20864;;-845.44536;;-862.5899;;-877.38848;;-890.13509;;-900.57733;;-908.85677;;-916.00862;;-923.42224;;-931.79293;;-940.80116;;-949.64197;;-957.61473;;-964.27256;;-969.1973;;-971.88297;;-972.22891;;-971.36395;;-971.49199;;-974.10466;;-978.56423;;-983.17856;;-987.28264;;-991.47637;;-996.19976;;-1000.8915;;-1004.5293;;-1006.4525;;-1006.4525
-12.511999;;-12.511999;;-12.512552;;-12.517371;;-12.560045;;-13.09646;;-14.34035;;-16.046797;;-18.129092;;-20.41523;;-22.617708;;-24.134221;;-23.498979;;-23.182926;;-25.619518;;-29.774484;;-35.40688;;-42.550506;;-51.330171;;-62.110189;;-75.860011;;-93.642889;;-116.47855;;-145.39656;;-181.48211;;-225.33126;;-277.20094;;-336.95367;;-403.28404;;-472.87517;;-540.03796;;-600.52875;;-655.74159;;-707.21231;;-753.00631;;-790.05528;;-817.88886;;-839.13448;;-856.90639;;-872.87821;;-887.27666;;-899.63218;;-909.73505;;-918.30896;;-926.57458;;-935.20004;;-943.99166;;-952.40153;;-959.95462;;-966.22713;;-970.61396;;-972.25856;;-970.71112;;-967.41543;;-965.98027;;-969.29688;;-976.33235;;-983.466;;-988.66201;;-992.75417;;-997.06183;;-1001.4663;;-1004.9417;;-1006.7765;;-1006.7765
-12.511974;;-12.511974;;-12.512015;;-12.512619;;-12.521812;;-12.62665;;-13.350818;;-14.64269;;-16.328179;;-18.248749;;-20.124653;;-21.280185;;-20.832522;;-20.405471;;-22.931325;;-26.770797;;-32.243111;;-39.303224;;-48.515146;;-59.958386;;-74.581145;;-93.252419;;-116.9652;;-146.83233;;-183.9208;;-228.8938;;-282.20771;;-343.74163;;-412.10332;;-483.59846;;-551.39324;;-609.87707;;-660.84787;;-707.00196;;-747.9718;;-782.13302;;-809.37926;;-831.57515;;-850.84256;;-868.38523;;-884.48435;;-898.76683;;-910.78717;;-920.7938;;-929.71408;;-938.36195;;-946.93594;;-955.14658;;-962.48714;;-968.37351;;-972.10236;;-972.65103;;-969.23154;;-963.42275;;-960.14456;;-963.83749;;-973.29635;;-983.0415;;-989.49987;;-993.49514;;-997.12804;;-1000.8403;;-1003.8068;;-1005.3781;;-1005.3781
-12.511973;;-12.511973;;-12.511974;;-12.512034;;-12.514347;;-12.538563;;-12.716503;;-13.485235;;-14.723121;;-16.243353;;-17.779453;;-18.750371;;-18.173542;;-18.093945;;-20.630319;;-24.556944;;-29.888632;;-36.896321;;-46.220696;;-57.963958;;-73.045839;;-92.316987;;-116.78283;;-147.54431;;-185.53145;;-231.59016;;-286.31292;;-349.62896;;-420.09969;;-493.68669;;-562.23969;;-618.12696;;-663.88641;;-703.93561;;-739.86226;;-771.52837;;-798.94887;;-822.91912;;-844.37072;;-863.91796;;-881.82993;;-897.88209;;-911.53825;;-922.70086;;-932.09497;;-940.75007;;-949.25638;;-957.47522;;-964.74452;;-970.32596;;-973.61437;;-973.74762;;-969.80373;;-963.1025;;-958.77479;;-961.94309;;-971.74488;;-982.26346;;-989.22594;;-993.1082;;-996.08434;;-998.90007;;-1001.0926;;-1002.248;;-1002.248
-12.511973;;-12.511973;;-12.511973;;-12.511979;;-12.512422;;-12.517941;;-12.554917;;-12.755383;;-13.471528;;-14.562891;;-15.740762;;-16.494667;;-16.039774;;-16.492816;;-18.987289;;-22.759114;;-27.901724;;-34.716631;;-43.861577;;-55.445288;;-70.38726;;-89.546131;;-113.93892;;-144.62459;;-182.56228;;-228.71028;;-283.77862;;-347.83271;;-419.5818;;-495.02933;;-565.27186;;-619.58783;;-660.8334;;-695.76728;;-727.78626;;-757.90586;;-786.1606;;-812.44849;;-836.62095;;-858.56934;;-878.34599;;-895.86247;;-910.71575;;-922.74101;;-932.57843;;-941.36959;;-949.89889;;-958.09598;;-965.26358;;-970.70531;;-974.04363;;-974.74616;;-972.00308;;-966.63181;;-962.73987;;-964.84794;;-972.75191;;-981.77764;;-988.15201;;-991.82231;;-994.29659;;-996.26975;;-997.68292;;-998.42601;;-998.42601
-12.511973;;-12.511973;;-12.511973;;-12.511974;;-12.512017;;-12.512773;;-12.519615;;-12.556003;;-12.715094;;-13.295237;;-14.108804;;-14.65395;;-14.322199;;-15.157898;;-17.51998;;-21.025811;;-25.814995;;-32.192262;;-40.583081;;-51.751474;;-65.926756;;-84.165693;;-107.46857;;-136.90771;;-173.46034;;-218.14691;;-271.79891;;-334.69672;;-405.92227;;-482.08959;;-554.96526;;-610.96354;;-650.72169;;-683.0778;;-712.77442;;-741.84897;;-770.87331;;-799.43145;;-826.42704;;-850.83639;;-872.33788;;-891.01737;;-906.79473;;-919.62062;;-930.05921;;-939.18026;;-947.77277;;-955.85602;;-962.93735;;-968.56175;;-972.52311;;-974.49755;;-973.90294;;-971.14443;;-968.85951;;-970.23519;;-975.59366;;-982.15603;;-987.29685;;-990.56146;;-992.63833;;-994.03504;;-994.96868;;-995.49016;;-995.49016
-12.511973;;-12.511973;;-12.511973;;-12.511973;;-12.511974;;-12.512019;;-12.512813;;-12.518273;;-12.53903;;-12.611478;;-12.946907;;-13.282034;;-13.079094;;-13.97911;;-16.105814;;-19.243866;;-23.544444;;-29.295786;;-36.894613;;-47.069473;;-60.004266;;-76.7015;;-98.106274;;-125.29032;;-159.23198;;-200.9603;;-251.40955;;-311.09502;;-379.58773;;-454.48344;;-529.35032;;-590.81974;;-633.57591;;-666.65242;;-695.66525;;-723.81304;;-752.99124;;-783.16097;;-812.54459;;-839.24621;;-862.52357;;-882.51998;;-899.39559;;-913.22206;;-924.4908;;-934.1404;;-942.90326;;-950.92349;;-958.05535;;-964.17975;;-969.14669;;-972.61493;;-974.19253;;-974.12861;;-973.89346;;-975.33155;;-978.89289;;-983.29662;;-987.07501;;-989.77876;;-991.67066;;-993.05691;;-994.08377;;-994.69328;;-994.69328
-12.511973;;-12.511973;;-12.511973;;-12.511973;;-12.511973;;-12.511974;;-12.512022;;-12.512447;;-12.514207;;-12.51856;;-12.529304;;-12.557561;;-12.539908;;-13.052623;;-14.829311;;-17.529314;;-21.271964;;-26.310752;;-32.999155;;-41.794157;;-53.478351;;-68.325017;;-87.415217;;-111.76167;;-142.353;;-180.17187;;-226.20694;;-281.16473;;-345.0677;;-416.48494;;-490.9922;;-558.44719;;-607.89046;;-644.56242;;-674.77408;;-702.83288;;-732.09276;;-763.24961;;-794.41333;;-823.33378;;-848.92646;;-871.00997;;-889.56858;;-904.67882;;-916.89107;;-927.1776;;-936.28206;;-944.44289;;-951.80661;;-958.56586;;-964.6058;;-969.4961;;-972.95459;;-975.19925;;-976.92746;;-978.92188;;-981.46734;;-984.20502;;-986.69425;;-988.93086;;-991.13007;;-993.24267;;-994.92574;;-995.8515;;-995.8515
-12.511973;;-12.511973;;-12.511973;;-12.511973;;-12.511973;;-12.511973;;-12.511974;;-12.511977;;-12.511991;;-12.512025;;-12.512086;;-12.51218;;-12.51216;;-12.562794;;-13.792869;;-15.998669;;-19.171636;;-23.499394;;-29.279668;;-36.910688;;-47.107932;;-60.070931;;-76.786817;;-98.176908;;-125.22646;;-158.8544;;-200.04796;;-249.63492;;-307.97246;;-374.39409;;-446.13022;;-516.33462;;-573.17069;;-615.12283;;-648.52742;;-678.33374;;-708.5517;;-740.53975;;-773.04637;;-804.22919;;-832.76967;;-857.72221;;-878.45754;;-894.98406;;-908.12403;;-919.11085;;-928.79256;;-937.43904;;-945.30807;;-952.76446;;-959.78339;;-965.96947;;-971.10042;;-975.24283;;-978.47578;;-980.85245;;-982.53183;;-983.8098;;-985.17088;;-987.22771;;-990.21615;;-993.51682;;-996.07955;;-997.34845;;-997.34845
-12.511973;;-12.511973;;-12.511973;;-12.511973;;-12.511973;;-12.511973;;-12.511973;;-12.511973;;-12.511973;;-12.511973;;-12.511974;;-12.511974;;-12.511975;;-12.513095;;-12.974568;;-14.717815;;-17.377812;;-21.068018;;-26.035056;;-32.622804;;-41.484502;;-52.749453;;-67.314663;;-86.008176;;-109.78256;;-139.52015;;-176.16277;;-220.60146;;-273.41652;;-334.47775;;-402.17657;;-471.98131;;-534.37262;;-582.11598;;-619.76868;;-652.50965;;-684.24846;;-716.9629;;-750.62423;;-784.1647;;-815.90108;;-843.86121;;-866.7306;;-884.57728;;-898.64332;;-910.46929;;-921.01026;;-930.54475;;-939.29407;;-947.61548;;-955.60196;;-963.0368;;-969.68399;;-975.23785;;-979.24288;;-981.46034;;-982.19962;;-982.25406;;-982.74756;;-984.78895;;-988.62027;;-993.05931;;-996.40239;;-997.94315;;-997.94315
-12.511973;;-12.511973;;-12.511973;;-12.511973;;-12.511973;;-12.511973;;-12.511973;;-12.511973;;-12.511973;;-12.511973;;-12.511973;;-12.511973;;-12.511973;;-12.512031;;-12.558591;;-13.767114;;-15.959892;;-19.117681;;-23.422929;;-29.167968;;-36.954113;;-46.85347;;-59.691082;;-76.219819;;-97.328459;;-123.91988;;-156.87627;;-197.121;;-245.38424;;-301.89464;;-365.8037;;-434.09576;;-499.75164;;-552.83789;;-594.04195;;-628.82178;;-661.31023;;-694.42339;;-729.39971;;-765.55358;;-800.42624;;-831.01605;;-855.62395;;-874.61758;;-889.63794;;-902.37223;;-913.82976;;-924.37235;;-934.18756;;-943.52021;;-952.53132;;-961.17472;;-969.08399;;-975.48089;;-979.59335;;-981.3542;;-981.44815;;-980.88921;;-980.95272;;-982.97555;;-987.26555;;-992.31896;;-996.01758;;-997.6172;;-997.6172
-12.511973;;-12.511973;;-12.511973;;-12.511973;;-12.511973;;-12.511973;;-12.511973;;-12.511973;;-12.511973;;-12.511973;;-12.511973;;-12.511973;;-12.511973;;-12.511983;;-12.514735;;-13.095797;;-14.923345;;-17.683948;;-21.502517;;-26.635083;;-33.435191;;-42.566294;;-54.172469;;-69.159971;;-88.362367;;-112.70643;;-143.04674;;-180.31428;;-225.33827;;-278.57704;;-339.6605;;-406.51684;;-473.75865;;-531.0165;;-574.15464;;-609.10426;;-641.2934;;-674.82456;;-711.61558;;-750.64255;;-788.42212;;-821.18022;;-847.17595;;-867.1608;;-882.99791;;-896.34708;;-908.29078;;-919.42308;;-930.00821;;-940.1749;;-950.05764;;-959.64692;;-968.37756;;-975.12849;;-979.10649;;-980.65762;;-980.843;;-980.61827;;-980.95353;;-982.98887;;-986.94403;;-991.22122;;-993.81981;;-994.55598;;-994.55598
-12.511973;;-12.511973;;-12.511973;;-12.511973;;-12.511973;;-12.511973;;-12.511973;;-12.511973;;-12.511973;;-12.511973;;-12.511973;;-12.511973;;-12.511973;;-12.511976;;-12.512404;;-12.700386;;-14.239752;;-16.706106;;-20.184368;;-24.900628;;-31.179588;;-39.656328;;-50.443734;;-64.40685;;-82.335729;;-105.15822;;-133.73326;;-168.98419;;-211.80123;;-262.78372;;-321.85319;;-387.50272;;-455.32538;;-515.57935;;-559.87124;;-594.32616;;-626.34621;;-660.88857;;-699.78909;;-741.36436;;-781.38794;;-815.72599;;-842.7296;;-863.37743;;-879.56406;;-892.89402;;-904.60884;;-915.61686;;-926.32865;;-936.80171;;-947.08318;;-957.08362;;-966.08738;;-972.89497;;-976.89102;;-978.75223;;-979.73102;;-980.6189;;-981.80922;;-983.56727;;-985.32015;;-985.43245;;-983.15212;;-980.52221;;-980.52221
-12.511973;;-12.511973;;-12.511973;;-12.511973;;-12.511973;;-12.511973;;-12.511973;;-12.511973;;-12.511973;;-12.511973;;-12.511973;;-12.511973;;-12.511973;;-12.511974;;-12.512055;;-12.556339;;-13.788017;;-16.027989;;-19.266617;;-23.695952;;-29.618718;;-37.438396;;-47.666578;;-60.935638;;-78.225935;;-100.01246;;-127.38743;;-161.26815;;-202.58861;;-252.04332;;-309.74722;;-374.5678;;-442.78912;;-505.63925;;-551.80995;;-586.65697;;-619.37588;;-655.20359;;-695.5863;;-738.47755;;-779.49569;;-814.48517;;-841.82038;;-862.4864;;-878.34776;;-891.04531;;-902.00358;;-912.35589;;-922.62325;;-932.84541;;-942.98573;;-952.84394;;-961.67113;;-968.42108;;-972.68519;;-975.16919;;-977.02997;;-978.93641;;-980.679;;-980.86617;;-976.94062;;-967.13534;;-953.73263;;-943.65568;;-943.65568
-12.511973;;-12.511973;;-12.511973;;-12.511973;;-12.511973;;-12.511973;;-12.511973;;-12.511973;;-12.511973;;-12.511973;;-12.511973;;-12.511973;;-12.511973;;-12.511973;;-12.511984;;-12.523633;;-13.484644;;-15.569734;;-18.649171;;-22.890468;;-28.583502;;-36.119708;;-45.997473;;-58.834892;;-75.383422;;-96.754363;;-123.40672;;-156.4759;;-196.93593;;-245.55505;;-302.59108;;-367.18841;;-436.17051;;-501.72342;;-551.08463;;-587.56092;;-621.37329;;-657.78612;;-698.14483;;-740.6303;;-781.19998;;-815.80138;;-842.68281;;-862.70145;;-877.7368;;-889.53277;;-899.60387;;-909.14017;;-918.71407;;-928.38649;;-938.05446;;-947.4332;;-955.86334;;-962.56972;;-967.2463;;-970.25666;;-972.33603;;-974.15645;;-975.24803;;-972.20428;;-959.41092;;-934.81401;;-905.39529;;-884.98783;;-884.98783
-12.511973;;-12.511973;;-12.511973;;-12.511973;;-12.511973;;-12.511973;;-12.511973;;-12.511973;;-12.511973;;-12.511973;;-12.511973;;-12.511973;;-12.511973;;-12.511973;;-12.511975;;-12.516126;;-13.281941;;-15.263856;;-18.236153;;-22.352035;;-27.894278;;-35.24724;;-44.901524;;-57.668399;;-73.68781;;-94.451955;;-120.89417;;-153.49637;;-193.48632;;-241.695;;-298.49595;;-363.25754;;-433.24863;;-501.50732;;-555.0037;;-594.06336;;-628.96881;;-665.01964;;-703.92263;;-744.62513;;-783.74957;;-817.35963;;-843.42754;;-862.60409;;-876.80437;;-887.83003;;-897.15177;;-905.93749;;-914.82721;;-923.91325;;-933.00934;;-941.79299;;-949.79646;;-956.52868;;-961.62858;;-964.84283;;-966.26785;;-966.75729;;-966.27696;;-960.0632;;-939.442;;-901.78928;;-858.31739;;-828.86715;;-828.86715
-12.511973;;-12.511973;;-12.511973;;-12.511973;;-12.511973;;-12.511973;;-12.511973;;-12.511973;;-12.511973;;-12.511973;;-12.511973;;-12.511973;;-12.511973;;-12.511973;;-12.511974;;-12.513516;;-13.100544;;-14.982443;;-17.844515;;-21.827477;;-27.206305;;-34.356816;;-43.959868;;-56.218705;;-72.062934;;-92.16759;;-118.09938;;-150.13572;;-189.52645;;-237.15767;;-293.51131;;-358.17105;;-428.83981;;-499.41148;;-557.4478;;-599.82843;;-636.05036;;-671.45964;;-708.36893;;-746.84355;;-784.39557;;-817.20496;;-842.82903;;-861.60794;;-875.42733;;-886.05091;;-894.83834;;-902.97563;;-911.23698;;-919.74493;;-928.22748;;-936.40138;;-944.05191;;-950.89441;;-956.38367;;-959.64434;;-960.20869;;-959.20996;;-957.63077;;-950.94282;;-929.16063;;-888.69084;;-841.65792;;-809.64661;;-809.64661
-12.511973;;-12.511973;;-12.511973;;-12.511973;;-12.511973;;-12.511973;;-12.511973;;-12.511973;;-12.511973;;-12.511973;;-12.511973;;-12.511973;;-12.511973;;-12.511973;;-12.511973;;-12.512392;;-12.885335;;-14.629498;;-17.335833;;-21.129067;;-26.270844;;-33.122381;;-42.348795;;-54.13604;;-69.393774;;-88.983451;;-113.87154;;-144.96674;;-183.30053;;-229.8115;;-285.09305;;-348.95577;;-419.55977;;-491.69549;;-554.03139;;-599.89262;;-637.47569;;-672.4054;;-707.69201;;-744.55055;;-781.3446;;-814.27868;;-840.39731;;-859.61058;;-873.67114;;-884.27895;;-892.73095;;-900.26445;;-907.75286;;-915.34903;;-922.87253;;-930.34512;;-937.8691;;-945.13515;;-951.23252;;-954.89272;;-955.46073;;-954.2675;;-953.19701;;-949.37619;;-934.25809;;-903.65976;;-866.84058;;-841.62783;;-841.62783
-12.511973;;-12.511973;;-12.511973;;-12.511973;;-12.511973;;-12.511973;;-12.511973;;-12.511973;;-12.511973;;-12.511973;;-12.511973;;-12.511973;;-12.511973;;-12.511973;;-12.511973;;-12.512052;;-12.671973;;-14.211473;;-16.709197;;-20.257408;;-25.09357;;-31.557151;;-40.091381;;-51.254804;;-65.9381;;-84.561961;;-108.30974;;-138.10047;;-174.93725;;-219.80484;;-273.40366;;-335.76876;;-405.5128;;-478.312;;-544.21509;;-593.06445;;-631.33573;;-665.71747;;-700.13375;;-736.6414;;-774.02331;;-808.30193;;-835.96986;;-856.43406;;-871.2467;;-882.12966;;-890.42746;;-897.30943;;-903.46186;;-909.02782;;-914.43092;;-920.75913;;-928.68806;;-937.39429;;-945.05191;;-950.09662;;-952.14658;;-952.6169;;-953.58141;;-953.94004;;-948.13929;;-932.43111;;-911.60646;;-896.75206;;-896.75206
-12.511973;;-12.511973;;-12.511973;;-12.511973;;-12.511973;;-12.511973;;-12.511973;;-12.511973;;-12.511973;;-12.511973;;-12.511973;;-12.511973;;-12.511973;;-12.511973;;-12.511973;;-12.511984;;-12.548641;;-13.760642;;-16.006694;;-19.271648;;-23.753257;;-29.763631;;-37.719066;;-48.148203;;-61.907523;;-79.382005;;-101.72801;;-129.89946;;-164.85622;;-207.61119;;-258.95897;;-319.14467;;-387.21716;;-459.73566;;-528.32745;;-580.12988;;-618.52121;;-652.21351;;-686.44108;;-723.77056;;-762.93008;;-799.54227;;-829.53734;;-851.7961;;-867.67183;;-879.03086;;-887.32043;;-893.3831;;-897.27616;;-899.0376;;-900.40309;;-904.69941;;-913.71341;;-925.52666;;-936.46777;;-944.31989;;-949.16448;;-952.52972;;-956.0796;;-959.61714;;-960.3582;;-955.92563;;-948.04826;;-941.9077;;-941.9077
-12.511973;;-12.511973;;-12.511973;;-12.511973;;-12.511973;;-12.511973;;-12.511973;;-12.511973;;-12.511973;;-12.511973;;-12.511973;;-12.511973;;-12.511973;;-12.511973;;-12.511973;;-12.511974;;-12.516277;;-13.280221;;-15.249513;;-18.199397;;-22.281813;;-27.778864;;-35.07512;;-44.865111;;-57.353505;;-73.490577;;-94.18043;;-120.40271;;-153.07674;;-193.21448;;-241.68935;;-298.94131;;-364.44752;;-435.66464;;-505.9268;;-561.8667;;-601.38962;;-635.07043;;-669.72964;;-708.37534;;-749.66921;;-788.92421;;-821.55883;;-845.88875;;-863.02903;;-874.99119;;-883.27111;;-888.23375;;-889.16041;;-886.00802;;-882.15706;;-883.73187;;-894.0215;;-909.9212;;-925.46714;;-937.26349;;-945.53046;;-951.91934;;-957.66073;;-962.72404;;-965.94288;;-966.40337;;-964.82896;;-963.22658;;-963.22658
-12.511973;;-12.511973;;-12.511973;;-12.511973;;-12.511973;;-12.511973;;-12.511973;;-12.511973;;-12.511973;;-12.511973;;-12.511973;;-12.511973;;-12.511973;;-12.511973;;-12.511973;;-12.511973;;-12.512288;;-12.819544;;-14.488126;;-17.093632;;-20.74678;;-25.69562;;-32.287344;;-41.173558;;-52.512363;;-67.199479;;-86.07742;;-110.12155;;-140.23995;;-177.41074;;-222.56984;;-276.3336;;-338.58201;;-407.62805;;-478.52668;;-540.06813;;-583.73144;;-619.1908;;-654.81875;;-694.3411;;-736.92005;;-778.08889;;-812.98378;;-839.33194;;-857.86588;;-870.54259;;-878.75323;;-882.52427;;-880.8624;;-874.01351;;-866.4469;;-865.8989;;-876.73448;;-895.45435;;-914.80639;;-930.25497;;-941.53296;;-950.17544;;-957.27229;;-962.82389;;-966.32801;;-967.76746;;-967.90218;;-967.69261;;-967.69261
-12.511973;;-12.511973;;-12.511973;;-12.511973;;-12.511973;;-12.511973;;-12.511973;;-12.511973;;-12.511973;;-12.511973;;-12.511973;;-12.511973;;-12.511973;;-12.511973;;-12.511973;;-12.511973;;-12.512013;;-12.563617;;-13.813672;;-16.057325;;-19.29415;;-23.719587;;-29.639995;;-37.665705;;-47.90881;;-61.212793;;-78.363333;;-100.28916;;-127.94484;;-162.25866;;-204.21305;;-254.58346;;-313.60794;;-380.35952;;-451.49479;;-518.92748;;-570.31696;;-609.51821;;-646.27564;;-685.55729;;-727.66198;;-768.86684;;-804.3717;;-831.6408;;-851.28292;;-865.08325;;-873.91119;;-877.43671;;-875.13179;;-868.0639;;-860.72471;;-860.1118;;-870.36441;;-888.81512;;-908.93686;;-925.89406;;-938.58943;;-948.12243;;-955.64748;;-961.33532;;-964.85619;;-966.39781;;-966.78842;;-966.81472;;-966.81472
-12.511973;;-12.511973;;-12.511973;;-12.511973;;-12.511973;;-12.511973;;-12.511973;;-12.511973;;-12.511973;;-12.511973;;-12.511973;;-12.511973;;-12.511973;;-12.511973;;-12.511973;;-12.511973;;-12.511992;;-12.518618;;-13.266647;;-15.200431;;-18.090817;;-22.083189;;-27.452471;;-34.57514;;-44.132628;;-56.323618;;-72.090256;;-92.319585;;-118.02075;;-150.12104;;-189.62724;;-237.45834;;-294.15255;;-359.3895;;-431.0493;;-503.35689;;-564.12875;;-608.26489;;-645.94179;;-684.00471;;-723.89306;;-762.39375;;-794.95114;;-819.94522;;-839.47976;;-855.63032;;-867.65047;;-873.72317;;-873.77287;;-870.07574;;-866.60244;;-868.03168;;-877.22032;;-892.87616;;-910.61951;;-926.30473;;-938.25873;;-947.11961;;-954.16124;;-959.8003;;-963.66543;;-965.63409;;-966.26524;;-966.34277;;-966.34277
-12.511973;;-12.511973;;-12.511973;;-12.511973;;-12.511973;;-12.511973;;-12.511973;;-12.511973;;-12.511973;;-12.511973;;-12.511973;;-12.511973;;-12.511973;;-12.511973;;-12.511973;;-12.511973;;-12.511984;;-12.513789;;-12.888099;;-14.589043;;-17.220798;;-20.899697;;-25.879731;;-32.515843;;-41.466251;;-52.907471;;-67.755839;;-86.874948;;-111.28837;;-142.01195;;-180.04743;;-226.42368;;-281.89749;;-346.5522;;-419.01953;;-494.8951;;-563.74491;;-613.28046;;-651.94531;;-688.88195;;-725.78243;;-758.8059;;-783.62265;;-801.56333;;-819.11221;;-839.53707;;-858.77782;;-871.2735;;-876.33673;;-877.52857;;-878.79468;;-882.92706;;-891.49128;;-904.13769;;-918.42249;;-931.27247;;-941.02898;;-948.15684;;-954.04395;;-959.33318;;-963.5866;;-966.20737;;-967.2678;;-967.4697;;-967.4697
-12.511973;;-12.511973;;-12.511973;;-12.511973;;-12.511973;;-12.511973;;-12.511973;;-12.511973;;-12.511973;;-12.511973;;-12.511973;;-12.511973;;-12.511973;;-12.511973;;-12.511973;;-12.511973;;-12.511977;;-12.512588;;-12.676093;;-14.175787;;-16.612269;;-20.069635;;-24.781875;;-31.088258;;-39.631552;;-50.576263;;-64.822757;;-83.222069;;-106.79245;;-136.63203;;-173.74924;;-219.23142;;-273.9767;;-338.32002;;-411.35788;;-489.57743;;-564.12713;;-619.46187;;-660.12497;;-697.16604;;-731.63661;;-758.03745;;-772.21101;;-780.07078;;-794.4596;;-820.18941;;-848.8968;;-869.78997;;-880.51907;;-885.81156;;-890.47222;;-896.74794;;-905.42196;;-916.30638;;-927.92724;;-938.13473;;-945.68321;;-951.08472;;-955.75218;;-960.47512;;-964.85336;;-967.98129;;-969.48699;;-969.88264;;-969.88264
-12.511973;;-12.511973;;-12.511973;;-12.511973;;-12.511973;;-12.511973;;-12.511973;;-12.511973;;-12.511973;;-12.511973;;-12.511973;;-12.511973;;-12.511973;;-12.511973;;-12.511975;;-12.511983;;-12.512007;;-12.512221;;-12.571965;;-13.8404;;-16.097879;;-19.3584;;-23.830591;;-30.030605;;-38.004356;;-48.488115;;-62.166079;;-79.870778;;-102.60353;;-131.50236;;-167.59423;;-211.98302;;-265.66024;;-329.14337;;-401.8883;;-481.10681;;-559.34503;;-621.03669;;-665.38797;;-704.31356;;-738.28735;;-760.30194;;-766.44345;;-766.5615;;-778.4162;;-807.73674;;-842.93223;;-869.41124;;-883.41385;;-890.59662;;-896.99991;;-904.9813;;-914.55541;;-925.02847;;-935.29537;;-943.99054;;-950.34228;;-954.85924;;-958.82092;;-963.06857;;-967.33794;;-970.66595;;-972.43527;;-972.97638;;-972.97637
-12.511973;;-12.511973;;-12.511973;;-12.511973;;-12.511973;;-12.511973;;-12.511973;;-12.511973;;-12.511973;;-12.511973;;-12.511973;;-12.511973;;-12.511974;;-12.512002;;-12.512231;;-12.513134;;-12.515278;;-12.518641;;-12.538931;;-13.503309;;-15.561501;;-18.597909;;-22.788643;;-28.627815;;-36.142162;;-46.044945;;-58.990276;;-75.77901;;-97.37576;;-124.91332;;-159.44268;;-202.04646;;-253.7733;;-315.28657;;-386.35864;;-464.86765;;-544.73145;;-612.30643;;-661.48049;;-704.01802;;-740.87048;;-764.38394;;-770.60565;;-770.21985;;-781.54564;;-810.27443;;-844.734;;-870.22719;;-882.95334;;-889.30977;;-896.49918;;-906.74182;;-918.45522;;-929.74561;;-939.77678;;-948.0756;;-954.2834;;-958.76068;;-962.5634;;-966.52966;;-970.54135;;-973.72779;;-975.4444;;-975.96697;;-975.96697
-12.511973;;-12.511973;;-12.511973;;-12.511973;;-12.511973;;-12.511973;;-12.511973;;-12.511973;;-12.511973;;-12.511973;;-12.511973;;-12.511973;;-12.511992;;-12.512373;;-12.515073;;-12.525157;;-12.548466;;-12.587045;;-12.660179;;-13.21342;;-15.020477;;-17.778387;;-21.622827;;-27.017931;;-33.96308;;-43.134817;;-55.146296;;-70.751447;;-90.862317;;-116.55923;;-148.91493;;-188.95814;;-237.75189;;-296.06086;;-363.9147;;-439.76637;;-518.78017;;-589.74784;;-642.94041;;-689.94029;;-733.76324;;-766.22709;;-781.5057;;-787.59504;;-800.0742;;-824.63866;;-852.60038;;-872.12346;;-880.24556;;-883.90081;;-891.39658;;-904.57041;;-919.52766;;-932.57282;;-943.07519;;-951.56725;;-958.0991;;-962.84939;;-966.64875;;-970.28987;;-973.76904;;-976.42234;;-977.78306;;-978.15967;;-978.15967
-12.511973;;-12.511973;;-12.511973;;-12.511973;;-12.511973;;-12.511973;;-12.511973;;-12.511973;;-12.511973;;-12.511973;;-12.511973;;-12.511975;;-12.512137;;-12.514604;;-12.530209;;-12.585453;;-12.716688;;-13.001721;;-13.43685;;-13.771427;;-14.79905;;-17.096514;;-20.67912;;-25.372082;;-31.673977;;-40.027277;;-50.994528;;-65.2714;;-83.704674;;-107.30504;;-137.14434;;-174.18792;;-219.47054;;-273.81258;;-337.42833;;-409.21751;;-485.34577;;-556.65099;;-611.64555;;-662.62108;;-716.01959;;-762.45114;;-791.83679;;-806.95915;;-820.60664;;-840.14266;;-861.4488;;-875.8756;;-880.54165;;-882.03546;;-889.44114;;-904.56844;;-921.8714;;-936.19386;;-946.95656;;-955.48197;;-962.20464;;-967.15598;;-970.86986;;-973.96418;;-976.54907;;-978.36007;;-979.28259;;-979.57648;;-979.57648
-12.511973;;-12.511973;;-12.511973;;-12.511973;;-12.511973;;-12.511973;;-12.511973;;-12.511973;;-12.511973;;-12.511973;;-12.511984;;-12.512081;;-12.5132;;-12.523895;;-12.582501;;-12.782037;;-13.254233;;-14.000524;;-14.761885;;-15.221703;;-15.646168;;-17.2285;;-19.97765;;-24.049936;;-29.664453;;-37.195118;;-47.145758;;-60.150914;;-76.990454;;-98.602182;;-126.05226;;-160.26687;;-202.22606;;-252.78923;;-312.31787;;-380.07799;;-453.05856;;-523.74758;;-579.89728;;-633.91907;;-696.01397;;-755.71443;;-798.35346;;-820.84894;;-834.5247;;-850.23797;;-868.64692;;-882.97617;;-888.88456;;-891.03304;;-898.05835;;-912.31315;;-928.68194;;-942.04106;;-951.83422;;-959.6472;;-966.13806;;-971.17723;;-974.8272;;-977.34786;;-978.97601;;-979.98202;;-980.63867;;-981.01626;;-981.01626
-12.511973;;-12.511973;;-12.511973;;-12.511973;;-12.511973;;-12.511973;;-12.511973;;-12.511973;;-12.511973;;-12.511974;;-12.512089;;-12.513125;;-12.519518;;-12.556565;;-12.730169;;-13.281702;;-14.230801;;-15.394548;;-16.481955;;-17.281521;;-17.636947;;-18.638195;;-20.557033;;-23.64374;;-28.393001;;-35.074472;;-44.09651;;-56.018065;;-71.552736;;-91.574918;;-117.11857;;-149.16865;;-188.635;;-236.43642;;-293.10492;;-358.28672;;-429.78089;;-501.65657;;-562.14254;;-619.03732;;-685.79583;;-752.76152;;-803.36583;;-830.3717;;-843.79993;;-857.56788;;-876.095;;-893.6958;;-904.22652;;-909.40981;;-915.979;;-926.88026;;-939.19242;;-949.36127;;-956.98748;;-963.44079;;-969.38351;;-974.47876;;-978.22587;;-980.46537;;-981.51864;;-982.03962;;-982.52745;;-982.93338;;-982.93338
-12.511973;;-12.511973;;-12.511973;;-12.511973;;-12.511973;;-12.511973;;-12.511973;;-12.511973;;-12.511973;;-12.511978;;-12.512589;;-12.518079;;-12.545267;;-12.660197;;-13.142257;;-14.158905;;-15.527703;;-17.076861;;-18.663354;;-19.470669;;-19.870608;;-20.800161;;-22.546427;;-24.92865;;-28.217049;;-33.767364;;-41.837468;;-52.811951;;-67.29847;;-86.101806;;-110.21135;;-140.71886;;-178.51428;;-224.57969;;-279.66068;;-343.81722;;-415.66913;;-490.90008;;-560.06824;;-620.90914;;-687.8146;;-755.17041;;-808.20517;;-838.60739;;-853.89887;;-867.86073;;-886.70603;;-906.31305;;-920.34271;;-928.26198;;-934.32334;;-941.50674;;-949.243;;-955.93682;;-961.42929;;-966.68667;;-972.20016;;-977.39628;;-981.3175;;-983.50344;;-984.26486;;-984.31033;;-984.21517;;-984.18199;;-984.18199
-12.511973;;-12.511973;;-12.511973;;-12.511973;;-12.511973;;-12.511973;;-12.511973;;-12.511973;;-12.511973;;-12.51199;;-12.514033;;-12.532547;;-12.618451;;-12.962134;;-13.896327;;-15.287568;;-17.013305;;-19.054694;;-20.764056;;-21.74322;;-22.192498;;-23.073803;;-24.655701;;-26.678303;;-28.957055;;-32.740793;;-39.712076;;-49.706792;;-63.153514;;-80.770211;;-103.49123;;-132.43827;;-168.62134;;-213.0169;;-266.57341;;-329.73553;;-401.86864;;-480.14573;;-557.72744;;-625.07039;;-690.09014;;-754.37904;;-807.82623;;-843.04847;;-863.93475;;-880.76702;;-899.40226;;-917.91251;;-931.94069;;-940.48328;;-945.91552;;-950.69585;;-955.58169;;-960.30089;;-964.88482;;-969.89365;;-975.47826;;-980.79714;;-984.64595;;-986.44397;;-986.45;;-985.32427;;-983.83784;;-982.80664;;-982.80664
-12.511973;;-12.511973;;-12.511973;;-12.511973;;-12.511973;;-12.511973;;-12.511973;;-12.511973;;-12.511974;;-12.512039;;-12.517102;;-12.563049;;-12.792184;;-13.551864;;-14.833964;;-16.512838;;-18.672126;;-20.766004;;-22.643786;;-23.719729;;-24.206605;;-24.953002;;-26.154429;;-27.568662;;-29.117915;;-31.424722;;-37.078185;;-45.88424;;-58.028627;;-74.10395;;-94.964267;;-121.67769;;-155.37937;;-197.01603;;-247.64322;;-308.00218;;-378.04529;;-456.08981;;-537.23712;;-611.47254;;-676.16073;;-737.86635;;-792.44674;;-834.30013;;-864.18299;;-887.46557;;-907.8536;;-925.15011;;-937.77278;;-945.71333;;-950.67299;;-954.61095;;-958.66435;;-963.12317;;-968.09594;;-973.75633;;-979.78325;;-985.03816;;-988.2297;;-988.81767;;-987.16437;;-984.16285;;-981.0245;;-979.03648;;-979.03648
-12.511973;;-12.511973;;-12.511973;;-12.511973;;-12.511973;;-12.511973;;-12.511973;;-12.511973;;-12.511993;;-12.512449;;-12.524025;;-12.628771;;-13.201552;;-14.362996;;-15.939554;;-17.845561;;-20.105881;;-22.171296;;-23.850029;;-24.781954;;-25.263225;;-25.809235;;-26.522852;;-27.270502;;-28.20969;;-29.807331;;-33.900124;;-41.326497;;-51.876661;;-65.994769;;-84.423294;;-108.12065;;-138.22103;;-175.66573;;-221.47324;;-276.54191;;-341.20789;;-414.62004;;-493.55409;;-570.60733;;-637.22349;;-697.89482;;-753.87956;;-802.38331;;-843.01586;;-877.03609;;-904.67978;;-925.27797;;-938.96625;;-947.29948;;-952.53188;;-956.68139;;-960.96158;;-965.81922;;-971.40933;;-977.70946;;-984.06283;;-989.03645;;-991.20517;;-990.15783;;-986.70166;;-982.32699;;-978.59146;;-976.54463;;-976.54463
-12.511973;;-12.511973;;-12.511973;;-12.511973;;-12.511973;;-12.511973;;-12.511973;;-12.511975;;-12.512139;;-12.514742;;-12.545375;;-12.866651;;-13.899871;;-15.401654;;-17.269943;;-19.528552;;-21.61996;;-23.33295;;-24.39925;;-24.97351;;-25.312632;;-25.620912;;-25.906223;;-26.161528;;-26.698711;;-28.010414;;-30.762543;;-36.669358;;-45.467957;;-57.442446;;-73.191071;;-93.532025;;-119.4672;;-151.94264;;-191.84195;;-240.08484;;-297.20411;;-362.89002;;-435.15806;;-509.02453;;-576.3979;;-636.72458;;-693.50441;;-747.45539;;-799.12961;;-847.31124;;-888.13886;;-918.12745;;-937.16365;;-948.15057;;-954.6921;;-959.44392;;-963.75392;;-968.17374;;-973.16114;;-979.09022;;-985.48673;;-990.61621;;-992.53573;;-990.79195;;-986.84156;;-982.8397;;-980.23809;;-979.19199;;-979.19199
-12.511973;;-12.511973;;-12.511973;;-12.511973;;-12.511973;;-12.511973;;-12.511976;;-12.512002;;-12.512829;;-12.522906;;-12.635565;;-13.431815;;-14.815037;;-16.628158;;-18.77373;;-21.22454;;-23.28531;;-24.369476;;-24.61341;;-24.669098;;-24.750453;;-24.844606;;-24.866402;;-24.862871;;-25.204893;;-26.372647;;-28.45451;;-32.511455;;-39.492683;;-49.336155;;-62.448362;;-79.484344;;-101.28529;;-128.75073;;-162.62227;;-203.75683;;-252.77094;;-309.69125;;-373.38459;;-440.65946;;-505.75614;;-565.83967;;-623.84826;;-683.21225;;-745.66257;;-808.59073;;-864.80046;;-907.33816;;-934.49713;;-949.8295;;-958.26568;;-963.24437;;-966.37968;;-968.58809;;-971.16526;;-975.61734;;-982.1652;;-988.70848;;-992.26722;;-991.86046;;-989.3325;;-987.23999;;-986.63838;;-986.85701;;-986.85701
-12.511973;;-12.511973;;-12.511973;;-12.511973;;-12.511974;;-12.512013;;-12.512339;;-12.51372;;-12.519394;;-12.55417;;-12.963099;;-14.1465;;-15.822745;;-17.914485;;-20.467316;;-22.914456;;-24.899775;;-25.296488;;-24.783012;;-24.309915;;-24.127269;;-24.111107;;-24.08352;;-24.049094;;-24.316345;;-25.299581;;-27.054139;;-29.545873;;-34.507196;;-42.252914;;-52.89559;;-66.889718;;-84.897591;;-107.73165;;-136.05363;;-170.59832;;-212.02332;;-260.59574;;-315.83201;;-375.97443;;-437.78982;;-499.2711;;-562.24977;;-629.70747;;-702.73963;;-777.54825;;-845.83216;;-898.92696;;-933.56194;;-953.04588;;-962.89351;;-967.13928;;-967.93064;;-966.96176;;-966.63674;;-969.6092;;-976.71838;;-985.50617;;-991.94385;;-994.22306;;-994.02229;;-993.92867;;-994.76509;;-995.67126;;-995.67126
-12.511973;;-12.511973;;-12.511973;;-12.511982;;-12.51205;;-12.512662;;-12.516419;;-12.530644;;-12.577894;;-12.738007;;-13.427317;;-14.803106;;-16.66129;;-18.933479;;-21.630036;;-24.141929;;-25.935413;;-25.889044;;-25.025902;;-24.283767;;-23.980333;;-24.000972;;-24.113612;;-24.221083;;-24.474944;;-25.182262;;-26.518879;;-28.425626;;-31.154338;;-36.774096;;-45.209181;;-56.629047;;-71.502684;;-90.489717;;-114.27916;;-143.47835;;-178.79509;;-220.74209;;-269.44821;;-324.47078;;-384.97259;;-451.09833;;-523.86426;;-602.55497;;-684.73316;;-766.0504;;-839.5371;;-897.38483;;-935.80187;;-957.24728;;-967.08392;;-969.89887;;-968.7473;;-966.14709;;-964.88256;;-967.63327;;-975.19247;;-985.09811;;-993.19407;;-997.29563;;-998.62343;;-999.48427;;-1000.6999;;-1001.6558;;-1001.6558
-12.511973;;-12.511973;;-12.512008;;-12.512397;;-12.514427;;-12.522263;;-12.550779;;-12.690349;;-13.155975;;-13.620003;;-14.14473;;-15.314916;;-17.088259;;-19.305388;;-21.921591;;-24.267013;;-25.799926;;-25.901013;;-25.285473;;-24.714425;;-24.534667;;-24.713807;;-25.038911;;-25.338936;;-25.630035;;-26.123391;;-27.066062;;-28.576538;;-30.559736;;-33.476102;;-39.877512;;-49.280948;;-61.86602;;-78.133699;;-98.788029;;-124.51264;;-156.10041;;-194.48343;;-240.65085;;-295.68076;;-360.55604;;-435.49572;;-518.90189;;-606.83558;;-693.76653;;-774.78042;;-845.82719;;-901.74262;;-939.11138;;-959.61017;;-968.3725;;-970.60984;;-970.14746;;-969.48815;;-970.35218;;-974.06327;;-980.881;;-989.02609;;-995.5547;;-998.92956;;-1000.1639;;-1001.107;;-1002.3792;;-1003.3602;;-1003.3602
-12.511976;;-12.511976;;-12.512312;;-12.515864;;-12.533312;;-12.591802;;-12.843843;;-13.567561;;-14.44348;;-15.095967;;-15.536934;;-16.296849;;-17.578794;;-19.525622;;-21.53794;;-23.432176;;-24.826885;;-25.484807;;-25.577596;;-25.508853;;-25.615229;;-25.986045;;-26.50266;;-26.981061;;-27.344456;;-27.722521;;-28.385332;;-29.541923;;-31.133462;;-33.019159;;-38.232039;;-46.955767;;-59.053311;;-74.995136;;-95.571229;;-121.80963;;-154.81283;;-195.64081;;-245.50189;;-305.4359;;-376.01861;;-456.83921;;-545.60973;;-636.8855;;-721.82954;;-795.25484;;-857.35702;;-905.81825;;-938.14847;;-956.15144;;-964.91409;;-969.52874;;-973.29477;;-977.40166;;-981.72976;;-986.08508;;-990.40792;;-994.07203;;-996.07399;;-996.41048;;-996.53764;;-997.8219;;-1000.0285;;-1001.7233;;-1001.7233
-12.511987;;-12.511987;;-12.513569;;-12.529893;;-12.611123;;-12.946292;;-13.807985;;-14.991695;;-16.211752;;-17.032784;;-17.408057;;-18.090927;;-18.740929;;-19.95654;;-21.166165;;-22.549473;;-23.977593;;-25.208429;;-26.03681;;-26.50828;;-26.90119;;-27.416109;;-28.052131;;-28.656965;;-29.089991;;-29.409319;;-29.877298;;-30.706754;;-31.84105;;-34.789061;;-41.937147;;-52.326503;;-66.234163;;-84.33283;;-107.5508;;-137.03261;;-173.89211;;-219.33124;;-274.55812;;-340.48251;;-417.32483;;-503.88711;;-596.23258;;-685.65066;;-759.96649;;-818.6159;;-866.56765;;-903.71933;;-929.46904;;-946.34982;;-958.49364;;-968.93674;;-978.72268;;-987.29803;;-993.55662;;-996.8994;;-997.43337;;-995.51154;;-991.88868;;-988.45767;;-987.70802;;-990.57565;;-995.23608;;-998.60344;;-998.60344
-12.512057;;-12.512057;;-12.517017;;-12.568202;;-12.909497;;-13.865587;;-15.227772;;-16.833552;;-18.403624;;-19.37303;;-19.767114;;-19.973732;;-20.316767;;-20.720111;;-21.360775;;-22.45242;;-23.937062;;-25.486497;;-26.728076;;-27.536148;;-28.083742;;-28.617907;;-29.259562;;-29.918091;;-30.405477;;-30.712248;;-31.070505;;-31.64309;;-33.289728;;-39.373242;;-48.698494;;-61.394282;;-78.036233;;-99.471572;;-126.77549;;-161.10104;;-203.64121;;-255.68282;;-318.33385;;-392.19205;;-476.74664;;-569.29435;;-662.79701;;-742.57374;;-798.41453;;-838.65694;;-870.29624;;-895.74147;;-916.95704;;-936.32877;;-954.97504;;-972.13233;;-986.27732;;-996.29234;;-1001.7019;;-1002.5328;;-999.0986;;-992.15593;;-983.67507;;-977.29012;;-976.65876;;-982.21148;;-990.19977;;-995.67179;;-995.67179
-12.512468;;-12.512468;;-12.526262;;-12.754167;;-13.723218;;-15.177325;;-17.000818;;-19.008533;;-20.910073;;-22.123799;;-22.01977;;-21.639368;;-21.295636;;-21.333915;;-21.945599;;-23.113342;;-24.65075;;-26.239847;;-27.564597;;-28.464591;;-29.003868;;-29.416835;;-29.942916;;-30.600141;;-31.272652;;-32.225284;;-33.518241;;-34.731099;;-38.371685;;-46.428715;;-58.056056;;-73.575437;;-93.715753;;-119.47306;;-152.01574;;-192.46084;;-242.12977;;-302.25299;;-373.70798;;-456.48726;;-548.62847;;-644.49588;;-731.35072;;-791.43967;;-827.71366;;-851.78051;;-870.66551;;-889.1296;;-910.47032;;-935.03709;;-959.69857;;-980.39235;;-994.85162;;-1003.0494;;-1005.9327;;-1004.1125;;-997.70974;;-987.42505;;-975.98105;;-968.23102;;-968.47356;;-976.46281;;-986.96935;;-993.89799;;-993.89799
-12.514209;;-12.514209;;-12.594188;;-13.422222;;-14.851316;;-16.726996;;-18.958727;;-21.354652;;-23.741182;;-24.69299;;-23.909865;;-22.52937;;-21.518979;;-21.543495;;-22.551293;;-24.059392;;-25.683654;;-27.180056;;-28.405769;;-29.25178;;-29.724343;;-30.229065;;-31.263554;;-32.966683;;-35.273556;;-37.757232;;-39.965031;;-41.718646;;-45.990712;;-55.796079;;-69.979864;;-88.860998;;-113.25352;;-144.28177;;-183.06479;;-230.78084;;-288.71916;;-357.83638;;-438.3594;;-528.961;;-625.13282;;-716.08684;;-782.3838;;-820.40078;;-842.97844;;-858.81784;;-873.88484;;-892.89448;;-917.84845;;-946.18605;;-972.22208;;-991.34488;;-1002.5616;;-1007.53;;-1008.0793;;-1004.7306;;-997.10345;;-985.70456;;-973.56666;;-965.86962;;-966.73145;;-975.34437;;-986.14082;;-993.11284;;-993.11284
-12.523873;;-12.523873;;-13.004026;;-14.292499;;-16.094513;;-18.344089;;-20.925631;;-23.829003;;-26.221724;;-26.602061;;-24.914731;;-22.892068;;-21.552018;;-21.800301;;-23.251249;;-25.084043;;-26.750028;;-28.082533;;-29.140211;;-30.218049;;-32.369291;;-34.654628;;-36.705365;;-39.272195;;-42.627468;;-46.246209;;-49.359966;;-51.732035;;-56.09203;;-67.522402;;-84.531314;;-107.2552;;-136.54535;;-173.61823;;-219.45447;;-275.25916;;-342.08418;;-420.30398;;-508.91311;;-604.07092;;-696.19271;;-766.00844;;-805.9308;;-830.35017;;-849.05838;;-866.86693;;-886.7419;;-910.62193;;-938.00701;;-965.12452;;-986.99838;;-1000.962;;-1007.857;;-1010.1572;;-1009.5546;;-1006.0877;;-999.00733;;-988.61801;;-977.64828;;-970.63346;;-970.97992;;-977.87557;;-986.65155;;-992.34868;;-992.34868
-12.641323;;-12.641323;;-13.657386;;-15.273772;;-17.38559;;-19.9486;;-22.810371;;-25.91526;;-28.197651;;-27.616616;;-25.549871;;-23.430101;;-22.194004;;-22.75059;;-24.390895;;-26.268811;;-27.791065;;-28.962187;;-31.204455;;-34.77069;;-38.584255;;-42.026696;;-44.934673;;-48.400841;;-52.878821;;-57.711226;;-61.857737;;-64.991314;;-69.302038;;-81.791734;;-101.69568;;-128.62821;;-163.35092;;-207.10381;;-260.62432;;-325.00105;;-400.79548;;-487.30405;;-581.2524;;-674.03881;;-746.95732;;-788.00609;;-812.68679;;-834.36311;;-858.26215;;-884.33246;;-911.27467;;-937.98917;;-962.90099;;-983.68581;;-998.36141;;-1006.7227;;-1010.3996;;-1011.3973;;-1010.7124;;-1008.0664;;-1002.6878;;-994.63863;;-985.79755;;-979.46234;;-978.27459;;-981.98773;;-987.51256;;-991.29208;;-991.29208
-13.164153;;-13.164153;;-14.485031;;-16.408245;;-18.847371;;-21.721794;;-25.067983;;-28.195081;;-30.194212;;-28.787727;;-26.493058;;-24.516774;;-23.658342;;-24.437984;;-26.04676;;-27.691878;;-29.163156;;-32.311058;;-36.809239;;-42.10438;;-47.48481;;-52.147246;;-55.979731;;-60.474051;;-66.279929;;-72.555277;;-77.948539;;-82.037797;;-86.624233;;-99.107221;;-121.63757;;-152.89426;;-193.33275;;-244.08951;;-305.49863;;-378.28033;;-462.12672;;-554.48521;;-648.16493;;-726.70334;;-773.44106;;-799.68527;;-821.36623;;-847.81107;;-879.73177;;-912.70148;;-942.28155;;-966.19472;;-984.02054;;-996.33023;;-1004.1266;;-1008.571;;-1010.7975;;-1011.6473;;-1011.4341;;-1009.9093;;-1006.5431;;-1001.1615;;-994.63969;;-988.97214;;-986.18174;;-986.72581;;-989.07833;;-990.98967;;-990.98967
-13.866696;;-13.866696;;-15.371096;;-17.546416;;-20.289245;;-23.48629;;-27.169126;;-30.557567;;-32.367127;;-30.390086;;-27.84021;;-25.992937;;-25.566111;;-26.485388;;-27.942897;;-29.620991;;-33.266353;;-38.52311;;-44.948644;;-52.073803;;-59.215036;;-65.313701;;-70.228896;;-75.941178;;-83.345882;;-91.370222;;-98.28921;;-103.57734;;-108.96481;;-120.75525;;-144.76784;;-179.86649;;-225.78091;;-283.28052;;-352.07817;;-432.07398;;-521.51995;;-614.88598;;-699.16872;;-756.86078;;-792.24877;;-817.97309;;-844.49419;;-876.64827;;-912.14053;;-945.06804;;-970.73489;;-987.71599;;-997.35885;;-1002.4033;;-1005.4503;;-1007.9048;;-1009.9442;;-1011.2559;;-1011.6606;;-1011.1113;;-1009.4231;;-1006.3217;;-1001.9317;;-997.22104;;-993.66201;;-992.12744;;-992.20479;;-992.70172;;-992.70172
-14.464236;;-14.464236;;-16.104658;;-18.474529;;-21.45928;;-24.927537;;-28.90149;;-32.540548;;-34.290406;;-31.954352;;-29.173141;;-27.392246;;-27.322699;;-28.363979;;-30.054814;;-34.003767;;-39.816804;;-47.142958;;-55.66855;;-64.959963;;-74.211503;;-82.038655;;-88.239508;;-95.357203;;-104.57628;;-114.61469;;-123.33141;;-130.10127;;-137.07241;;-148.89493;;-172.59968;;-209.76815;;-259.85626;;-322.79866;;-397.44522;;-482.09689;;-572.83193;;-660.12661;;-728.30513;;-776.61799;;-814.00471;;-847.12525;;-880.34131;;-914.25045;;-946.02843;;-972.01655;;-990.01306;;-999.97983;;-1003.7746;;-1004.4362;;-1004.8673;;-1006.4303;;-1008.6996;;-1010.5884;;-1011.5397;;-1011.6484;;-1011.0508;;-1009.5635;;-1006.9732;;-1003.5925;;-1000.3356;;-998.0606;;-996.93696;;-996.56513;;-996.56513
-14.932156;;-14.932156;;-16.668148;;-19.174059;;-22.325987;;-25.977338;;-30.136849;;-33.906288;;-35.451873;;-32.93461;;-30.093064;;-28.456724;;-28.6522;;-30.218075;;-34.417961;;-40.64142;;-48.652171;;-58.290263;;-69.309262;;-81.227246;;-92.987247;;-102.78113;;-110.4066;;-119.06558;;-130.34584;;-142.7276;;-153.58537;;-162.19446;;-171.1748;;-184.931;;-208.60057;;-245.20839;;-296.01348;;-360.93853;;-437.95441;;-522.52657;;-608.18724;;-683.6351;;-743.51272;;-793.08488;;-837.51224;;-879.04889;;-916.71863;;-948.05508;;-971.73695;;-988.40613;;-999.26361;;-1004.959;;-1006.2939;;-1005.2514;;-1004.4517;;-1005.4192;;-1007.73;;-1009.9872;;-1011.3259;;-1011.8139;;-1011.7874;;-1011.2623;;-1010.0178;;-1008.0502;;-1005.7782;;-1003.7561;;-1002.3159;;-1001.5671;;-1001.5671
-15.366669;;-15.366669;;-17.178046;;-19.787798;;-23.059669;;-26.823874;;-31.065627;;-34.802893;;-35.771128;;-33.247495;;-30.623554;;-29.344105;;-30.252339;;-34.484696;;-40.961647;;-49.44614;;-59.93747;;-72.276385;;-86.224187;;-101.20488;;-115.87847;;-127.94756;;-137.18279;;-147.52456;;-161.05996;;-176.05447;;-189.38659;;-200.2627;;-211.83581;;-228.99701;;-255.05479;;-291.89691;;-340.27269;;-401.08297;;-472.61188;;-548.38699;;-622.83207;;-691.52984;;-751.72077;;-804.43805;;-853.87285;;-900.99035;;-941.16127;;-969.42754;;-986.06154;;-995.70319;;-1002.2439;;-1006.37;;-1007.4798;;-1006.3024;;-1005.0261;;-1005.4022;;-1007.3787;;-1009.6572;;-1011.1961;;-1011.8941;;-1012.1137;;-1012.0456;;-1011.6124;;-1010.7401;;-1009.5328;;-1008.2128;;-1007.0363;;-1006.3095;;-1006.3095
-15.775837;;-15.775837;;-17.650992;;-20.345839;;-23.709358;;-27.541692;;-31.7945;;-35.38839;;-35.6877;;-33.316909;;-31.145752;;-30.633887;;-34.348096;;-40.809317;;-49.531039;;-60.558689;;-73.822553;;-89.260544;;-106.66214;;-125.26515;;-143.32701;;-157.95165;;-168.90353;;-180.92659;;-196.72148;;-214.42667;;-230.50541;;-244.17582;;-259.09706;;-280.54385;;-311.37487;;-351.13826;;-398.08612;;-450.39657;;-505.65692;;-565.45761;;-631.72079;;-698.58145;;-757.33165;;-806.72956;;-854.76709;;-904.63923;;-948.62483;;-977.92741;;-992.43268;;-999.07788;;-1003.6592;;-1007.2176;;-1008.5988;;-1007.7928;;-1006.4604;;-1006.3043;;-1007.6622;;-1009.6213;;-1011.1643;;-1011.9742;;-1012.2891;;-1012.3736;;-1012.296;;-1012.0282;;-1011.5574;;-1010.9153;;-1010.2255;;-1009.7477;;-1009.7477
-16.181648;;-16.181648;;-18.121434;;-20.903167;;-24.361395;;-28.266451;;-32.530828;;-35.968269;;-35.813227;;-33.641519;;-31.944355;;-34.17148;;-40.268755;;-48.943493;;-60.137927;;-73.962919;;-90.392938;;-109.48508;;-130.91719;;-153.67683;;-175.51368;;-192.84033;;-205.45103;;-218.88026;;-236.53952;;-256.66134;;-275.6015;;-292.77866;;-312.13906;;-338.86797;;-375.20517;;-419.22669;;-465.63628;;-508.04054;;-547.53165;;-596.20586;;-657.25694;;-719.21956;;-767.85923;;-803.65497;;-843.22578;;-893.61114;;-943.65401;;-978.76829;;-995.82612;;-1002.4145;;-1005.9792;;-1008.6926;;-1009.8908;;-1009.3837;;-1008.2116;;-1007.6779;;-1008.3419;;-1009.783;;-1011.1732;;-1012.0223;;-1012.3782;;-1012.4917;;-1012.5144;;-1012.4757;;-1012.3543;;-1012.1295;;-1011.8387;;-1011.6164;;-1011.6164
