-15.564805;;-15.564805;;-15.592654;;-16.867599;;-19.475547;;-23.140665;;-27.921464;;-33.976259;;-41.414905;;-50.337802;;-60.973687;;-72.814552;;-85.452158;;-97.517966;;-107.34216;;-119.23174;;-136.9149;;-161.57103;;-194.04385;;-235.03289;;-285.14148;;-343.92861;;-410.22135;;-482.78444;;-560.3036;;-641.65031;;-724.94779;;-806.98274;;-883.75037;;-952.09512;;-1011.5907;;-1064.4995;;-1113.4663;;-1159.2929;;-1201.1217;;-1238.4066;;-1271.7642;;-1301.9184;;-1328.9557;;-1352.7713;;-1373.3959;;-1390.8993;;-1405.4995;;-1417.6127;;-1427.6388;;-1436.1051;;-1444.1178;;-1453.1858;;-1464.2606;;-1477.0906;;-1490.591;;-1503.4286;;-1514.0658;;-1521.006;;-1523.8218;;-1523.7409;;-1522.549;;-1521.1871;;-1520.2217;;-1520.7229;;-1523.0129;;-1525.548;;-1526.6948;;-1526.6897;;-1526.6897
-15.564858;;-15.564858;;-15.648919;;-17.268506;;-20.091106;;-23.983056;;-29.037511;;-35.431067;;-43.278041;;-52.699122;;-63.9295;;-76.451329;;-89.826557;;-102.58215;;-112.77235;;-125.85274;;-145.9002;;-173.35163;;-208.62656;;-252.30701;;-304.7691;;-364.98256;;-431.71015;;-503.37739;;-578.9134;;-657.63327;;-737.7861;;-816.39265;;-889.80366;;-954.85215;;-1011.0041;;-1061.0758;;-1108.4823;;-1154.2116;;-1197.2153;;-1236.7219;;-1272.7618;;-1305.0345;;-1332.7831;;-1355.6857;;-1374.0975;;-1388.7401;;-1400.6155;;-1410.7792;;-1419.9926;;-1428.9698;;-1438.7715;;-1450.3439;;-1463.6854;;-1477.8177;;-1491.467;;-1503.4613;;-1512.6701;;-1518.3096;;-1520.7514;;-1521.6656;;-1522.7578;;-1524.4557;;-1526.2986;;-1528.0093;;-1529.2207;;-1529.029;;-1527.2372;;-1525.4037;;-1525.4037
-15.564932;;-15.564932;;-15.70945;;-17.503462;;-20.449249;;-24.472662;;-29.686422;;-36.27875;;-44.370049;;-54.094778;;-65.699686;;-78.676237;;-92.613364;;-106.11403;;-117.53759;;-133.3619;;-156.89602;;-188.10774;;-227.23175;;-274.69492;;-329.9787;;-391.97584;;-458.94276;;-528.93065;;-601.17564;;-675.30218;;-749.85552;;-822.71586;;-891.19024;;-952.39697;;-1005.6673;;-1053.9297;;-1100.7655;;-1146.9239;;-1191.1352;;-1232.6978;;-1271.404;;-1306.058;;-1334.8977;;-1357.136;;-1373.3896;;-1385.2386;;-1394.7076;;-1403.484;;-1412.4492;;-1422.2766;;-1433.943;;-1447.9418;;-1463.3841;;-1478.4361;;-1491.465;;-1501.6166;;-1508.716;;-1513.1475;;-1515.96;;-1518.6549;;-1522.2672;;-1526.5673;;-1530.4357;;-1532.7443;;-1532.4588;;-1528.8262;;-1522.8659;;-1518.1196;;-1518.1196
-15.564911;;-15.564911;;-15.69321;;-17.447665;;-20.363843;;-24.355782;;-29.532718;;-36.082084;;-44.130728;;-53.817177;;-65.406931;;-78.431936;;-92.597426;;-106.87776;;-121.01025;;-141.28024;;-169.14929;;-204.74716;;-248.35848;;-299.56868;;-357.53388;;-420.75527;;-486.8235;;-553.74326;;-621.29435;;-689.28099;;-756.71332;;-822.68459;;-885.76367;;-943.61038;;-995.39468;;-1043.5435;;-1090.9861;;-1137.9076;;-1182.9356;;-1225.6873;;-1266.0818;;-1302.4303;;-1332.1735;;-1354.0648;;-1368.952;;-1379.1902;;-1387.6275;;-1396.3616;;-1406.2083;;-1417.5703;;-1431.1394;;-1447.0407;;-1463.8364;;-1479.0784;;-1490.8317;;-1498.6999;;-1503.6903;;-1507.3007;;-1510.832;;-1515.2215;;-1520.7702;;-1526.7848;;-1531.8326;;-1534.2809;;-1532.346;;-1524.8328;;-1513.6559;;-1504.9883;;-1504.9883
-15.56485;;-15.56485;;-15.637608;;-17.206754;;-19.993848;;-23.848385;;-28.860881;;-35.210282;;-43.031854;;-52.463674;;-63.799998;;-76.647084;;-90.926531;;-106.32477;;-124.77644;;-149.68057;;-181.8189;;-221.67256;;-269.17824;;-323.40017;;-383.16774;;-446.14228;;-509.40857;;-571.76252;;-633.91768;;-695.88522;;-757.03604;;-817.26408;;-876.07235;;-931.8432;;-983.74078;;-1033.146;;-1081.6421;;-1128.8332;;-1173.6213;;-1216.131;;-1256.5838;;-1293.2643;;-1323.3123;;-1345.2368;;-1360.0266;;-1370.437;;-1379.6137;;-1389.7421;;-1401.5498;;-1415.097;;-1430.5223;;-1447.5112;;-1464.4907;;-1479.0465;;-1489.4131;;-1495.7102;;-1499.6757;;-1503.1579;;-1507.2088;;-1512.3757;;-1518.7958;;-1525.6966;;-1531.4039;;-1533.7483;;-1530.0436;;-1518.3237;;-1501.2621;;-1488.0609;;-1488.0609
-15.564834;;-15.564834;;-15.606641;;-16.986098;;-19.648225;;-23.368186;;-28.218693;;-34.371511;;-41.975052;;-51.34942;;-62.301231;;-75.085524;;-89.791487;;-107.16595;;-129.28947;;-157.57232;;-192.8932;;-235.78113;;-285.57566;;-341.40595;;-401.3448;;-462.24709;;-521.42136;;-579.19304;;-637.18821;;-695.59503;;-753.70781;;-811.22747;;-867.93348;;-923.03846;;-975.94067;;-1026.8159;;-1075.6744;;-1121.764;;-1164.6994;;-1205.2668;;-1244.0541;;-1279.7338;;-1309.6754;;-1332.2521;;-1348.2462;;-1360.3376;;-1371.5858;;-1384.0733;;-1398.4454;;-1414.401;;-1431.3212;;-1448.3386;;-1464.1405;;-1477.1938;;-1486.6034;;-1492.9159;;-1497.6725;;-1502.0337;;-1506.4493;;-1511.4758;;-1517.6812;;-1524.5427;;-1530.209;;-1531.9997;;-1526.4706;;-1511.0999;;-1489.253;;-1472.4735;;-1472.4735
-15.564916;;-15.564916;;-15.604282;;-16.916839;;-19.519961;;-23.166492;;-27.922387;;-33.956069;;-41.427352;;-50.670217;;-61.538783;;-74.418255;;-89.728992;;-108.63189;;-132.45182;;-162.29209;;-199.0358;;-242.78654;;-292.94465;;-348.38605;;-406.72887;;-464.77667;;-520.93015;;-576.6319;;-633.78059;;-692.50392;;-751.53776;;-809.61891;;-866.16335;;-921.0838;;-974.33558;;-1025.3957;;-1073.1424;;-1116.7123;;-1156.518;;-1193.9935;;-1230.121;;-1264.1992;;-1294.1013;;-1317.9698;;-1335.935;;-1350.2734;;-1363.9453;;-1378.9922;;-1395.9406;;-1414.0514;;-1431.9142;;-1448.1855;;-1462.1206;;-1473.5873;;-1482.919;;-1490.8301;;-1497.9034;;-1504.0146;;-1508.9376;;-1513.3992;;-1518.5167;;-1524.1944;;-1528.722;;-1529.3303;;-1522.498;;-1505.9083;;-1483.2837;;-1466.2243;;-1466.2243
-15.565353;;-15.565353;;-15.629968;;-17.018255;;-19.61657;;-23.222108;;-27.90085;;-33.812474;;-41.274071;;-50.101186;;-60.677276;;-73.254152;;-88.38388;;-107.19923;;-130.84465;;-160.31382;;-196.41204;;-239.06668;;-287.74924;;-341.34038;;-397.67923;;-454.27165;;-510.4044;;-567.60651;;-627.46049;;-689.79058;;-752.5724;;-813.22336;;-870.28326;;-924.11191;;-975.71413;;-1024.9387;;-1070.3687;;-1111.05;;-1147.7688;;-1182.3664;;-1216.1769;;-1249.0214;;-1279.1407;;-1304.3636;;-1324.093;;-1340.179;;-1355.6067;;-1372.53;;-1391.3719;;-1410.9695;;-1429.3819;;-1445.1706;;-1458.2408;;-1469.5301;;-1480.1172;;-1490.5141;;-1500.2561;;-1508.1618;;-1513.5832;;-1517.3427;;-1520.8652;;-1524.5102;;-1527.07;;-1526.2546;;-1519.3303;;-1504.9876;;-1486.7061;;-1473.3934;;-1473.3934
-15.567142;;-15.567142;;-15.75428;;-17.399352;;-20.06421;;-23.648683;;-28.220576;;-33.906818;;-40.957013;;-49.177938;;-58.859278;;-70.122602;;-83.42011;;-100.17586;;-121.8395;;-149.32744;;-183.34639;;-223.95889;;-270.63562;;-322.56182;;-378.10703;;-435.40608;;-493.96105;;-554.945;;-619.48575;;-686.95256;;-754.44439;;-817.95724;;-874.93492;;-926.11999;;-974.14891;;-1020.2984;;-1063.4769;;-1102.3564;;-1137.416;;-1170.5537;;-1203.3366;;-1235.7579;;-1266.0468;;-1291.8027;;-1312.1179;;-1328.6693;;-1344.4908;;-1361.8991;;-1381.3545;;-1401.5292;;-1420.4497;;-1437.0525;;-1451.6927;;-1465.3575;;-1478.7549;;-1491.8153;;-1503.5097;;-1512.3969;;-1517.8776;;-1520.8626;;-1522.9051;;-1524.7279;;-1525.637;;-1524.0041;;-1518.2703;;-1508.3578;;-1496.9866;;-1489.1993;;-1489.1993
-15.577277;;-15.577277;;-16.268808;;-18.302671;;-21.206194;;-24.932736;;-29.512214;;-34.91273;;-41.372293;;-48.613776;;-56.871117;;-66.051091;;-76.24616;;-89.665716;;-108.51401;;-133.2571;;-164.42253;;-202.43278;;-246.91188;;-297.54795;;-353.33726;;-412.70641;;-474.72442;;-540.09866;;-609.6411;;-682.13436;;-753.65928;;-818.90914;;-874.50833;;-921.9102;;-965.76603;;-1009.1736;;-1051.5106;;-1090.6829;;-1126.1876;;-1159.5269;;-1192.344;;-1224.643;;-1254.4962;;-1279.4823;;-1298.8654;;-1314.4216;;-1329.1807;;-1345.5939;;-1364.3824;;-1384.4452;;-1404.1471;;-1422.9132;;-1441.1884;;-1459.2057;;-1476.4878;;-1492.1348;;-1505.0112;;-1514.0962;;-1519.2561;;-1521.6511;;-1523.0206;;-1524.3047;;-1524.9773;;-1523.7742;;-1520.0262;;-1514.4416;;-1508.8979;;-1505.484;;-1505.484
-15.728849;;-15.728849;;-17.255207;;-19.745016;;-23.039125;;-27.120086;;-31.872454;;-37.362512;;-43.026752;;-48.820455;;-55.200389;;-62.114948;;-69.080363;;-78.870665;;-95.054066;;-117.1634;;-145.51289;;-180.74263;;-222.84585;;-271.91591;;-327.62965;;-388.93656;;-454.57185;;-524.37557;;-598.49756;;-674.89999;;-748.65399;;-813.58556;;-866.31414;;-909.52001;;-949.7559;;-991.71157;;-1035.1187;;-1076.8623;;-1114.8794;;-1149.6499;;-1182.6811;;-1214.2441;;-1242.6765;;-1265.8836;;-1283.4746;;-1297.2888;;-1310.2115;;-1324.8163;;-1342.3348;;-1362.2038;;-1383.0792;;-1404.4315;;-1426.4747;;-1448.7905;;-1469.9249;;-1488.1778;;-1502.2814;;-1511.6747;;-1516.7887;;-1519.2018;;-1520.9557;;-1523.0847;;-1524.944;;-1525.3014;;-1523.8146;;-1521.3102;;-1519.0159;;-1517.7515;;-1517.7515
-16.578568;;-16.578568;;-18.607944;;-21.57465;;-25.357503;;-29.875845;;-34.974724;;-40.53976;;-45.512166;;-49.268845;;-53.598321;;-58.641247;;-63.260362;;-69.716672;;-83.729167;;-103.63118;;-129.5628;;-162.20453;;-201.95336;;-249.14343;;-304.06036;;-366.36947;;-435.11611;;-509.14322;;-587.05642;;-665.67656;;-739.30938;;-801.66003;;-850.2906;;-889.36339;;-926.85944;;-968.56398;;-1014.4321;;-1060.2874;;-1102.1751;;-1139.0231;;-1171.9661;;-1201.9119;;-1228.1726;;-1249.4647;;-1265.6852;;-1278.3289;;-1289.8094;;-1302.7993;;-1319.2398;;-1339.2175;;-1361.3613;;-1384.6061;;-1408.8469;;-1433.7629;;-1457.8314;;-1478.8223;;-1494.9495;;-1505.5978;;-1511.5224;;-1514.7132;;-1517.4919;;-1520.9545;;-1524.4378;;-1526.7533;;-1527.4825;;-1527.0534;;-1526.2173;;-1525.6334;;-1525.6334
-17.855365;;-17.855365;;-20.1902;;-23.566586;;-27.825715;;-32.802869;;-38.298073;;-43.961756;;-47.940206;;-49.575994;;-52.246929;;-56.097538;;-59.464101;;-62.986253;;-75.247196;;-93.374046;;-117.3503;;-147.86528;;-185.6393;;-231.13002;;-285.06119;;-347.63019;;-418.27269;;-495.32353;;-575.72309;;-654.70397;;-725.99956;;-784.14264;;-828.31828;;-863.91319;;-899.66295;;-941.88387;;-990.54994;;-1040.5326;;-1086.1748;;-1124.9514;;-1157.6007;;-1185.7428;;-1209.998;;-1230.2096;;-1246.4471;;-1259.3998;;-1270.659;;-1282.9176;;-1298.8074;;-1318.9453;;-1341.7614;;-1365.5735;;-1390.1747;;-1415.9332;;-1441.9237;;-1465.6647;;-1484.601;;-1497.5689;;-1505.2488;;-1509.7744;;-1513.57;;-1517.8856;;-1522.4356;;-1526.3652;;-1529.0705;;-1530.3283;;-1530.4142;;-1530.1064;;-1530.1064
-19.072944;;-19.072944;;-21.64858;;-25.359779;;-30.013702;;-35.377696;;-41.187884;;-46.863565;;-49.582768;;-49.714048;;-51.331681;;-54.582949;;-57.579024;;-59.064357;;-69.762728;;-86.49272;;-109.02658;;-137.99926;;-174.35648;;-218.59725;;-271.62131;;-333.89438;;-405.06095;;-483.33065;;-564.67797;;-642.62994;;-710.40178;;-764.20644;;-805.01183;;-838.78502;;-874.16691;;-917.30515;;-967.92964;;-1020.2795;;-1067.8214;;-1107.4086;;-1139.6847;;-1166.736;;-1190.1339;;-1210.6117;;-1228.2205;;-1242.7262;;-1254.8885;;-1267.3112;;-1282.9839;;-1302.8128;;-1325.2486;;-1348.4914;;-1372.4901;;-1398.2173;;-1425.3173;;-1451.3002;;-1473.1056;;-1488.9728;;-1499.1086;;-1505.3027;;-1509.8362;;-1514.2439;;-1518.9681;;-1523.8016;;-1528.0977;;-1530.9634;;-1532.068;;-1532.1437;;-1532.1437
-20.050227;;-20.050227;;-22.795941;;-26.740453;;-31.660887;;-37.265049;;-43.219713;;-48.744841;;-50.368669;;-49.835179;;-50.901961;;-53.835907;;-56.899417;;-57.843692;;-66.690303;;-82.258169;;-103.7392;;-131.618;;-166.85467;;-210.08263;;-262.15671;;-323.68158;;-394.41979;;-472.61025;;-553.87369;;-630.57305;;-695.57465;;-746.95707;;-787.03414;;-821.54517;;-858.08013;;-901.94168;;-952.59649;;-1004.3689;;-1051.0256;;-1089.8031;;-1121.5829;;-1148.5326;;-1172.4181;;-1194.1753;;-1213.638;;-1229.9989;;-1243.5497;;-1256.6372;;-1272.1152;;-1291.0592;;-1312.4367;;-1334.8692;;-1358.3444;;-1383.7901;;-1411.0654;;-1438.0656;;-1461.9219;;-1480.5685;;-1493.4387;;-1501.512;;-1506.6986;;-1510.7911;;-1515.0075;;-1519.9907;;-1525.3611;;-1529.6965;;-1531.9319;;-1532.5217;;-1532.5217
-20.878853;;-20.878853;;-23.74305;;-27.843901;;-32.927719;;-38.640887;;-44.74074;;-49.708764;;-50.791122;;-50.354934;;-51.22831;;-53.860746;;-56.988459;;-58.413643;;-64.843862;;-79.315293;;-99.846856;;-126.71888;;-160.84635;;-202.99317;;-253.90726;;-314.28898;;-384.01496;;-461.47559;;-542.40443;;-618.91426;;-683.74797;;-736.08931;;-778.78083;;-816.58753;;-855.2747;;-898.92954;;-947.21098;;-995.58364;;-1039.1319;;-1075.9755;;-1107.1867;;-1134.614;;-1159.5829;;-1182.6814;;-1203.5719;;-1221.4546;;-1236.5088;;-1250.5535;;-1265.921;;-1283.9291;;-1304.4344;;-1326.5849;;-1349.9798;;-1374.913;;-1401.3363;;-1428.006;;-1452.8135;;-1473.5848;;-1488.8831;;-1498.7882;;-1504.7596;;-1508.5927;;-1511.988;;-1516.4569;;-1522.2091;;-1527.5691;;-1530.7695;;-1531.8549;;-1531.8549
-21.75105;;-21.75105;;-24.711511;;-28.930773;;-34.116912;;-39.845641;;-45.775226;;-50.150781;;-51.421938;;-51.681897;;-52.682477;;-54.953662;;-57.811155;;-59.62473;;-63.429124;;-76.746358;;-96.22629;;-121.96216;;-154.81483;;-195.68903;;-245.18741;;-304.09571;;-372.44118;;-448.8887;;-529.64405;;-607.38699;;-674.85066;;-731.12528;;-778.75759;;-821.14916;;-862.00588;;-904.34895;;-948.6203;;-992.26585;;-1032.1325;;-1067.0485;;-1097.8584;;-1125.7699;;-1151.4639;;-1175.191;;-1196.8168;;-1215.9999;;-1232.8503;;-1248.3688;;-1264.2046;;-1281.9399;;-1302.2093;;-1324.4044;;-1347.5694;;-1371.4782;;-1396.4573;;-1422.3162;;-1447.6243;;-1469.8998;;-1486.8992;;-1498.1606;;-1504.9019;;-1508.688;;-1511.2547;;-1514.7292;;-1520.0284;;-1525.597;;-1529.2701;;-1530.6843;;-1530.6843
-22.769388;;-22.769388;;-25.817277;;-30.129371;;-35.350058;;-41.155117;;-46.577696;;-50.458803;;-52.478261;;-53.75663;;-55.139531;;-57.074591;;-59.360058;;-61.104879;;-62.828028;;-74.618974;;-92.855616;;-117.37049;;-148.88881;;-188.42724;;-236.47207;;-293.85124;;-360.77015;;-436.21995;;-517.01336;;-596.72183;;-668.07015;;-729.12179;;-781.63171;;-827.88523;;-870.08026;;-910.48814;;-950.58213;;-989.93419;;-1027.0001;;-1060.8722;;-1091.7392;;-1119.9991;;-1145.8175;;-1169.4866;;-1191.5076;;-1212.182;;-1231.4316;;-1249.287;;-1266.6339;;-1285.0527;;-1305.4479;;-1327.1975;;-1349.1869;;-1371.3938;;-1394.9083;;-1420.3834;;-1446.5286;;-1470.1405;;-1488.1845;;-1500.0372;;-1507.0867;;-1510.8162;;-1512.7623;;-1515.177;;-1519.4136;;-1524.3111;;-1527.7895;;-1529.2487;;-1529.2487
-23.975244;;-23.975244;;-27.10703;;-31.493841;;-36.815652;;-42.192152;;-47.081409;;-50.851509;;-53.737352;;-55.991323;;-57.848352;;-59.611453;;-61.428117;;-63.067552;;-64.124591;;-73.309567;;-90.20273;;-113.62026;;-144.00501;;-182.34462;;-229.20316;;-285.33565;;-351.12677;;-425.86046;;-506.88089;;-588.52071;;-663.32806;;-727.83387;;-782.99998;;-830.83729;;-872.9916;;-911.33292;;-948.0255;;-984.24854;;-1019.7168;;-1053.6367;;-1085.4134;;-1114.5219;;-1140.6438;;-1164.2834;;-1186.7427;;-1209.0788;;-1231.162;;-1252.1561;;-1272.0065;;-1291.7777;;-1312.209;;-1332.7877;;-1352.8588;;-1373.1159;;-1395.3699;;-1420.7173;;-1447.7236;;-1472.4232;;-1490.9805;;-1502.5909;;-1509.0778;;-1512.4037;;-1514.132;;-1516.1109;;-1519.4273;;-1523.2254;;-1525.9452;;-1527.1171;;-1527.1171
-25.43733;;-25.43733;;-28.526095;;-32.892787;;-38.045441;;-43.006357;;-47.377612;;-51.280971;;-54.78913;;-57.702782;;-59.949106;;-61.76022;;-63.58157;;-65.585462;;-67.077891;;-72.798344;;-88.423219;;-110.89703;;-140.36366;;-177.73777;;-223.73921;;-278.98026;;-344.00401;;-418.32502;;-499.67471;;-582.85424;;-659.90147;;-725.52877;;-780.33788;;-827.09411;;-867.85358;;-904.31482;;-938.66554;;-972.85799;;-1007.6487;;-1042.6321;;-1076.6141;;-1107.9963;;-1135.6685;;-1160.0467;;-1183.0539;;-1206.6651;;-1231.2258;;-1255.4497;;-1278.1737;;-1299.4591;;-1319.7792;;-1339.1636;;-1357.7933;;-1376.8697;;-1398.264;;-1423.037;;-1449.7843;;-1474.3676;;-1492.4259;;-1502.7498;;-1507.5917;;-1510.0243;;-1512.1277;;-1514.8974;;-1518.2256;;-1521.1389;;-1522.8686;;-1523.5191;;-1523.5191
-28.33856;;-28.33856;;-30.962566;;-35.131292;;-39.667181;;-43.957726;;-47.915157;;-51.833699;;-55.527127;;-58.655883;;-61.053182;;-62.992368;;-65.201506;;-67.988967;;-70.211253;;-72.848914;;-87.168347;;-108.68976;;-137.28881;;-173.77935;;-219.0178;;-273.46051;;-337.77265;;-411.64637;;-493.08033;;-577.1093;;-655.02173;;-719.58894;;-771.73733;;-815.77951;;-854.63897;;-889.90182;;-923.26488;;-956.72879;;-991.82097;;-1028.7832;;-1066.1187;;-1101.1462;;-1131.6898;;-1157.674;;-1181.287;;-1205.4155;;-1231.3506;;-1257.9147;;-1282.999;;-1305.5592;;-1325.9073;;-1344.9037;;-1363.5461;;-1382.9929;;-1404.3905;;-1428.2349;;-1453.2463;;-1475.7804;;-1491.6023;;-1499.2693;;-1501.4694;;-1502.6794;;-1505.7406;;-1510.452;;-1514.8258;;-1517.409;;-1518.3343;;-1518.506;;-1518.506
-32.692057;;-32.692057;;-34.944207;;-38.620611;;-42.458074;;-46.105179;;-49.688267;;-53.214719;;-56.470887;;-59.210586;;-61.31592;;-63.153856;;-65.665633;;-69.102949;;-71.809371;;-72.703524;;-85.591699;;-106.10347;;-133.75478;;-169.21377;;-213.41183;;-266.71882;;-329.86987;;-402.70038;;-483.42508;;-567.2819;;-645.04364;;-707.73257;;-756.94022;;-798.6773;;-836.61708;;-872.14523;;-906.25884;;-940.57735;;-976.99068;;-1016.2912;;-1056.9264;;-1095.4999;;-1129.0079;;-1156.847;;-1181.1713;;-1205.4007;;-1231.6439;;-1259.1433;;-1285.4242;;-1308.8104;;-1329.5908;;-1349.2745;;-1369.3367;;-1390.5531;;-1413.0145;;-1436.2644;;-1458.872;;-1477.905;;-1489.983;;-1494.1015;;-1493.4764;;-1493.6387;;-1497.8607;;-1504.6789;;-1510.337;;-1512.986;;-1513.5765;;-1513.5955;;-1513.5955
-38.118875;;-38.118875;;-40.12797;;-43.382712;;-46.832698;;-50.43538;;-53.805681;;-56.45364;;-58.44533;;-59.980912;;-61.15458;;-62.429068;;-64.754958;;-68.196839;;-70.837496;;-71.135919;;-82.883905;;-102.35736;;-128.81811;;-162.83546;;-205.3724;;-256.79728;;-317.88104;;-388.61138;;-467.48795;;-550.21614;;-627.93564;;-690.5421;;-739.35921;;-781.40257;;-820.66749;;-858.17328;;-894.26146;;-930.17289;;-967.94751;;-1008.71;;-1051.0388;;-1091.4509;;-1126.7511;;-1156.0842;;-1181.3674;;-1205.9232;;-1232.0095;;-1259.2288;;-1285.4591;;-1309.2044;;-1330.8666;;-1352.1116;;-1374.4073;;-1398.0243;;-1422.0653;;-1445.0744;;-1465.3096;;-1480.6307;;-1489.0659;;-1490.5873;;-1488.6313;;-1488.6663;;-1493.6619;;-1501.3665;;-1507.3404;;-1509.8783;;-1510.4606;;-1510.6309;;-1510.6309
-44.023234;;-44.203025;;-46.031058;;-48.909382;;-52.530395;;-56.650585;;-60.097057;;-61.741245;;-61.840865;;-61.387717;;-61.010147;;-61.287858;;-62.951432;;-65.79341;;-67.9769;;-68.336717;;-79.075613;;-97.309309;;-122.19187;;-154.22737;;-194.39697;;-243.13998;;-301.24859;;-368.93021;;-445.13251;;-526.44406;;-605.45358;;-671.95129;;-724.92498;;-770.89266;;-813.68016;;-853.90588;;-891.59856;;-928.06876;;-965.68376;;-1005.8637;;-1047.505;;-1087.6158;;-1123.3965;;-1153.9358;;-1180.6194;;-1206.0214;;-1231.9068;;-1258.1285;;-1283.467;;-1307.2468;;-1330.0754;;-1353.3696;;-1378.18;;-1404.1331;;-1429.4304;;-1451.8836;;-1469.8297;;-1482.3117;;-1489.0176;;-1490.7351;;-1490.194;;-1491.4021;;-1496.3821;;-1502.9775;;-1507.5539;;-1509.211;;-1509.6329;;-1509.9545;;-1509.9545
-49.608497;;-49.791239;;-51.36292;;-54.348241;;-58.802214;;-63.878691;;-67.609864;;-68.243545;;-66.25282;;-63.481518;;-61.245619;;-60.288896;;-61.042825;;-62.984814;;-64.632259;;-65.485201;;-75.039642;;-91.817251;;-114.85627;;-144.60788;;-182.04069;;-227.83106;;-282.72798;;-347.22527;;-420.81823;;-501.16045;;-582.70474;;-656.27978;;-717.36683;;-770.09371;;-817.45307;;-859.76505;;-897.44903;;-932.52787;;-967.89631;;-1005.2929;;-1044.1548;;-1082.3904;;-1117.9199;;-1149.7421;;-1178.3074;;-1204.9584;;-1230.723;;-1255.7679;;-1280.0031;;-1303.7626;;-1327.8574;;-1353.259;;-1380.3754;;-1408.1012;;-1433.8972;;-1455.2976;;-1471.3065;;-1482.4366;;-1489.7479;;-1494.1676;;-1496.946;;-1499.9676;;-1504.1754;;-1508.1534;;-1509.9967;;-1510.0382;;-1510.0157;;-1510.3983;;-1510.3983
-53.321554;;-53.321554;;-55.074533;;-58.747382;;-64.382793;;-70.523525;;-74.61178;;-74.330176;;-70.610833;;-65.887482;;-61.978557;;-59.824895;;-59.597568;;-60.574609;;-61.751044;;-63.438021;;-72.065535;;-87.444019;;-108.6851;;-136.23751;;-171.08143;;-214.29476;;-266.54768;;-328.50571;;-400.10474;;-479.84528;;-563.69219;;-644.15406;;-714.59584;;-775.33445;;-827.43045;;-871.00616;;-907.54296;;-940.12822;;-972.06181;;-1005.3607;;-1040.2455;;-1075.7757;;-1110.6589;;-1143.7087;;-1174.249;;-1202.2895;;-1228.2065;;-1252.5329;;-1276.1556;;-1300.2266;;-1325.6519;;-1352.8266;;-1381.4262;;-1409.8645;;-1435.4799;;-1456.1046;;-1471.4805;;-1482.9726;;-1492.0599;;-1499.3006;;-1504.776;;-1508.9028;;-1511.8903;;-1513.051;;-1512.1406;;-1510.7188;;-1510.518;;-1511.1764;;-1511.1764
-55.134716;;-55.134716;;-57.035935;;-61.284747;;-67.71759;;-74.539169;;-78.877959;;-78.125131;;-73.558262;;-67.835624;;-62.946153;;-59.913277;;-58.784471;;-58.823891;;-59.591504;;-62.313862;;-70.910451;;-85.227504;;-104.96225;;-130.67359;;-163.35957;;-204.281;;-254.46003;;-314.41349;;-384.27713;;-463.07249;;-547.81525;;-632.6967;;-711.15501;;-779.96341;;-837.03226;;-881.96353;;-917.55403;;-947.90615;;-976.45642;;-1005.5204;;-1036.3083;;-1069.0114;;-1102.9364;;-1136.6818;;-1168.6744;;-1197.9458;;-1224.4809;;-1249.0814;;-1273.1475;;-1298.1707;;-1324.9012;;-1353.0531;;-1381.703;;-1409.4941;;-1434.6997;;-1455.9184;;-1472.8812;;-1486.285;;-1496.8768;;-1504.9421;;-1510.6378;;-1514.2882;;-1515.8986;;-1515.1466;;-1512.7945;;-1511.1148;;-1511.5696;;-1512.9034;;-1512.9034
-56.36529;;-56.548448;;-57.895132;;-61.78235;;-67.984154;;-74.621318;;-78.842471;;-78.301491;;-74.073642;;-68.559841;;-63.649723;;-60.311006;;-58.530303;;-57.800572;;-58.320216;;-62.267742;;-71.472544;;-85.17096;;-103.62198;;-127.70084;;-158.54284;;-197.41869;;-245.66683;;-303.82945;;-371.92551;;-449.2936;;-533.69936;;-620.73691;;-704.78863;;-780.36742;;-842.16877;;-888.86789;;-924.25302;;-953.11659;;-978.96896;;-1004.5883;;-1032.1974;;-1062.7681;;-1095.7938;;-1129.6315;;-1162.2406;;-1192.2648;;-1219.6793;;-1245.485;;-1271.0558;;-1297.5309;;-1325.1047;;-1352.8963;;-1379.947;;-1406.0778;;-1431.3642;;-1455.1243;;-1475.8661;;-1492.1529;;-1503.4385;;-1510.3314;;-1514.2003;;-1516.2028;;-1516.5059;;-1514.9982;;-1512.8857;;-1512.3932;;-1514.2257;;-1516.3847;;-1516.3847
-57.137154;;-57.32118;;-57.92472;;-60.798767;;-66.106544;;-71.973516;;-75.699214;;-75.501567;;-72.277429;;-67.894719;;-63.818459;;-60.772535;;-58.768827;;-57.699368;;-58.386359;;-63.590007;;-73.550871;;-87.224674;;-104.72021;;-127.2137;;-156.39643;;-193.67399;;-240.33022;;-297.23786;;-364.09649;;-440.3674;;-524.24966;;-612.11872;;-698.87192;;-777.95487;;-842.32253;;-889.97135;;-925.06957;;-952.74945;;-976.76591;;-1000.4386;;-1026.6119;;-1056.4467;;-1089.1845;;-1122.898;;-1155.4397;;-1185.5713;;-1213.625;;-1240.8549;;-1268.2646;;-1296.0506;;-1323.5199;;-1349.5398;;-1373.9213;;-1398.3232;;-1424.6892;;-1452.4532;;-1478.009;;-1497.3229;;-1508.8765;;-1514.2196;;-1516.207;;-1516.7603;;-1516.1938;;-1514.685;;-1513.7148;;-1515.0059;;-1518.2549;;-1521.0241;;-1521.0241
-57.028174;;-57.212829;;-57.187035;;-59.145207;;-63.535632;;-68.481702;;-71.517755;;-71.511955;;-69.390077;;-66.472661;;-63.627737;;-61.276447;;-59.554831;;-58.74927;;-60.037988;;-66.016282;;-76.46783;;-90.374101;;-107.53843;;-128.97104;;-157.22557;;-193.90375;;-240.16859;;-297.00061;;-363.9208;;-440.28568;;-524.26511;;-612.09216;;-698.30475;;-776.13173;;-838.8514;;-884.78333;;-918.1291;;-944.33413;;-967.67345;;-991.60202;;-1018.5771;;-1049.1908;;-1082.2827;;-1115.8637;;-1148.0014;;-1177.8068;;-1206.0276;;-1234.1401;;-1262.7424;;-1291.0494;;-1317.5767;;-1341.3415;;-1363.3312;;-1386.8681;;-1415.0054;;-1446.683;;-1476.312;;-1498.0224;;-1510.0582;;-1515.054;;-1516.8221;;-1517.3804;;-1516.8748;;-1515.7178;;-1515.6461;;-1518.0129;;-1521.9005;;-1524.8138;;-1524.8138
-55.984714;;-56.169766;;-55.890402;;-57.408473;;-61.195206;;-65.364876;;-67.766598;;-67.892379;;-66.746504;;-65.161386;;-63.48051;;-61.960852;;-60.921644;;-60.863694;;-62.838978;;-68.932342;;-79.370229;;-93.26594;;-110.38989;;-131.9255;;-160.70825;;-198.2561;;-245.6706;;-303.87566;;-372.25697;;-450.00181;;-534.80254;;-621.89431;;-704.59475;;-776.59573;;-833.31235;;-874.24472;;-903.69761;;-927.92486;;-952.07512;;-978.86205;;-1008.7946;;-1041.0953;;-1074.5452;;-1107.8018;;-1139.5226;;-1169.0735;;-1197.2266;;-1225.3951;;-1253.9813;;-1281.8519;;-1307.3523;;-1329.8679;;-1351.1276;;-1375.0256;;-1404.638;;-1438.3566;;-1469.8219;;-1492.8119;;-1505.9257;;-1512.3507;;-1515.918;;-1518.136;;-1518.7584;;-1518.202;;-1518.2741;;-1520.3209;;-1523.6187;;-1526.0846;;-1526.0846
-54.391375;;-54.576771;;-54.385723;;-55.905094;;-59.433422;;-63.111098;;-65.124962;;-65.419515;;-65.009723;;-64.376388;;-63.57164;;-62.842169;;-62.647081;;-63.467634;;-65.974244;;-71.677833;;-81.532139;;-95.061366;;-112.42632;;-135.41585;;-166.10401;;-205.7242;;-255.43405;;-315.92789;;-386.5811;;-466.3754;;-552.25609;;-637.95226;;-715.13333;;-778.80083;;-827.37414;;-861.58001;;-885.99069;;-908.18544;;-934.36163;;-965.69413;;-999.56924;;-1033.4348;;-1066.6411;;-1099.2915;;-1130.8743;;-1160.6629;;-1188.8338;;-1216.349;;-1243.7456;;-1270.4922;;-1295.5651;;-1318.6456;;-1341.1834;;-1366.268;;-1396.2029;;-1429.3208;;-1460.0676;;-1483.3017;;-1498.1411;;-1507.3588;;-1513.8512;;-1518.4326;;-1520.6905;;-1520.9889;;-1520.9121;;-1521.8783;;-1523.857;;-1525.5152;;-1525.5152
-52.674381;;-52.860061;;-52.959178;;-54.759286;;-58.331415;;-61.869072;;-63.766187;;-64.142065;;-64.038971;;-63.896886;;-63.7173;;-63.709227;;-64.304876;;-65.843311;;-68.672753;;-73.824471;;-82.738546;;-95.9483;;-114.5093;;-139.87878;;-173.14401;;-215.42474;;-267.93581;;-330.88848;;-403.91141;;-485.62476;;-572.09867;;-655.46426;;-726.35434;;-782.00309;;-823.43603;;-852.14414;;-872.79232;;-893.86516;;-922.104;;-957.13688;;-993.68831;;-1027.9787;;-1060.3057;;-1092.3489;;-1124.275;;-1154.8649;;-1183.2229;;-1209.6421;;-1235.116;;-1260.4035;;-1285.559;;-1310.2996;;-1334.9909;;-1361.1749;;-1390.2282;;-1420.9955;;-1449.6824;;-1472.8291;;-1489.7952;;-1502.117;;-1511.2894;;-1517.7051;;-1521.3159;;-1522.6561;;-1522.9668;;-1523.4888;;-1524.642;;-1525.7285;;-1525.7285
-51.08762;;-51.273724;;-51.679379;;-53.826127;;-57.632384;;-61.349235;;-63.351244;;-63.647998;;-63.415485;;-63.40015;;-63.704245;;-64.360231;;-65.594265;;-67.625328;;-70.644946;;-75.358229;;-83.529356;;-97.549265;;-118.38897;;-146.43273;;-182.50409;;-227.7472;;-282.97862;;-348.27062;;-423.33451;;-506.26851;;-592.19621;;-672.01074;;-736.98183;;-786.83682;;-824.08773;;-850.5952;;-870.655;;-892.1829;;-921.28993;;-956.84098;;-992.9717;;-1026.0267;;-1057.1142;;-1088.779;;-1121.4103;;-1153.0881;;-1181.7344;;-1207.0197;;-1230.5273;;-1254.2994;;-1279.2825;;-1305.0794;;-1331.051;;-1357.4945;;-1385.218;;-1413.7722;;-1440.9574;;-1464.4814;;-1483.4148;;-1497.9563;;-1508.593;;-1515.7978;;-1520.1844;;-1522.6399;;-1524.1734;;-1525.5802;;-1527.0847;;-1528.1908;;-1528.1908
-49.673171;;-49.859894;;-50.402344;;-52.679329;;-56.629188;;-60.636445;;-62.966348;;-63.317444;;-62.937373;;-62.960238;;-63.644937;;-64.837081;;-66.540907;;-68.905938;;-72.077128;;-76.589686;;-85.366263;;-101.95572;;-125.62949;;-156.6635;;-195.93567;;-244.39022;;-302.2853;;-369.9154;;-446.57242;;-529.61044;;-613.15127;;-687.91094;;-747.76902;;-794.15623;;-829.91194;;-857.04501;;-879.16791;;-902.36143;;-931.06335;;-964.15637;;-997.17622;;-1027.7436;;-1057.3773;;-1088.629;;-1121.7734;;-1154.3166;;-1183.2669;;-1207.875;;-1230.1154;;-1252.6135;;-1276.585;;-1301.6659;;-1327.098;;-1352.8914;;-1379.7113;;-1407.5029;;-1434.7249;;-1459.2061;;-1479.3656;;-1494.6765;;-1505.5216;;-1512.8132;;-1517.6751;;-1521.2727;;-1524.4939;;-1527.5617;;-1530.0906;;-1531.535;;-1531.535
-48.409499;;-48.59668;;-49.066271;;-51.127554;;-54.908675;;-59.075269;;-61.907297;;-62.776602;;-62.695356;;-62.92559;;-63.875248;;-65.391903;;-67.407898;;-70.020352;;-73.326342;;-78.162109;;-90.294047;;-110.22672;;-137.2922;;-171.99328;;-215.27101;;-267.37032;;-328.69395;;-399.00882;;-476.68973;;-557.86485;;-635.85586;;-703.52927;;-758.51187;;-802.65317;;-838.15655;;-866.81213;;-891.59119;;-916.70935;;-944.77548;;-974.82618;;-1004.2502;;-1032.1354;;-1060.1176;;-1090.3978;;-1123.1672;;-1155.795;;-1184.9201;;-1209.5704;;-1231.6353;;-1253.4153;;-1275.8129;;-1298.7775;;-1322.3505;;-1347.085;;-1373.6701;;-1401.8992;;-1430.0173;;-1455.3799;;-1475.8898;;-1490.9924;;-1501.5294;;-1508.8582;;-1514.3235;;-1519.1734;;-1524.0913;;-1528.6851;;-1532.0177;;-1533.6392;;-1533.6392
-47.325656;;-47.513028;;-47.87622;;-49.585444;;-52.993212;;-57.144333;;-60.519908;;-62.282985;;-62.946946;;-63.55659;;-64.655974;;-66.316459;;-68.551911;;-71.376274;;-74.810217;;-81.908336;;-98.264389;;-121.86939;;-152.8361;;-191.97525;;-239.86269;;-296.71426;;-362.60331;;-436.31071;;-514.45508;;-590.81518;;-659.18626;;-717.73479;;-767.34492;;-809.45355;;-845.05858;;-875.17765;;-902.09253;;-928.78806;;-956.67894;;-984.85086;;-1011.8702;;-1037.7214;;-1063.98;;-1092.5249;;-1123.6886;;-1155.288;;-1184.2371;;-1209.4293;;-1232.1578;;-1253.8827;;-1275.0483;;-1296.0315;;-1317.8732;;-1341.8073;;-1368.4276;;-1397.0266;;-1425.4534;;-1450.8811;;-1471.2149;;-1486.1171;;-1496.7195;;-1504.5313;;-1510.9282;;-1517.092;;-1523.3818;;-1528.8983;;-1532.487;;-1534.015;;-1534.015
-46.227578;;-46.414598;;-46.887391;;-48.495002;;-51.64525;;-55.763865;;-59.640104;;-62.334566;;-63.835235;;-64.847576;;-66.04462;;-67.801658;;-70.247017;;-73.261774;;-76.997961;;-88.162623;;-107.87916;;-134.98926;;-169.93395;;-213.68191;;-266.45314;;-328.5959;;-399.61327;;-477.06549;;-555.06172;;-623.96028;;-680.68258;;-729.56992;;-773.58319;;-813.72488;;-849.78599;;-881.59184;;-910.33332;;-938.08133;;-965.85028;;-993.03614;;-1018.8364;;-1043.4903;;-1068.2311;;-1094.5585;;-1123.1048;;-1152.6548;;-1180.8974;;-1206.5686;;-1230.103;;-1252.2342;;-1273.256;;-1293.8316;;-1315.3866;;-1339.2533;;-1365.6839;;-1393.5941;;-1420.9594;;-1445.5155;;-1465.6297;;-1481.0084;;-1492.5078;;-1501.3154;;-1508.6273;;-1515.5654;;-1522.4278;;-1528.2522;;-1531.9178;;-1533.4251;;-1533.4251
-44.506243;;-44.506243;;-45.640861;;-47.644951;;-50.896548;;-55.126895;;-59.466747;;-62.947559;;-65.17337;;-66.572215;;-67.919878;;-69.824207;;-72.458468;;-75.543452;;-79.969153;;-94.310812;;-116.63272;;-146.59193;;-184.8948;;-232.43805;;-289.3779;;-356.01715;;-431.35395;;-511.82076;;-589.06783;;-650.82081;;-698.30485;;-739.69765;;-779.25597;;-817.94417;;-854.80528;;-888.50934;;-918.86647;;-947.01396;;-974.06996;;-1000.219;;-1025.2444;;-1049.2537;;-1072.7834;;-1096.7737;;-1122.2155;;-1149.1047;;-1176.0698;;-1201.6698;;-1225.6176;;-1248.4043;;-1270.5499;;-1292.6897;;-1315.7179;;-1340.254;;-1366.0756;;-1392.2418;;-1417.5748;;-1440.8624;;-1461.0367;;-1477.5933;;-1490.6298;;-1500.4992;;-1507.9491;;-1514.3079;;-1520.574;;-1526.3632;;-1530.5022;;-1532.4681;;-1532.4681
-41.824151;;-41.824151;;-43.724317;;-46.557439;;-50.276563;;-54.795936;;-59.584856;;-63.736973;;-66.631964;;-68.481814;;-70.084487;;-72.141035;;-74.789564;;-77.607629;;-82.384842;;-98.209059;;-121.97828;;-153.56216;;-193.7699;;-243.38262;;-302.60583;;-371.64633;;-449.20674;;-531.09274;;-607.70788;;-666.49726;;-710.59459;;-748.90535;;-786.4121;;-824.47143;;-861.99533;;-897.01402;;-928.31218;;-956.27606;;-982.21833;;-1007.1498;;-1031.3569;;-1054.6441;;-1076.7786;;-1098.2565;;-1120.53;;-1144.6622;;-1169.9876;;-1194.9928;;-1219.1259;;-1243.0208;;-1267.4182;;-1292.5189;;-1318.0818;;-1343.6314;;-1368.6463;;-1392.8391;;-1416.1703;;-1438.4039;;-1458.8779;;-1476.7941;;-1491.3487;;-1501.8184;;-1508.4131;;-1512.991;;-1517.8485;;-1523.5174;;-1528.5452;;-1531.3621;;-1531.3621
-38.769627;;-38.769627;;-41.503471;;-45.302075;;-49.679125;;-54.582865;;-59.780962;;-64.519715;;-68.078234;;-70.458732;;-72.352535;;-74.426344;;-76.747703;;-78.819964;;-82.966935;;-98.932855;;-122.87706;;-154.62441;;-194.96751;;-244.60474;;-303.76253;;-372.61959;;-449.86296;;-531.39758;;-608.22262;;-669.32706;;-716.19271;;-756.07306;;-794.11664;;-832.31531;;-869.99082;;-905.27083;;-936.74134;;-964.45851;;-989.65973;;-1013.5749;;-1036.5345;;-1057.9668;;-1077.3243;;-1095.4792;;-1114.7555;;-1136.7538;;-1160.828;;-1185.471;;-1210.381;;-1236.3884;;-1263.9832;;-1292.5435;;-1320.7175;;-1347.2842;;-1371.8145;;-1394.7516;;-1416.8504;;-1438.4173;;-1459.0353;;-1477.743;;-1493.1345;;-1503.7587;;-1509.4733;;-1512.5018;;-1516.0518;;-1521.3735;;-1526.9065;;-1530.3146;;-1530.3146
-36.413263;;-36.413263;;-39.854633;;-44.443215;;-49.437909;;-54.68863;;-60.182829;;-65.349521;;-69.462888;;-72.341553;;-74.477862;;-76.411108;;-78.129975;;-79.17554;;-82.054041;;-97.32928;;-120.55456;;-151.40428;;-190.58733;;-238.74269;;-296.081;;-362.80923;;-437.79113;;-517.52298;;-594.72076;;-660.61241;;-713.80386;;-758.44803;;-799.05009;;-838.14605;;-875.81231;;-910.90136;;-942.48411;;-970.5511;;-995.84326;;-1019.0335;;-1039.8572;;-1057.245;;-1071.157;;-1084.4004;;-1101.0463;;-1122.5255;;-1146.9758;;-1172.5527;;-1199.5154;;-1228.8036;;-1260.1275;;-1291.8726;;-1322.1323;;-1349.6956;;-1374.4658;;-1397.2071;;-1418.867;;-1439.9135;;-1460.084;;-1478.5124;;-1493.8737;;-1504.7588;;-1510.8172;;-1513.8189;;-1516.7442;;-1521.2079;;-1526.203;;-1529.4794;;-1529.4794
-35.29808;;-35.29808;;-39.004011;;-44.273236;;-49.70222;;-55.169312;;-60.75298;;-66.0641;;-70.465854;;-73.709454;;-76.089157;;-77.949794;;-79.198035;;-79.516381;;-81.117251;;-95.10855;;-117.11207;;-146.52593;;-183.91101;;-229.86409;;-284.51478;;-348.10152;;-419.71462;;-496.55798;;-573.16322;;-642.8984;;-702.51539;;-753.04606;;-797.55938;;-838.58064;;-876.971;;-912.60623;;-945.23808;;-974.73829;;-1001.0631;;-1023.8918;;-1041.8924;;-1053.3236;;-1059.3725;;-1066.2991;;-1080.8843;;-1103.8142;;-1130.6987;;-1158.6152;;-1188.4036;;-1221.2072;;-1255.8924;;-1290.0569;;-1321.8708;;-1350.6178;;-1376.354;;-1399.6075;;-1421.1244;;-1441.3557;;-1460.1712;;-1477.1942;;-1491.9899;;-1503.7548;;-1511.6533;;-1516.0807;;-1519.0046;;-1522.3441;;-1526.1848;;-1528.9078;;-1528.9078
-34.812627;;-34.812627;;-38.787687;;-44.381568;;-50.122411;;-55.68141;;-61.106356;;-66.223346;;-70.615095;;-74.127972;;-76.914717;;-79.093221;;-80.494093;;-80.983033;;-82.078954;;-93.70313;;-113.99511;;-141.60673;;-176.82688;;-220.27251;;-271.87314;;-331.84241;;-399.46069;;-472.53524;;-547.03512;;-618.05772;;-681.97977;;-737.78156;;-786.74362;;-830.77273;;-871.25647;;-909.01781;;-944.32383;;-976.75643;;-1005.4308;;-1028.9991;;-1045.0115;;-1051.1392;;-1049.9917;;-1051.3514;;-1064.5491;;-1089.3716;;-1118.7877;;-1148.5891;;-1180.0985;;-1214.9165;;-1251.5621;;-1287.3011;;-1320.5803;;-1350.9937;;-1378.2925;;-1402.3799;;-1423.6027;;-1442.294;;-1458.6187;;-1473.2962;;-1487.3853;;-1500.6362;;-1511.1533;;-1517.5794;;-1520.9285;;-1523.5321;;-1526.4967;;-1528.7779;;-1528.7779
-33.950131;;-33.950131;;-38.124944;;-43.986871;;-50.046715;;-55.716743;;-60.836608;;-65.546486;;-69.7933;;-73.610117;;-77.064617;;-80.069293;;-82.409951;;-84.094814;;-86.246298;;-94.56552;;-112.3178;;-137.47696;;-169.96445;;-210.34006;;-258.58604;;-314.58782;;-377.79393;;-446.50722;;-517.75799;;-587.91405;;-653.71977;;-713.26896;;-766.37708;;-814.02402;;-857.73599;;-898.99478;;-938.40327;;-975.27517;;-1008.0235;;-1034.3821;;-1051.1586;;-1056.0505;;-1052.7235;;-1052.3407;;-1064.7638;;-1089.195;;-1117.8532;;-1146.4276;;-1176.7449;;-1210.9518;;-1247.8102;;-1284.6086;;-1319.7238;;-1352.4293;;-1381.7872;;-1406.9268;;-1427.6262;;-1444.0511;;-1457.0281;;-1468.8973;;-1482.2551;;-1496.9462;;-1509.7654;;-1517.9669;;-1522.0558;;-1524.6289;;-1527.2799;;-1529.323;;-1529.323
-32.557787;;-32.557787;;-36.808607;;-42.809885;;-49.136354;;-55.043239;;-59.929602;;-64.264062;;-68.446431;;-72.674442;;-76.94959;;-81.072808;;-84.838306;;-88.33101;;-92.452259;;-99.845632;;-114.07247;;-135.63502;;-164.39082;;-200.64414;;-244.90992;;-296.71719;;-355.4795;;-419.94976;;-487.93998;;-556.6054;;-623.06923;;-685.1495;;-741.7538;;-792.97684;;-840.12519;;-885.0043;;-928.58134;;-970.26666;;-1008.1057;;-1039.0919;;-1059.7503;;-1068.4823;;-1069.3453;;-1071.9822;;-1084.0977;;-1104.8318;;-1128.3414;;-1152.0679;;-1178.4637;;-1210.0246;;-1245.9835;;-1283.6879;;-1320.92;;-1356.0866;;-1387.4717;;-1413.5389;;-1433.5487;;-1447.6841;;-1457.7018;;-1467.3494;;-1479.9911;;-1495.1169;;-1508.7615;;-1517.803;;-1522.6638;;-1525.7522;;-1528.4972;;-1530.4095;;-1530.4095
-31.151085;;-31.151085;;-35.361366;;-41.351673;;-47.808026;;-53.995309;;-58.870422;;-63.018434;;-67.281351;;-71.935455;;-76.931684;;-82.065206;;-87.210296;;-92.509103;;-98.646351;;-107.12476;;-119.66506;;-137.45005;;-161.65767;;-193.16573;;-232.5321;;-280.144;;-335.23602;;-396.71192;;-462.87078;;-531.21719;;-598.88174;;-663.35932;;-722.96439;;-777.17049;;-826.93829;;-874.14088;;-920.22316;;-965.19431;;-1007.2256;;-1042.9049;;-1068.7816;;-1084.0646;;-1092.4393;;-1100.4081;;-1112.4407;;-1128.075;;-1144.7628;;-1162.5399;;-1184.4385;;-1213.0065;;-1247.7957;;-1286.0759;;-1324.8236;;-1361.5037;;-1393.8304;;-1419.9806;;-1439.1467;;-1451.9254;;-1460.8379;;-1469.9334;;-1482.0274;;-1496.0591;;-1508.4313;;-1516.9279;;-1522.2744;;-1526.2436;;-1529.5199;;-1531.5358;;-1531.5358
-30.206694;;-30.206694;;-34.365168;;-40.317655;;-46.847552;;-53.270672;;-58.31587;;-62.420167;;-66.787628;;-71.704321;;-77.088753;;-82.815302;;-88.902435;;-95.568609;;-103.32797;;-113.03884;;-125.45951;;-141.04652;;-161.06868;;-187.99524;;-223.28611;;-267.40862;;-320.49506;;-381.25386;;-448.07166;;-518.48098;;-589.14079;;-656.71956;;-718.87555;;-774.89436;;-825.73024;;-873.31515;;-919.54634;;-965.20674;;-1008.9583;;-1047.4858;;-1077.6278;;-1098.9429;;-1114.0672;;-1126.5569;;-1138.536;;-1150.3148;;-1162.1081;;-1175.7966;;-1194.6044;;-1220.9022;;-1254.3356;;-1292.0865;;-1330.6149;;-1366.8548;;-1398.361;;-1423.4759;;-1441.8129;;-1454.5795;;-1464.4873;;-1474.643;;-1486.373;;-1498.2289;;-1507.9346;;-1514.9819;;-1520.5845;;-1525.675;;-1529.9028;;-1532.3353;;-1532.3353
-29.866786;;-29.866786;;-34.027859;;-40.005796;;-46.638475;;-53.263721;;-58.501579;;-62.532951;;-66.871876;;-71.808434;;-77.223788;;-83.097544;;-89.622037;;-97.096216;;-105.90293;;-116.47924;;-129.02356;;-143.4602;;-160.61724;;-184.14459;;-217.13126;;-260.06796;;-313.06628;;-375.56068;;-445.42787;;-520.15604;;-595.65102;;-667.09675;;-731.19387;;-787.50712;;-837.62825;;-883.85718;;-928.43698;;-972.65123;;-1015.6832;;-1054.8001;;-1087.3943;;-1112.8335;;-1132.2692;;-1147.3119;;-1159.3551;;-1169.6931;;-1179.9139;;-1192.3312;;-1209.802;;-1234.3587;;-1265.6723;;-1301.0944;;-1337.1749;;-1370.9437;;-1400.2231;;-1423.769;;-1441.6551;;-1455.3608;;-1467.1274;;-1478.6524;;-1489.9158;;-1499.5577;;-1506.8252;;-1512.6986;;-1518.6344;;-1524.7706;;-1529.9087;;-1532.7857;;-1532.7857
-29.826621;;-29.826621;;-34.018192;;-39.862932;;-46.793598;;-53.581028;;-58.959247;;-62.819004;;-66.987084;;-71.796775;;-77.067376;;-82.83694;;-89.450376;;-97.277975;;-106.5889;;-117.53297;;-129.98071;;-143.53611;;-158.8832;;-180.78998;;-213.56927;;-257.29815;;-311.98547;;-377.3645;;-451.21606;;-531.03451;;-612.13348;;-688.0814;;-754.08412;;-809.86812;;-858.03176;;-901.69714;;-943.57396;;-985.21963;;-1026.2576;;-1064.7659;;-1098.7103;;-1126.8508;;-1148.7991;;-1165.1887;;-1177.8115;;-1188.8821;;-1200.1971;;-1213.4136;;-1230.5586;;-1253.2474;;-1281.3224;;-1312.7107;;-1344.6067;;-1374.6135;;-1401.0935;;-1423.2166;;-1441.1283;;-1455.8885;;-1468.8531;;-1480.746;;-1491.1706;;-1499.3397;;-1505.5185;;-1511.233;;-1517.6769;;-1524.3993;;-1529.8726;;-1532.8579;;-1532.8579
-29.486679;;-29.486679;;-33.655277;;-39.482796;;-46.447913;;-53.345267;;-58.947081;;-62.719564;;-66.714981;;-71.394528;;-76.529606;;-82.151661;;-88.685096;;-96.545052;;-105.92103;;-116.78431;;-128.81293;;-141.49877;;-155.73155;;-177.70332;;-211.58888;;-256.88987;;-313.67903;;-381.7814;;-459.21504;;-543.64221;;-630.13603;;-711.02331;;-779.64916;;-835.23945;;-881.18948;;-921.68584;;-960.20383;;-998.75258;;-1037.5499;;-1075.4481;;-1110.586;;-1140.7994;;-1164.4983;;-1182.0907;;-1196.1471;;-1209.4707;;-1223.4037;;-1238.4337;;-1255.5533;;-1276.0433;;-1300.1741;;-1326.731;;-1353.7813;;-1379.6616;;-1403.3363;;-1424.2472;;-1442.1819;;-1457.3005;;-1470.1046;;-1481.1168;;-1490.4531;;-1498.0293;;-1504.3851;;-1510.7073;;-1517.6016;;-1524.3189;;-1529.4896;;-1532.2144;;-1532.2144
-28.538583;;-28.538583;;-32.590366;;-38.277452;;-45.167316;;-52.127029;;-58.149792;;-62.167574;;-66.122928;;-70.730322;;-75.802664;;-81.334991;;-87.721844;;-95.370566;;-104.44638;;-114.85963;;-126.21248;;-138.03905;;-151.7817;;-174.90909;;-210.117;;-256.77875;;-315.15906;;-385.12006;;-465.06154;;-552.89523;;-643.78639;;-729.48316;;-801.61701;;-858.19063;;-902.79301;;-940.47482;;-975.59004;;-1010.949;;-1047.6756;;-1085.2424;;-1121.4913;;-1153.315;;-1178.5256;;-1197.7401;;-1214.0469;;-1230.3089;;-1247.1732;;-1264.0246;;-1281.0242;;-1299.3501;;-1319.7984;;-1341.9205;;-1364.5464;;-1386.7095;;-1407.8753;;-1427.5093;;-1444.8287;;-1459.1997;;-1470.7455;;-1480.3295;;-1488.7764;;-1496.3941;;-1503.4319;;-1510.3739;;-1517.3214;;-1523.571;;-1528.1589;;-1530.5313;;-1530.5313
-27.304718;;-27.304718;;-31.196445;;-36.685685;;-43.447325;;-50.434776;;-56.913582;;-61.482012;;-65.547213;;-70.147998;;-75.237407;;-80.769803;;-86.990222;;-94.21121;;-102.61894;;-112.20027;;-122.65652;;-133.70956;;-147.66479;;-172.29087;;-208.51292;;-255.97144;;-315.14536;;-385.89655;;-467.02594;;-556.69891;;-650.3765;;-739.89136;;-815.9404;;-875.05584;;-920.23079;;-956.71064;;-989.46566;;-1022.2384;;-1057.1622;;-1094.1636;;-1130.762;;-1163.4499;;-1190.1229;;-1211.5597;;-1230.5634;;-1249.4211;;-1268.2368;;-1285.9538;;-1302.5129;;-1319.2004;;-1337.0792;;-1356.0036;;-1375.2854;;-1394.5789;;-1413.6912;;-1431.8724;;-1447.839;;-1460.6936;;-1470.74;;-1479.2551;;-1487.3655;;-1495.2997;;-1502.8143;;-1509.8367;;-1516.3158;;-1521.8764;;-1525.9691;;-1528.1519;;-1528.1519
-26.281467;;-26.281467;;-30.039441;;-35.361578;;-42.007145;;-48.988907;;-55.75695;;-60.895147;;-65.176578;;-69.862179;;-75.064441;;-80.6825;;-86.730258;;-93.350603;;-100.76989;;-109.17807;;-118.53778;;-128.92708;;-143.72179;;-169.67491;;-206.50523;;-254.17857;;-313.3345;;-383.74241;;-464.57084;;-554.19757;;-648.51949;;-740.10195;;-819.98221;;-883.4849;;-932.01266;;-969.97478;;-1002.4511;;-1033.9589;;-1067.4332;;-1103.1683;;-1138.8768;;-1171.5795;;-1199.7505;;-1223.8605;;-1245.4462;;-1265.7337;;-1284.7673;;-1302.0134;;-1317.8397;;-1333.612;;-1350.1716;;-1367.1817;;-1384.1904;;-1401.3691;;-1418.7526;;-1435.3866;;-1449.8211;;-1461.3735;;-1470.6878;;-1479.0869;;-1487.4215;;-1495.5544;;-1502.9501;;-1509.4421;;-1515.166;;-1520.0928;;-1523.8929;;-1526.0376;;-1526.0376
-25.486283;;-25.486283;;-29.129707;;-34.305387;;-40.819075;;-47.735277;;-54.622805;;-60.217256;;-64.819563;;-69.70204;;-75.08867;;-80.818864;;-86.683658;;-92.646909;;-98.981403;;-106.12656;;-114.36559;;-124.19879;;-140.11098;;-167.00835;;-204.09808;;-251.54215;;-310.03163;;-379.08987;;-458.20931;;-545.90209;;-638.62025;;-730.26965;;-813.46929;;-882.99084;;-937.72918;;-980.12159;;-1014.7288;;-1046.4937;;-1078.9023;;-1112.7756;;-1146.7273;;-1178.9952;;-1208.6676;;-1235.3535;;-1258.7744;;-1279.0859;;-1296.8725;;-1312.8347;;-1327.9718;;-1343.3896;;-1359.3118;;-1375.0639;;-1390.3769;;-1405.7996;;-1421.5312;;-1436.6582;;-1449.9848;;-1461.2376;;-1471.1465;;-1480.5248;;-1489.4642;;-1497.4223;;-1504.0394;;-1509.6283;;-1514.6842;;-1519.2419;;-1522.8729;;-1524.9566;;-1524.9566
-24.476141;;-24.476141;;-27.959028;;-32.920805;;-39.018649;;-45.961047;;-52.878606;;-58.940734;;-63.981031;;-69.083238;;-74.587978;;-80.345256;;-86.02938;;-91.480208;;-96.988464;;-103.17795;;-110.55461;;-119.97184;;-136.86057;;-164.33734;;-201.50228;;-248.60979;;-306.2204;;-373.61339;;-450.42922;;-535.20202;;-624.96939;;-715.30741;;-800.9155;;-876.60444;;-938.87926;;-987.58574;;-1026.0339;;-1059.0941;;-1090.7273;;-1122.6779;;-1154.9062;;-1186.8335;;-1217.7359;;-1246.156;;-1270.2853;;-1289.666;;-1305.7345;;-1320.465;;-1335.2112;;-1350.451;;-1365.7227;;-1380.2382;;-1394.0252;;-1407.8699;;-1422.0355;;-1435.7941;;-1448.4251;;-1460.1303;;-1471.5735;;-1482.7133;;-1492.5384;;-1500.1034;;-1505.6427;;-1510.3656;;-1515.1251;;-1519.6768;;-1523.2407;;-1525.1972;;-1525.1972
-23.062294;;-23.062294;;-26.315135;;-30.966609;;-36.724928;;-43.399763;;-50.262901;;-56.749348;;-62.209618;;-67.328021;;-72.659721;;-78.243962;;-83.796774;;-89.078005;;-94.309617;;-100.14077;;-107.11588;;-116.27289;;-133.83804;;-161.67966;;-198.95413;;-245.98531;;-303.09828;;-369.59729;;-445.03221;;-527.81334;;-615.25242;;-704.16655;;-790.9222;;-870.86716;;-939.29132;;-993.91279;;-1036.3642;;-1070.9277;;-1102.0155;;-1132.5517;;-1163.7294;;-1195.5039;;-1226.8578;;-1255.6721;;-1279.5789;;-1298.0228;;-1312.9533;;-1326.966;;-1341.3963;;-1356.1437;;-1370.4002;;-1383.5953;;-1396.0921;;-1408.7174;;-1421.6058;;-1434.0663;;-1445.7501;;-1457.4646;;-1470.1594;;-1483.1342;;-1494.151;;-1501.7365;;-1506.7561;;-1511.2822;;-1516.3349;;-1521.2489;;-1524.9041;;-1526.7733;;-1526.7733
-21.541026;;-21.541026;;-24.543479;;-28.854046;;-34.229477;;-40.569435;;-47.245741;;-53.859292;;-59.448573;;-64.156369;;-68.87939;;-74.043152;;-79.535273;;-85.046235;;-90.609244;;-96.696919;;-103.71516;;-112.829;;-131.10577;;-159.4047;;-197.05559;;-244.49774;;-302.00508;;-369.0419;;-445.13544;;-528.51512;;-616.12602;;-704.67287;;-791.24337;;-872.21639;;-943.21363;;-1001.1182;;-1046.1794;;-1081.8567;;-1112.7947;;-1142.7868;;-1173.6078;;-1205.035;;-1235.6799;;-1263.5979;;-1286.9112;;-1305.1698;;-1320.0159;;-1333.7448;;-1347.499;;-1361.1097;;-1374.0269;;-1386.1329;;-1397.9435;;-1410.0018;;-1422.0432;;-1433.1109;;-1442.9545;;-1453.1343;;-1465.5746;;-1479.6261;;-1492.0623;;-1500.6793;;-1506.5225;;-1511.976;;-1517.8926;;-1523.3006;;-1527.051;;-1528.8488;;-1528.8488
-20.284657;;-20.284657;;-23.070736;;-27.08067;;-32.102644;;-38.084787;;-44.435704;;-50.800065;;-56.036907;;-59.883581;;-63.691085;;-68.298583;;-73.758379;;-79.727993;;-86.010617;;-92.750569;;-100.08939;;-109.58871;;-129.10126;;-158.27276;;-196.80185;;-245.33716;;-304.2283;;-373.19732;;-451.85697;;-538.289;;-628.64059;;-718.08612;;-803.3234;;-882.19835;;-951.929;;-1009.8634;;-1055.6895;;-1092.1893;;-1123.763;;-1154.1917;;-1185.0125;;-1215.5652;;-1244.499;;-1270.7645;;-1293.4737;;-1312.1827;;-1327.6076;;-1341.1756;;-1353.8515;;-1365.9013;;-1377.4878;;-1389.0153;;-1400.9146;;-1413.1453;;-1424.8106;;-1434.4793;;-1441.7849;;-1449.0255;;-1459.5174;;-1473.4018;;-1487.0237;;-1497.3857;;-1505.0791;;-1512.0913;;-1518.8506;;-1524.3557;;-1527.8442;;-1529.4171;;-1529.4171
-19.402504;;-19.402504;;-22.016185;;-25.778918;;-30.492391;;-36.1154;;-42.053511;;-47.919576;;-52.375897;;-55.136321;;-58.036125;;-62.156647;;-67.606708;;-74.027789;;-81.069954;;-88.547568;;-96.321156;;-107.00735;;-128.24232;;-158.71786;;-198.58483;;-248.755;;-309.65723;;-381.31144;;-463.4085;;-553.87293;;-647.96988;;-738.68078;;-821.58963;;-896.39168;;-962.5059;;-1018.4624;;-1064.1352;;-1101.8351;;-1135.1083;;-1166.7646;;-1197.6257;;-1226.9066;;-1253.8496;;-1278.4488;;-1300.5861;;-1319.6772;;-1335.5529;;-1348.8543;;-1360.4775;;-1371.2314;;-1381.9445;;-1393.3665;;-1405.7354;;-1418.4367;;-1429.9936;;-1438.5864;;-1443.7272;;-1448.1201;;-1456.0877;;-1468.7231;;-1482.5879;;-1494.2027;;-1503.3866;;-1511.3595;;-1518.1557;;-1523.033;;-1525.8344;;-1527.0388;;-1527.0388
-18.696497;;-18.696497;;-21.153984;;-24.688962;;-29.109802;;-34.374133;;-39.874262;;-45.175385;;-48.759647;;-50.625749;;-52.934382;;-56.789468;;-62.247278;;-68.932055;;-76.461704;;-84.472896;;-92.697568;;-105.32071;;-128.10968;;-159.85045;;-201.03164;;-252.78386;;-315.58027;;-389.70439;;-474.87717;;-568.8508;;-666.09403;;-757.38788;;-837.21563;;-907.54984;;-969.92646;;-1024.025;;-1070.0669;;-1109.8256;;-1145.5454;;-1178.6756;;-1209.493;;-1237.6535;;-1263.2245;;-1286.7973;;-1308.4604;;-1327.4973;;-1343.3543;;-1356.3293;;-1367.3567;;-1377.5853;;-1388.0817;;-1399.5261;;-1411.9148;;-1424.4225;;-1435.4919;;-1443.3443;;-1447.5219;;-1450.6283;;-1456.967;;-1468.0476;;-1481.0429;;-1492.5773;;-1501.9103;;-1509.6277;;-1515.6269;;-1519.5507;;-1521.7082;;-1522.6773;;-1522.6773
-17.906816;;-17.906816;;-20.188881;;-23.472415;;-27.579012;;-32.297865;;-37.579567;;-42.450734;;-45.588476;;-47.093701;;-49.212177;;-52.98818;;-58.382505;;-65.035385;;-72.636559;;-80.825409;;-89.413337;;-103.67158;;-127.31396;;-159.69262;;-201.51742;;-254.05157;;-317.80639;;-393.23701;;-480.08736;;-576.00882;;-674.94708;;-765.96225;;-842.82486;;-909.93741;;-970.44284;;-1024.5902;;-1072.4757;;-1115.0087;;-1153.1298;;-1187.3698;;-1218.1146;;-1245.8183;;-1271.0998;;-1294.4986;;-1315.9255;;-1334.732;;-1350.4664;;-1363.3789;;-1374.3892;;-1384.7225;;-1395.3176;;-1406.4273;;-1417.7426;;-1428.644;;-1438.1182;;-1444.8843;;-1448.7235;;-1451.9762;;-1458.2458;;-1468.6582;;-1480.7195;;-1491.4485;;-1500.0248;;-1506.8679;;-1512.0342;;-1515.4668;;-1517.5581;;-1518.6466;;-1518.6466
-17.019381;;-17.019381;;-19.099001;;-22.103481;;-25.879441;;-30.263542;;-35.23135;;-39.922799;;-43.29761;;-45.094676;;-47.361126;;-51.051763;;-56.149402;;-62.429235;;-69.723612;;-77.75677;;-86.426719;;-101.13356;;-124.69067;;-156.76216;;-198.15712;;-250.19087;;-313.44183;;-388.43926;;-475.00761;;-570.89099;;-670.01396;;-760.71297;;-836.11232;;-902.41018;;-963.76287;;-1020.4002;;-1071.6778;;-1117.3355;;-1157.3687;;-1192.2121;;-1222.9636;;-1250.8419;;-1276.5611;;-1300.2385;;-1321.6072;;-1340.3437;;-1356.3215;;-1369.7149;;-1381.1692;;-1391.7304;;-1402.1395;;-1412.2649;;-1421.5547;;-1429.6951;;-1436.2784;;-1440.5386;;-1442.8383;;-1446.0938;;-1453.6809;;-1465.6273;;-1478.5256;;-1489.2519;;-1497.2804;;-1503.4739;;-1508.3517;;-1512.0304;;-1514.6456;;-1516.1227;;-1516.1227
-16.276469;;-16.276469;;-18.135179;;-20.868339;;-24.349634;;-28.48285;;-33.25846;;-37.966476;;-41.956513;;-44.478437;;-46.981079;;-50.445849;;-55.05282;;-60.796152;;-67.636055;;-75.352126;;-83.740899;;-97.591804;;-120.13907;;-150.98567;;-190.91096;;-241.21421;;-302.59419;;-375.56898;;-460.12671;;-554.32538;;-652.64368;;-743.97401;;-820.39453;;-888.33607;;-952.65461;;-1013.4142;;-1069.0073;;-1117.9614;;-1159.6911;;-1195.0188;;-1225.8924;;-1254.0876;;-1280.2378;;-1304.0865;;-1325.3346;;-1344.0803;;-1360.5427;;-1374.7456;;-1386.8473;;-1397.5011;;-1407.316;;-1416.1215;;-1423.331;;-1428.625;;-1431.4788;;-1431.1574;;-1429.2508;;-1431.0215;;-1440.9296;;-1457.263;;-1473.8445;;-1486.2766;;-1494.5005;;-1500.4188;;-1505.3316;;-1509.5364;;-1512.8166;;-1514.697;;-1514.697
-15.890533;;-15.890533;;-17.527458;;-20.055289;;-23.33814;;-27.327199;;-32.011135;;-36.776702;;-41.188219;;-44.280065;;-46.874315;;-50.080146;;-54.298909;;-59.675693;;-66.197435;;-73.625512;;-81.590739;;-93.480673;;-114.21242;;-143.08391;;-180.73245;;-228.37897;;-286.9113;;-356.76055;;-438.15108;;-529.64284;;-626.72309;;-719.92004;;-800.1204;;-871.79885;;-940.21132;;-1005.5646;;-1065.6149;;-1117.9512;;-1161.5855;;-1197.6836;;-1228.8234;;-1257.2298;;-1283.5866;;-1307.4143;;-1328.3504;;-1346.7934;;-1363.3151;;-1377.9504;;-1390.5021;;-1401.2197;;-1410.5857;;-1418.568;;-1424.6271;;-1427.9948;;-1427.1875;;-1421.0674;;-1413.0426;;-1412.0498;;-1424.598;;-1446.885;;-1468.8315;;-1484.0063;;-1492.8481;;-1498.6026;;-1503.4986;;-1508.0734;;-1511.8471;;-1514.0279;;-1514.0279
-15.759296;;-15.759296;;-17.251491;;-19.674956;;-22.861049;;-26.766888;;-31.384385;;-36.119652;;-40.575818;;-43.703998;;-46.17853;;-49.266858;;-53.450951;;-58.815491;;-65.244175;;-72.469584;;-80.080445;;-89.508786;;-107.54361;;-133.77912;;-168.52731;;-212.82627;;-267.80673;;-333.78459;;-411.22484;;-499.3098;;-594.78939;;-690.42215;;-776.77888;;-854.18586;;-927.4578;;-997.37991;;-1061.6829;;-1117.4358;;-1163.3067;;-1200.607;;-1232.3679;;-1261.2537;;-1288.0418;;-1311.9587;;-1332.3957;;-1349.9308;;-1365.5762;;-1379.6788;;-1392.0761;;-1402.8834;;-1412.4471;;-1420.6732;;-1426.8693;;-1429.6816;;-1426.6329;;-1416.21;;-1403.3232;;-1399.8172;;-1413.899;;-1440.3124;;-1466.0959;;-1483.2282;;-1492.4808;;-1498.1225;;-1503.0645;;-1508.0001;;-1512.2518;;-1514.7496;;-1514.7496
-15.689301;;-15.689301;;-17.043893;;-19.37212;;-22.464071;;-26.265987;;-30.587872;;-35.380238;;-39.684337;;-42.587431;;-44.93079;;-48.134878;;-52.598016;;-58.189933;;-64.638543;;-71.653217;;-78.955194;;-86.704705;;-100.79665;;-123.82177;;-155.22903;;-195.72404;;-246.53138;;-308.14194;;-381.05686;;-465.11933;;-558.35523;;-655.77953;;-749.16361;;-834.08668;;-913.09776;;-987.74116;;-1056.3466;;-1115.8163;;-1164.4458;;-1203.5941;;-1236.7446;;-1266.9022;;-1294.6879;;-1318.8493;;-1338.5256;;-1354.558;;-1368.4896;;-1381.1277;;-1392.6595;;-1403.4345;;-1413.7381;;-1423.0964;;-1430.3917;;-1433.9933;;-1431.2904;;-1420.7713;;-1407.3954;;-1403.0532;;-1416.1412;;-1441.7118;;-1466.947;;-1483.7342;;-1492.7925;;-1498.4921;;-1503.8332;;-1509.4373;;-1514.399;;-1517.3569;;-1517.3569
-15.612132;;-15.612132;;-16.579418;;-18.662126;;-21.51578;;-25.066279;;-29.158857;;-33.75021;;-37.963491;;-40.982249;;-43.469545;;-46.906326;;-51.616676;;-57.340454;;-63.717172;;-70.531296;;-77.669629;;-85.020287;;-95.039838;;-114.39947;;-142.17811;;-178.70884;;-225.04171;;-282.1415;;-350.32368;;-429.97727;;-520.19079;;-617.8214;;-716.58971;;-809.34823;;-894.6627;;-974.32369;;-1047.7435;;-1111.9132;;-1164.5618;;-1206.8148;;-1242.4395;;-1274.5615;;-1303.4713;;-1327.5832;;-1346.1242;;-1360.3631;;-1372.2906;;-1383.0879;;-1393.3893;;-1403.9948;;-1415.2294;;-1426.1124;;-1435.0063;;-1440.3976;;-1440.4391;;-1433.9641;;-1424.5119;;-1421.1598;;-1430.9221;;-1450.7814;;-1471.0616;;-1485.1744;;-1493.4559;;-1499.3898;;-1505.4127;;-1511.8464;;-1517.5575;;-1520.9673;;-1520.9673
-15.580064;;-15.580064;;-15.924607;;-17.528386;;-19.952889;;-23.072694;;-26.802831;;-31.109086;;-35.296578;;-38.882091;;-41.796617;;-45.193111;;-49.53513;;-54.653114;;-60.558274;;-67.459462;;-75.101384;;-83.091267;;-91.709016;;-106.85191;;-131.00736;;-163.77601;;-205.8896;;-258.57483;;-322.27369;;-397.47706;;-484.02399;;-580.04279;;-680.96381;;-779.48274;;-870.62212;;-955.26398;;-1034.0546;;-1104.3847;;-1163.1063;;-1210.2632;;-1249.193;;-1283.0305;;-1312.2203;;-1335.5733;;-1352.8441;;-1365.6107;;-1375.9491;;-1385.2446;;-1394.5836;;-1405.1796;;-1417.3763;;-1429.8046;;-1440.4531;;-1448.0349;;-1451.6402;;-1450.5811;;-1446.6168;;-1445.1255;;-1451.031;;-1463.4944;;-1477.0243;;-1487.3991;;-1494.6241;;-1500.8455;;-1507.5099;;-1514.4832;;-1520.5077;;-1524.0426;;-1524.0426
-15.570863;;-15.570863;;-15.64468;;-16.409813;;-18.28475;;-20.912111;;-24.197513;;-28.002067;;-32.305823;;-36.380834;;-39.823821;;-42.672522;;-45.694277;;-49.274892;;-54.315517;;-61.249321;;-69.834707;;-79.422163;;-89.326168;;-101.80209;;-122.78053;;-152.25811;;-190.7722;;-239.43627;;-299.19306;;-370.29462;;-453.00941;;-546.25728;;-646.68702;;-747.97714;;-843.517;;-932.45759;;-1016.378;;-1093.5041;;-1159.6988;;-1212.8593;;-1254.9034;;-1289.1707;;-1317.3547;;-1339.5855;;-1356.2298;;-1368.6194;;-1378.416;;-1387.1346;;-1396.332;;-1407.3921;;-1420.4791;;-1434.0663;;-1446.1267;;-1455.5358;;-1461.8772;;-1464.8047;;-1464.9601;;-1465.0573;;-1468.2326;;-1474.9686;;-1482.9581;;-1490.0858;;-1496.3305;;-1502.7644;;-1509.8609;;-1516.9786;;-1522.8161;;-1526.1119;;-1526.1119
-15.566681;;-15.566681;;-15.589667;;-15.769077;;-16.928978;;-19.060804;;-21.91382;;-25.412286;;-29.380565;;-33.744782;;-37.524437;;-39.752299;;-41.00159;;-43.013285;;-47.287422;;-53.97454;;-62.814206;;-73.501978;;-85.335602;;-98.504699;;-117.49782;;-144.5832;;-180.38743;;-225.95348;;-282.57232;;-350.51336;;-430.11734;;-520.80733;;-620.05463;;-722.50523;;-821.07521;;-913.02558;;-1000.3455;;-1082.4919;;-1154.7511;;-1212.6771;;-1256.4147;;-1289.8022;;-1316.5016;;-1338.2546;;-1355.6549;;-1369.1894;;-1379.7885;;-1389.0926;;-1399.075;;-1411.0058;;-1424.6684;;-1438.5938;;-1451.1513;;-1461.4197;;-1468.9934;;-1473.5061;;-1475.1512;;-1475.5803;;-1477.2485;;-1481.3146;;-1486.8605;;-1492.5583;;-1498.3098;;-1504.8009;;-1512.1159;;-1519.2734;;-1524.8712;;-1527.8912;;-1527.8912
-15.56517;;-15.56517;;-15.570786;;-15.610394;;-16.006977;;-17.630733;;-20.069081;;-23.186128;;-26.853408;;-30.805549;;-34.715615;;-36.747101;;-36.392504;;-36.973211;;-40.742729;;-47.213093;;-55.983749;;-66.932357;;-79.827095;;-94.843155;;-114.24765;;-140.53238;;-175.00206;;-218.93416;;-273.76879;;-340.17431;;-418.40379;;-508.16093;;-607.37328;;-711.15488;;-811.93553;;-905.10621;;-992.67972;;-1075.5188;;-1149.246;;-1208.3335;;-1251.9196;;-1284.2701;;-1310.3877;;-1332.932;;-1352.3506;;-1368.2587;;-1380.8721;;-1391.7675;;-1403.0614;;-1415.813;;-1429.5356;;-1443.0033;;-1455.1491;;-1465.2927;;-1472.7974;;-1476.8928;;-1477.4259;;-1476.1164;;-1476.3213;;-1480.3129;;-1487.1192;;-1494.1618;;-1500.4261;;-1506.8245;;-1514.0252;;-1521.1709;;-1526.7012;;-1529.6118;;-1529.6118
-15.564824;;-15.564824;;-15.565665;;-15.573007;;-15.63801;;-16.455118;;-18.349901;;-20.949285;;-24.12119;;-27.603601;;-30.958576;;-33.12338;;-32.156622;;-31.676066;;-35.38668;;-41.713864;;-50.291613;;-61.173487;;-74.556335;;-90.990459;;-111.94672;;-139.04279;;-173.83114;;-217.88152;;-272.84857;;-339.64193;;-418.65419;;-509.67618;;-610.71866;;-716.72781;;-819.03699;;-911.1821;;-995.28704;;-1073.6914;;-1143.4485;;-1199.8847;;-1242.2835;;-1274.6475;;-1301.7209;;-1326.0528;;-1347.9883;;-1366.8119;;-1382.2039;;-1395.2667;;-1407.8596;;-1421.0004;;-1434.394;;-1447.2061;;-1458.7133;;-1468.2703;;-1474.9558;;-1477.4654;;-1475.1141;;-1470.1014;;-1467.9245;;-1472.9876;;-1483.7167;;-1494.596;;-1502.5229;;-1508.7662;;-1515.3337;;-1522.042;;-1527.3252;;-1530.1014;;-1530.1014
-15.564785;;-15.564785;;-15.564847;;-15.565769;;-15.579772;;-15.739468;;-16.842573;;-18.810447;;-21.377907;;-24.30346;;-27.160973;;-28.921164;;-28.096448;;-27.446195;;-31.291166;;-37.284864;;-45.620693;;-56.375171;;-70.264145;;-87.706646;;-109.99336;;-138.4442;;-174.56977;;-220.0664;;-276.56107;;-345.06594;;-426.27743;;-520.01211;;-624.14867;;-733.05819;;-836.32994;;-925.41745;;-1003.0599;;-1073.3649;;-1135.7728;;-1187.8094;;-1229.313;;-1263.1241;;-1292.4754;;-1319.2004;;-1343.7272;;-1365.4871;;-1383.8011;;-1399.0475;;-1412.6388;;-1425.8149;;-1438.878;;-1451.3875;;-1462.5716;;-1471.5408;;-1477.2242;;-1478.0644;;-1472.8612;;-1464.0199;;-1459.0349;;-1464.6701;;-1479.0897;;-1493.9459;;-1503.7949;;-1509.8901;;-1515.4296;;-1521.0838;;-1525.5926;;-1527.9678;;-1527.9678
-15.564784;;-15.564784;;-15.564786;;-15.564876;;-15.568401;;-15.605288;;-15.876339;;-17.047328;;-18.932965;;-21.248695;;-23.588594;;-25.067567;;-24.188898;;-24.06765;;-27.931241;;-33.912563;;-42.034179;;-52.708801;;-66.76703;;-84.663478;;-107.64951;;-137.01529;;-174.28936;;-221.14896;;-279.0126;;-349.17097;;-432.528;;-528.97678;;-636.32579;;-748.42185;;-852.84865;;-937.98071;;-1007.6845;;-1068.6895;;-1123.4147;;-1171.6499;;-1213.4182;;-1249.9317;;-1282.6096;;-1312.3881;;-1339.6768;;-1364.1331;;-1384.94;;-1401.9485;;-1416.2628;;-1429.451;;-1442.4122;;-1454.935;;-1466.0113;;-1474.5165;;-1479.5292;;-1479.7366;;-1473.7343;;-1463.5331;;-1456.9486;;-1461.7838;;-1476.7245;;-1492.7578;;-1503.3737;;-1509.296;;-1513.8348;;-1518.1238;;-1521.4546;;-1523.1972;;-1523.1972
-15.564784;;-15.564784;;-15.564784;;-15.564793;;-15.565468;;-15.573875;;-15.6302;;-15.935564;;-17.026448;;-18.688892;;-20.483111;;-21.631513;;-20.938588;;-21.628694;;-25.428457;;-31.173977;;-39.007575;;-49.388538;;-63.171809;;-80.822567;;-103.59501;;-132.79061;;-169.9544;;-216.69948;;-274.48807;;-344.78221;;-428.66519;;-526.23775;;-635.53382;;-750.46412;;-857.46473;;-940.20334;;-1003.0311;;-1056.2437;;-1105.016;;-1150.8949;;-1193.9335;;-1233.9767;;-1270.7987;;-1304.2345;;-1334.3637;;-1361.0512;;-1383.6824;;-1402.0061;;-1416.9969;;-1430.3935;;-1443.3907;;-1455.8813;;-1466.8033;;-1475.0963;;-1480.1854;;-1481.26;;-1477.0868;;-1468.911;;-1462.9896;;-1466.2088;;-1478.2576;;-1492.0156;;-1501.7346;;-1507.3331;;-1511.107;;-1514.1129;;-1516.2583;;-1517.3745;;-1517.3745
-15.564784;;-15.564784;;-15.564784;;-15.564785;;-15.564851;;-15.566003;;-15.576424;;-15.631853;;-15.874193;;-16.757909;;-17.997193;;-18.827599;;-18.322252;;-19.59525;;-23.193345;;-28.533683;;-35.828917;;-45.543235;;-58.324743;;-75.193673;;-96.796257;;-124.59107;;-160.09537;;-204.94233;;-260.62165;;-328.6895;;-410.41464;;-506.22536;;-614.72377;;-730.75075;;-841.76276;;-927.06433;;-987.62636;;-1036.9121;;-1082.1464;;-1126.433;;-1170.6434;;-1214.1442;;-1255.2663;;-1292.4505;;-1325.207;;-1353.6663;;-1377.7057;;-1397.2498;;-1413.1573;;-1427.0575;;-1440.152;;-1452.4702;;-1463.2616;;-1471.8334;;-1477.872;;-1480.8843;;-1479.9837;;-1475.7876;;-1472.3134;;-1474.4161;;-1482.5864;;-1492.5909;;-1500.4299;;-1505.4095;;-1508.5773;;-1510.7055;;-1512.1221;;-1512.9036;;-1512.9036
-15.564784;;-15.564784;;-15.564784;;-15.564784;;-15.564785;;-15.564854;;-15.566064;;-15.574381;;-15.605999;;-15.716358;;-16.227307;;-16.737797;;-16.428664;;-17.799634;;-21.039185;;-25.819295;;-32.370248;;-41.131111;;-52.706199;;-68.06044;;-87.771747;;-113.21783;;-145.8313;;-187.24372;;-238.9461;;-302.50785;;-379.35394;;-470.27097;;-574.60639;;-688.69668;;-802.74241;;-896.37857;;-961.50766;;-1011.8907;;-1056.0831;;-1098.9575;;-1143.4017;;-1189.357;;-1234.1164;;-1274.7921;;-1310.2536;;-1340.7189;;-1366.4317;;-1387.5006;;-1404.6736;;-1419.3799;;-1432.7348;;-1444.9579;;-1455.827;;-1465.1611;;-1472.732;;-1478.0202;;-1480.4286;;-1480.3368;;-1479.9847;;-1482.1817;;-1487.6134;;-1494.3288;;-1500.0914;;-1504.2158;;-1507.1013;;-1509.2135;;-1510.7735;;-1511.6917;;-1511.6917
-15.564784;;-15.564784;;-15.564784;;-15.564784;;-15.564784;;-15.564785;;-15.564858;;-15.565506;;-15.568187;;-15.574818;;-15.591183;;-15.634227;;-15.607336;;-16.388342;;-19.094722;;-23.207564;;-28.908641;;-36.584091;;-46.772353;;-60.169541;;-77.829991;;-100.45564;;-129.54326;;-166.63365;;-213.23285;;-270.83941;;-340.96131;;-424.67652;;-522.02056;;-630.81258;;-744.31102;;-847.06541;;-922.38127;;-978.24131;;-1024.2595;;-1066.998;;-1111.5662;;-1159.0247;;-1206.4953;;-1250.5507;;-1289.5389;;-1323.1835;;-1351.4603;;-1374.4853;;-1393.0962;;-1408.7735;;-1422.6497;;-1435.0878;;-1446.3109;;-1456.6128;;-1465.8189;;-1473.2737;;-1478.5474;;-1481.9723;;-1484.6106;;-1487.6545;;-1491.5381;;-1495.7147;;-1499.5126;;-1502.9247;;-1506.278;;-1509.4965;;-1512.0569;;-1513.4588;;-1513.4588
-15.564784;;-15.564784;;-15.564784;;-15.564784;;-15.564784;;-15.564784;;-15.564785;;-15.56479;;-15.564811;;-15.564864;;-15.564956;;-15.565099;;-15.565069;;-15.642198;;-17.515939;;-20.875973;;-25.709268;;-32.301624;;-41.10656;;-52.730685;;-68.126047;;-87.880137;;-113.35066;;-145.93795;;-187.14243;;-238.36509;;-301.11179;;-376.64569;;-465.51229;;-566.69502;;-675.97275;;-782.91572;;-869.49334;;-933.39685;;-984.27868;;-1029.6788;;-1075.7059;;-1124.4302;;-1173.9461;;-1221.4474;;-1264.9257;;-1302.9408;;-1334.5337;;-1359.7165;;-1379.7413;;-1396.4861;;-1411.2423;;-1424.421;;-1436.4147;;-1447.7794;;-1458.4774;;-1467.9066;;-1475.7284;;-1482.0443;;-1486.9746;;-1490.6006;;-1493.1645;;-1495.1168;;-1497.1953;;-1500.333;;-1504.8882;;-1509.9166;;-1513.8178;;-1515.7446;;-1515.7446
-15.564784;;-15.564784;;-15.564784;;-15.564784;;-15.564784;;-15.564784;;-15.564784;;-15.564784;;-15.564784;;-15.564785;;-15.564785;;-15.564785;;-15.564787;;-15.566493;;-16.269442;;-18.924883;;-22.976784;;-28.597975;;-36.16413;;-46.199068;;-59.559566;;-76.724742;;-98.918567;;-127.39847;;-163.61459;;-208.91141;;-264.72573;;-332.41761;;-412.87232;;-505.89001;;-609.01818;;-715.35274;;-810.39289;;-883.1184;;-940.47136;;-990.34158;;-1038.6851;;-1088.5155;;-1139.7899;;-1190.8823;;-1239.2289;;-1281.8256;;-1316.6696;;-1343.8639;;-1365.2999;;-1383.3236;;-1399.3895;;-1413.9216;;-1427.2572;;-1439.9403;;-1452.1129;;-1463.4449;;-1473.577;;-1482.0433;;-1488.1499;;-1491.5336;;-1492.6652;;-1492.7532;;-1493.5094;;-1496.6228;;-1502.4617;;-1509.2245;;-1514.3156;;-1516.6592;;-1516.6592
-15.564784;;-15.564784;;-15.564784;;-15.564784;;-15.564784;;-15.564784;;-15.564784;;-15.564784;;-15.564784;;-15.564784;;-15.564784;;-15.564784;;-15.564785;;-15.564872;;-15.635795;;-17.476707;;-20.816906;;-25.62708;;-32.185148;;-40.93641;;-52.65776;;-67.740302;;-87.301286;;-112.48344;;-144.63978;;-185.14482;;-235.34436;;-296.64827;;-370.16986;;-456.25572;;-553.61136;;-657.64206;;-757.65527;;-838.5197;;-901.28255;;-954.25841;;-1003.7436;;-1054.181;;-1107.4581;;-1162.5313;;-1215.6555;;-1262.2584;;-1299.7511;;-1328.693;;-1351.5832;;-1370.9911;;-1388.4539;;-1404.5226;;-1419.4826;;-1433.707;;-1447.4412;;-1460.615;;-1472.6701;;-1482.4211;;-1488.692;;-1491.3803;;-1491.529;;-1490.6825;;-1490.7833;;-1493.8678;;-1500.4048;;-1508.1036;;-1513.7378;;-1516.1736;;-1516.1736
-15.564784;;-15.564784;;-15.564784;;-15.564784;;-15.564784;;-15.564784;;-15.564784;;-15.564784;;-15.564784;;-15.564784;;-15.564784;;-15.564784;;-15.564784;;-15.564799;;-15.568992;;-16.454107;;-19.237961;;-23.443114;;-29.259836;;-37.078135;;-47.436556;;-61.207432;;-78.889665;;-101.72281;;-130.97636;;-168.05944;;-214.27499;;-271.04498;;-339.63331;;-420.73624;;-513.78805;;-615.63186;;-718.06088;;-805.27976;;-870.98871;;-924.22299;;-973.25185;;-1024.3257;;-1080.3669;;-1139.8168;;-1197.3695;;-1247.2758;;-1286.8831;;-1317.3355;;-1341.4703;;-1361.8156;;-1380.0197;;-1396.9875;;-1413.1213;;-1428.6171;;-1443.6799;;-1458.2952;;-1471.6022;;-1481.8931;;-1487.9596;;-1490.329;;-1490.6173;;-1490.28;;-1490.7948;;-1493.8981;;-1499.9245;;-1506.4405;;-1510.4;;-1511.5229;;-1511.5229
-15.564784;;-15.564784;;-15.564784;;-15.564784;;-15.564784;;-15.564784;;-15.564784;;-15.564784;;-15.564784;;-15.564784;;-15.564784;;-15.564784;;-15.564784;;-15.564788;;-15.56544;;-15.851789;;-18.196663;;-21.953594;;-27.251936;;-34.436087;;-44.000657;;-56.773529;;-73.205218;;-94.475297;;-121.78919;;-156.55631;;-200.08473;;-253.78476;;-319.01271;;-396.67948;;-486.66361;;-586.66898;;-689.9825;;-781.76488;;-849.23099;;-901.71136;;-950.4823;;-1003.0962;;-1062.351;;-1125.6831;;-1186.6547;;-1238.9684;;-1280.1117;;-1311.5745;;-1336.2424;;-1356.5591;;-1374.4154;;-1391.1948;;-1407.5224;;-1423.4859;;-1439.1569;;-1454.3992;;-1468.1228;;-1478.5007;;-1484.5954;;-1487.4375;;-1488.935;;-1490.293;;-1492.1108;;-1494.7916;;-1497.4634;;-1497.6347;;-1494.1626;;-1490.1595;;-1490.1595
-15.564784;;-15.564784;;-15.564784;;-15.564784;;-15.564784;;-15.564784;;-15.564784;;-15.564784;;-15.564784;;-15.564784;;-15.564784;;-15.564784;;-15.564784;;-15.564785;;-15.564909;;-15.632365;;-17.508547;;-20.920636;;-25.85395;;-32.601036;;-41.623025;;-53.534529;;-69.114841;;-89.327241;;-115.52399;;-148.71252;;-190.41542;;-242.03087;;-304.98057;;-380.32046;;-468.22422;;-566.96641;;-670.88671;;-766.62319;;-836.95076;;-890.0281;;-939.86336;;-994.43526;;-1055.9482;;-1121.2856;;-1183.7732;;-1237.0801;;-1278.7292;;-1310.2205;;-1334.3936;;-1353.7478;;-1370.4526;;-1386.2341;;-1401.8856;;-1417.4676;;-1432.9242;;-1447.9505;;-1461.4058;;-1471.6965;;-1478.2002;;-1481.9917;;-1484.8333;;-1487.7437;;-1490.4033;;-1490.6919;;-1484.7142;;-1469.7783;;-1449.364;;-1434.0176;;-1434.0176
-15.564784;;-15.564784;;-15.564784;;-15.564784;;-15.564784;;-15.564784;;-15.564784;;-15.564784;;-15.564784;;-15.564784;;-15.564784;;-15.564784;;-15.564784;;-15.564784;;-15.564801;;-15.582545;;-17.046427;;-20.222588;;-24.913412;;-31.374065;;-40.046109;;-51.525808;;-66.57234;;-86.127233;;-111.33516;;-143.74603;;-184.34989;;-234.73189;;-296.37191;;-370.4387;;-457.32443;;-555.72587;;-660.80444;;-760.65748;;-835.84458;;-891.40345;;-942.90432;;-998.36787;;-1059.8451;;-1124.5655;;-1186.3712;;-1239.0879;;-1280.0466;;-1310.5525;;-1333.4683;;-1351.4501;;-1366.8044;;-1381.3437;;-1395.9396;;-1410.6847;;-1425.4223;;-1439.7187;;-1452.5698;;-1462.7948;;-1469.9274;;-1474.5216;;-1477.6972;;-1480.4774;;-1482.1461;;-1477.5138;;-1458.0286;;-1420.5613;;-1375.7505;;-1344.6679;;-1344.6679
-15.564784;;-15.564784;;-15.564784;;-15.564784;;-15.564784;;-15.564784;;-15.564784;;-15.564784;;-15.564784;;-15.564784;;-15.564784;;-15.564784;;-15.564784;;-15.564784;;-15.564786;;-15.57111;;-16.737655;;-19.756653;;-24.284272;;-30.553884;;-38.996233;;-50.196801;;-64.90291;;-84.217716;;-108.75228;;-140.38174;;-180.52225;;-230.19458;;-291.11899;;-364.55994;;-451.08675;;-549.73766;;-656.35257;;-760.32673;;-841.81233;;-901.3062;;-954.47245;;-1009.3855;;-1068.6465;;-1130.6524;;-1190.2578;;-1241.4655;;-1281.1858;;-1310.4099;;-1332.0546;;-1348.8639;;-1363.0777;;-1376.4743;;-1390.0285;;-1403.8807;;-1417.7475;;-1431.1379;;-1443.3396;;-1453.6046;;-1461.383;;-1466.2888;;-1468.4687;;-1469.2224;;-1468.4976;;-1459.0374;;-1427.6289;;-1370.2747;;-1304.0571;;-1259.1994;;-1259.1994
-15.564784;;-15.564784;;-15.564784;;-15.564784;;-15.564784;;-15.564784;;-15.564784;;-15.564784;;-15.564784;;-15.564784;;-15.564784;;-15.564784;;-15.564784;;-15.564784;;-15.564785;;-15.567134;;-16.461338;;-19.327984;;-23.687701;;-29.754839;;-37.948262;;-48.840442;;-63.336613;;-82.008562;;-106.14268;;-136.90203;;-176.26633;;-225.07749;;-285.08847;;-357.64879;;-443.49332;;-541.98833;;-649.63489;;-757.13183;;-845.53276;;-910.0855;;-965.25788;;-1019.1949;;-1075.4206;;-1134.0344;;-1191.2457;;-1241.2346;;-1280.2797;;-1308.8992;;-1329.9648;;-1346.1627;;-1359.5632;;-1371.9726;;-1384.5698;;-1397.5415;;-1410.4741;;-1422.9361;;-1434.6008;;-1445.0347;;-1453.4072;;-1458.385;;-1459.2548;;-1457.7427;;-1455.3451;;-1445.1635;;-1411.9871;;-1350.3424;;-1278.7;;-1229.9404;;-1229.9404
-15.564784;;-15.564784;;-15.564784;;-15.564784;;-15.564784;;-15.564784;;-15.564784;;-15.564784;;-15.564784;;-15.564784;;-15.564784;;-15.564784;;-15.564784;;-15.564784;;-15.564784;;-15.565422;;-16.133516;;-18.790353;;-22.91284;;-28.69097;;-36.5233;;-46.96006;;-60.882365;;-78.835714;;-102.07684;;-131.91821;;-169.83361;;-217.20755;;-275.60586;;-346.45831;;-430.66878;;-527.94889;;-635.49623;;-745.37536;;-840.32581;;-910.18098;;-967.42783;;-1020.636;;-1074.3915;;-1130.545;;-1186.6027;;-1236.7825;;-1276.5821;;-1305.8645;;-1327.2986;;-1343.4733;;-1356.3633;;-1367.853;;-1379.2728;;-1390.8558;;-1402.3278;;-1413.7221;;-1425.1948;;-1436.2749;;-1445.575;;-1451.1626;;-1452.0391;;-1450.2318;;-1448.6099;;-1442.7965;;-1419.7719;;-1373.1644;;-1317.0799;;-1278.6752;;-1278.6752
-15.564784;;-15.564784;;-15.564784;;-15.564784;;-15.564784;;-15.564784;;-15.564784;;-15.564784;;-15.564784;;-15.564784;;-15.564784;;-15.564784;;-15.564784;;-15.564784;;-15.564784;;-15.564904;;-15.808508;;-18.153587;;-21.958302;;-27.363196;;-34.72999;;-44.575788;;-57.575749;;-74.58069;;-96.814065;;-125.18758;;-161.36667;;-206.75044;;-262.8665;;-331.21446;;-412.86079;;-507.85898;;-614.096;;-724.98574;;-825.3703;;-899.77798;;-958.07454;;-1010.4497;;-1062.8812;;-1118.5013;;-1175.4555;;-1227.6844;;-1269.8455;;-1301.0347;;-1323.6154;;-1340.2097;;-1352.8649;;-1363.362;;-1372.7465;;-1381.2372;;-1389.4796;;-1399.1315;;-1411.2219;;-1424.497;;-1436.1752;;-1443.8727;;-1447.0078;;-1447.7354;;-1449.2142;;-1449.7678;;-1440.9365;;-1417.011;;-1385.2902;;-1362.6627;;-1362.6627
-15.564784;;-15.564784;;-15.564784;;-15.564784;;-15.564784;;-15.564784;;-15.564784;;-15.564784;;-15.564784;;-15.564784;;-15.564784;;-15.564784;;-15.564784;;-15.564784;;-15.564784;;-15.564801;;-15.62064;;-17.466848;;-20.888197;;-25.861614;;-32.688328;;-41.843768;;-53.962066;;-69.848489;;-90.674959;;-117.29859;;-151.34208;;-194.25867;;-247.5101;;-312.639;;-390.8557;;-482.53367;;-586.22435;;-696.68658;;-801.16714;;-880.07405;;-938.55502;;-989.88172;;-1042.027;;-1098.9001;;-1158.5631;;-1214.3482;;-1260.0557;;-1293.9797;;-1318.1805;;-1335.5;;-1348.1423;;-1357.391;;-1363.334;;-1366.0296;;-1368.1221;;-1374.6796;;-1388.424;;-1406.4331;;-1423.1139;;-1435.0889;;-1442.4819;;-1447.6201;;-1453.0377;;-1458.4342;;-1459.5684;;-1452.8189;;-1440.82;;-1431.4649;;-1431.4649
-15.564784;;-15.564784;;-15.564784;;-15.564784;;-15.564784;;-15.564784;;-15.564784;;-15.564784;;-15.564784;;-15.564784;;-15.564784;;-15.564784;;-15.564784;;-15.564784;;-15.564784;;-15.564786;;-15.57134;;-16.735035;;-19.734804;;-24.228283;;-30.446917;;-38.820425;;-49.934616;;-64.713668;;-83.739051;;-108.32518;;-139.84573;;-179.79289;;-229.56655;;-290.70792;;-364.54781;;-451.75671;;-551.53826;;-660.0183;;-767.04373;;-852.25415;;-912.46037;;-963.77097;;-1016.5749;;-1075.4539;;-1138.3695;;-1198.1821;;-1247.9119;;-1284.9917;;-1311.1189;;-1329.3569;;-1341.984;;-1349.5568;;-1350.9812;;-1346.1919;;-1340.3389;;-1342.7515;;-1358.4401;;-1382.675;;-1406.371;;-1424.3551;;-1436.9621;;-1446.7068;;-1455.4633;;-1463.1846;;-1468.0935;;-1468.7979;;-1466.3997;;-1463.9565;;-1463.9565
-15.564784;;-15.564784;;-15.564784;;-15.564784;;-15.564784;;-15.564784;;-15.564784;;-15.564784;;-15.564784;;-15.564784;;-15.564784;;-15.564784;;-15.564784;;-15.564784;;-15.564784;;-15.564784;;-15.565264;;-16.033299;;-18.575005;;-22.543902;;-28.108642;;-35.647076;;-45.688071;;-59.090846;;-76.365261;;-98.742281;;-127.50229;;-164.13143;;-210.01221;;-266.63401;;-335.42272;;-417.3179;;-512.137;;-617.31009;;-725.30553;;-819.04974;;-885.56427;;-939.58522;;-993.86586;;-1054.0816;;-1118.9565;;-1181.6861;;-1234.8601;;-1275.0147;;-1303.2646;;-1322.5903;;-1335.1114;;-1340.869;;-1338.3504;;-1327.9306;;-1316.4182;;-1315.5979;;-1332.1189;;-1360.6503;;-1390.1449;;-1413.693;;-1430.8871;;-1444.0653;;-1454.8872;;-1463.353;;-1468.6972;;-1470.8932;;-1471.0982;;-1470.7761;;-1470.7761
-15.564784;;-15.564784;;-15.564784;;-15.564784;;-15.564784;;-15.564784;;-15.564784;;-15.564784;;-15.564784;;-15.564784;;-15.564784;;-15.564784;;-15.564784;;-15.564784;;-15.564784;;-15.564784;;-15.564845;;-15.643451;;-17.547626;;-20.965323;;-25.895891;;-32.637039;;-41.655437;;-53.747247;;-69.352466;;-89.622572;;-115.75127;;-149.15376;;-191.2833;;-243.55331;;-307.46031;;-384.18624;;-474.09424;;-575.7723;;-684.12876;;-786.84808;;-865.13285;;-924.85481;;-980.85719;;-1040.708;;-1104.8624;;-1167.6485;;-1221.7523;;-1263.3097;;-1293.247;;-1314.2836;;-1327.7447;;-1333.1281;;-1329.63;;-1318.8769;;-1307.7114;;-1306.7929;;-1322.4263;;-1350.5482;;-1381.2157;;-1407.0623;;-1426.416;;-1440.9513;;-1452.4262;;-1461.1004;;-1466.471;;-1468.8229;;-1469.4179;;-1469.4547;;-1469.4547
-15.564784;;-15.564784;;-15.564784;;-15.564784;;-15.564784;;-15.564784;;-15.564784;;-15.564784;;-15.564784;;-15.564784;;-15.564784;;-15.564784;;-15.564784;;-15.564784;;-15.564784;;-15.564784;;-15.564813;;-15.574906;;-16.714359;;-19.66004;;-24.062885;;-30.144358;;-38.323241;;-49.173009;;-63.600386;;-82.17465;;-106.1953;;-137.01371;;-176.16633;;-225.06482;;-285.24264;;-358.10039;;-444.45846;;-543.82927;;-652.9853;;-763.13153;;-855.70929;;-922.94957;;-980.35414;;-1038.3505;;-1099.1307;;-1157.7987;;-1207.413;;-1245.5043;;-1275.2769;;-1299.893;;-1318.2164;;-1327.4796;;-1327.5683;;-1321.9503;;-1316.674;;-1318.8664;;-1332.8793;;-1356.7441;;-1383.789;;-1407.6982;;-1425.9232;;-1439.4354;;-1450.1748;;-1458.7755;;-1464.6713;;-1467.6743;;-1468.6359;;-1468.7508;;-1468.7508
-15.564784;;-15.564784;;-15.564784;;-15.564784;;-15.564784;;-15.564784;;-15.564784;;-15.564784;;-15.564784;;-15.564784;;-15.564784;;-15.564784;;-15.564784;;-15.564784;;-15.564784;;-15.564784;;-15.5648;;-15.567551;;-16.137726;;-18.728729;;-22.73761;;-28.341577;;-35.927528;;-46.036137;;-59.539011;;-76.970807;;-99.592689;;-128.72001;;-165.91136;;-212.71304;;-270.65071;;-341.29232;;-425.79114;;-524.2751;;-634.66179;;-750.24388;;-855.12755;;-930.59403;;-989.5055;;-1045.7884;;-1102.0189;;-1152.3442;;-1190.1669;;-1217.513;;-1244.2601;;-1275.3867;;-1304.7087;;-1323.7558;;-1331.4816;;-1333.311;;-1335.2543;;-1341.5643;;-1354.626;;-1373.9068;;-1395.6834;;-1415.2742;;-1430.1524;;-1441.0254;;-1450.0069;;-1458.0757;;-1464.5635;;-1468.5607;;-1470.1765;;-1470.4813;;-1470.4813
-15.564784;;-15.564784;;-15.564784;;-15.564784;;-15.564784;;-15.564784;;-15.564784;;-15.564784;;-15.564784;;-15.564784;;-15.564784;;-15.564784;;-15.564784;;-15.564784;;-15.564784;;-15.564784;;-15.564791;;-15.56572;;-15.814783;;-18.099226;;-21.810653;;-27.077166;;-34.255193;;-43.861536;;-56.744887;;-73.420125;;-95.124997;;-123.15582;;-159.06307;;-204.51843;;-261.05753;;-330.33723;;-413.72626;;-511.73615;;-622.99255;;-742.14582;;-855.71297;;-940.01497;;-1001.9727;;-1058.4167;;-1110.9469;;-1151.1842;;-1172.7936;;-1184.7826;;-1206.7152;;-1245.9222;;-1289.6642;;-1321.5029;;-1337.8595;;-1345.9353;;-1353.0492;;-1362.6238;;-1375.8528;;-1392.4496;;-1410.1684;;-1425.7344;;-1437.2496;;-1445.4935;;-1452.6178;;-1459.8247;;-1466.5033;;-1471.2739;;-1473.5685;;-1474.1692;;-1474.1692
-15.564784;;-15.564784;;-15.564784;;-15.564784;;-15.564784;;-15.564784;;-15.564784;;-15.564784;;-15.564784;;-15.564784;;-15.564784;;-15.564784;;-15.564784;;-15.564785;;-15.564787;;-15.564799;;-15.564836;;-15.565162;;-15.656168;;-17.58834;;-21.027097;;-25.99376;;-32.806129;;-42.12242;;-54.268487;;-70.240411;;-91.078584;;-118.05112;;-152.6824;;-196.70484;;-251.68215;;-319.2963;;-401.05848;;-497.75844;;-608.56925;;-729.24488;;-848.43203;;-942.41958;;-1009.9978;;-1069.3142;;-1121.0883;;-1154.6436;;-1164.0169;;-1164.212;;-1182.2838;;-1226.96;;-1280.5848;;-1320.9321;;-1342.275;;-1353.2299;;-1362.9977;;-1375.1704;;-1389.7705;;-1405.7405;;-1421.397;;-1434.6596;;-1444.3521;;-1451.2491;;-1457.299;;-1463.7824;;-1470.296;;-1475.3721;;-1478.0689;;-1478.8923;;-1478.8923
-15.564784;;-15.564784;;-15.564784;;-15.564784;;-15.564784;;-15.564784;;-15.564784;;-15.564784;;-15.564784;;-15.564784;;-15.564784;;-15.564784;;-15.564785;;-15.564829;;-15.565177;;-15.566552;;-15.569819;;-15.574941;;-15.605849;;-17.07486;;-20.210048;;-24.835325;;-31.218957;;-39.986372;;-51.433198;;-66.519507;;-86.241298;;-111.81839;;-144.71929;;-186.66821;;-239.2654;;-304.16033;;-382.95164;;-476.65134;;-584.91446;;-704.5102;;-826.17541;;-929.12746;;-1004.0543;;-1068.874;;-1125.0332;;-1160.8709;;-1170.3651;;-1169.7918;;-1187.0573;;-1230.8315;;-1283.3349;;-1322.1803;;-1341.5783;;-1351.2737;;-1362.2385;;-1377.8555;;-1395.714;;-1412.9288;;-1428.2263;;-1440.8853;;-1450.3587;;-1457.1956;;-1463.0039;;-1469.0593;;-1475.1812;;-1480.0423;;-1482.6597;;-1483.456;;-1483.456
-15.564784;;-15.564784;;-15.564784;;-15.564784;;-15.564784;;-15.564784;;-15.564784;;-15.564784;;-15.564784;;-15.564784;;-15.564784;;-15.564784;;-15.564813;;-15.565393;;-15.569506;;-15.584866;;-15.620372;;-15.67914;;-15.790543;;-16.633279;;-19.385921;;-23.58697;;-29.443101;;-37.534787;;-48.114321;;-62.086806;;-80.385935;;-104.15998;;-134.7976;;-173.94292;;-223.22903;;-284.22336;;-358.54669;;-447.36568;;-550.72718;;-666.27639;;-786.649;;-894.77155;;-975.82159;;-1047.4394;;-1114.2163;;-1163.6868;;-1186.9761;;-1196.2655;;-1215.2872;;-1252.7174;;-1295.3223;;-1325.073;;-1337.4569;;-1343.0366;;-1354.4677;;-1374.5494;;-1397.3487;;-1417.2363;;-1433.2515;;-1446.2047;;-1456.1719;;-1463.4251;;-1469.2286;;-1474.7894;;-1480.1009;;-1484.1506;;-1486.227;;-1486.8017;;-1486.8017
-15.564784;;-15.564784;;-15.564784;;-15.564784;;-15.564784;;-15.564784;;-15.564784;;-15.564784;;-15.564784;;-15.564784;;-15.564784;;-15.564787;;-15.565034;;-15.568791;;-15.592563;;-15.676714;;-15.87662;;-16.310803;;-16.973624;;-17.483276;;-19.048626;;-22.548292;;-27.884056;;-35.029885;;-44.628548;;-57.353591;;-74.061517;;-95.812104;;-123.89446;;-159.84632;;-205.29931;;-261.72428;;-330.69912;;-413.47562;;-510.38202;;-619.74477;;-735.72441;;-844.36342;;-928.15988;;-1005.834;;-1087.1963;;-1157.9423;;-1202.7197;;-1225.7683;;-1246.5689;;-1276.3388;;-1308.8047;;-1330.7915;;-1337.9098;;-1340.1961;;-1351.4894;;-1374.5462;;-1400.918;;-1422.751;;-1439.1624;;-1452.1663;;-1462.4243;;-1469.9839;;-1475.6577;;-1480.3862;;-1484.3361;;-1487.1037;;-1488.5139;;-1488.9635;;-1488.9635
-15.564784;;-15.564784;;-15.564784;;-15.564784;;-15.564784;;-15.564784;;-15.564784;;-15.564784;;-15.564784;;-15.564784;;-15.5648;;-15.564949;;-15.566652;;-15.582945;;-15.672217;;-15.976165;;-16.695448;;-17.832254;;-18.992014;;-19.692443;;-20.339019;;-22.633003;;-26.817146;;-33.01761;;-41.568587;;-53.03987;;-68.198591;;-88.011731;;-113.6664;;-146.58911;;-188.40269;;-240.51835;;-304.43081;;-381.45144;;-472.13299;;-575.36036;;-686.54787;;-794.2504;;-879.80746;;-962.12164;;-1056.7299;;-1147.6871;;-1212.6523;;-1246.9314;;-1267.7745;;-1291.7205;;-1319.7726;;-1341.6097;;-1350.6188;;-1353.9015;;-1364.6147;;-1386.3414;;-1411.2897;;-1431.6547;;-1446.5887;;-1458.5071;;-1468.4121;;-1476.1057;;-1481.6825;;-1485.5379;;-1488.0312;;-1489.5736;;-1490.5798;;-1491.1579;;-1491.1579
-15.564784;;-15.564784;;-15.564784;;-15.564784;;-15.564784;;-15.564784;;-15.564784;;-15.564784;;-15.564784;;-15.564786;;-15.564961;;-15.566539;;-15.576278;;-15.632709;;-15.897156;;-16.737291;;-18.183028;;-19.955733;;-21.612149;;-22.714962;;-23.25562;;-24.779054;;-27.699851;;-32.399575;;-39.632648;;-49.809971;;-63.553597;;-81.715589;;-105.38224;;-135.88351;;-174.79304;;-223.61166;;-283.72709;;-356.54143;;-442.86784;;-542.17017;;-651.09607;;-760.60804;;-852.77094;;-939.46082;;-1041.1719;;-1143.195;;-1220.2929;;-1261.4419;;-1281.9072;;-1302.8893;;-1331.1204;;-1357.9396;;-1373.9884;;-1381.893;;-1391.9102;;-1408.5276;;-1427.2956;;-1442.8001;;-1454.4327;;-1464.2797;;-1473.3497;;-1481.1288;;-1486.8541;;-1490.2816;;-1491.9001;;-1492.7048;;-1493.4548;;-1494.0767;;-1494.0767
-15.564784;;-15.564784;;-15.564784;;-15.564784;;-15.564784;;-15.564784;;-15.564784;;-15.564784;;-15.564784;;-15.564792;;-15.565723;;-15.574086;;-15.6155;;-15.79057;;-16.524879;;-18.073511;;-20.158564;;-22.518354;;-24.818236;;-26.046945;;-26.655622;;-28.070576;;-30.729048;;-34.356468;;-39.365099;;-47.819187;;-60.112133;;-76.830713;;-98.900072;;-127.54432;;-164.26923;;-210.73828;;-268.30884;;-338.47974;;-422.39018;;-520.13382;;-629.60716;;-744.23142;;-849.61961;;-942.3196;;-1044.2535;;-1146.87;;-1227.6693;;-1273.9914;;-1297.2942;;-1318.571;;-1347.2857;;-1377.159;;-1398.5365;;-1410.6076;;-1419.8499;;-1430.8027;;-1442.5993;;-1452.8094;;-1461.1909;;-1469.2159;;-1477.6318;;-1485.5648;;-1491.5557;;-1494.9023;;-1496.077;;-1496.1581;;-1496.0209;;-1495.9741;;-1495.9741
-15.564784;;-15.564784;;-15.564784;;-15.564784;;-15.564784;;-15.564784;;-15.564784;;-15.564784;;-15.564784;;-15.56481;;-15.567923;;-15.596124;;-15.726978;;-16.250502;;-17.673534;;-19.792773;;-22.42154;;-25.414283;;-28.016179;;-29.506854;;-30.190729;;-31.532312;;-33.940901;;-37.02133;;-40.492502;;-46.255686;;-56.874156;;-72.099214;;-92.583701;;-119.41978;;-154.02942;;-198.12172;;-253.23712;;-320.86611;;-402.45699;;-498.68879;;-608.59259;;-727.85769;;-846.06164;;-948.66509;;-1047.7255;;-1145.6695;;-1227.0964;;-1280.7601;;-1312.5849;;-1338.2333;;-1366.6266;;-1394.8274;;-1416.2014;;-1429.2206;;-1437.503;;-1444.7939;;-1452.2472;;-1459.4483;;-1466.4451;;-1474.0909;;-1482.6149;;-1490.7351;;-1496.616;;-1499.3722;;-1499.3971;;-1497.6947;;-1495.4388;;-1493.8713;;-1493.8713
-15.564784;;-15.564784;;-15.564784;;-15.564784;;-15.564784;;-15.564784;;-15.564784;;-15.564784;;-15.564785;;-15.564885;;-15.572597;;-15.642587;;-15.991622;;-17.148821;;-19.10181;;-21.659193;;-24.832188;;-28.019394;;-30.878181;;-32.516251;;-33.25742;;-34.39388;;-36.223643;;-38.377947;;-40.73793;;-44.251327;;-52.861791;;-66.275023;;-84.774431;;-109.26174;;-141.0369;;-181.72729;;-233.06412;;-296.49269;;-373.62418;;-465.58845;;-572.31005;;-691.22112;;-814.85591;;-927.95756;;-1026.5121;;-1120.5203;;-1203.6729;;-1267.4371;;-1312.9658;;-1348.4389;;-1379.5002;;-1405.8508;;-1425.0826;;-1437.183;;-1444.744;;-1450.7503;;-1456.9341;;-1463.7372;;-1471.3254;;-1479.9629;;-1489.1605;;-1497.1833;;-1502.0634;;-1502.9769;;-1500.4747;;-1495.9157;;-1491.1439;;-1488.1185;;-1488.1185
-15.564784;;-15.564784;;-15.564784;;-15.564784;;-15.564784;;-15.564784;;-15.564784;;-15.564784;;-15.564814;;-15.565509;;-15.583143;;-15.7427;;-16.615201;;-18.384397;;-20.785925;;-23.689294;;-27.014446;;-30.158769;;-32.714801;;-34.133677;;-34.866611;;-35.6984;;-36.785704;;-37.924772;;-39.355286;;-41.788303;;-48.021111;;-59.331814;;-75.401505;;-96.906464;;-124.97723;;-161.07402;;-206.92637;;-263.97133;;-333.76341;;-417.67098;;-516.20266;;-628.05742;;-748.32022;;-865.71332;;-967.20395;;-1059.636;;-1144.9273;;-1218.8214;;-1280.7243;;-1332.5528;;-1374.6648;;-1406.0436;;-1426.8971;;-1439.594;;-1447.5689;;-1453.8957;;-1460.4235;;-1467.8327;;-1476.3601;;-1485.9713;;-1495.6658;;-1503.2601;;-1506.5824;;-1505.0055;;-1499.7575;;-1493.1075;;-1487.4265;;-1484.3112;;-1484.3112
-15.564784;;-15.564784;;-15.564784;;-15.564784;;-15.564784;;-15.564784;;-15.564784;;-15.564786;;-15.565037;;-15.569002;;-15.615665;;-16.105055;;-17.678931;;-19.966556;;-22.812471;;-26.135949;;-29.319347;;-31.927352;;-33.551067;;-34.425714;;-34.942641;;-35.412695;;-35.847664;;-36.236656;;-37.054712;;-39.052054;;-43.242728;;-52.238344;;-65.639088;;-83.877836;;-107.86611;;-138.85071;;-178.35926;;-227.83613;;-288.63011;;-362.14148;;-449.17809;;-549.26357;;-659.37166;;-771.90965;;-874.55289;;-966.45916;;-1052.961;;-1135.1526;;-1213.8744;;-1287.2733;;-1349.467;;-1395.1489;;-1424.1471;;-1440.8847;;-1450.8519;;-1458.0946;;-1464.666;;-1471.4069;;-1479.0149;;-1488.06;;-1497.8197;;-1505.6512;;-1508.5942;;-1505.9569;;-1499.9566;;-1493.8751;;-1489.9216;;-1488.3309;;-1488.3309
-15.564784;;-15.564784;;-15.564784;;-15.564784;;-15.564784;;-15.564785;;-15.564789;;-15.564829;;-15.566087;;-15.581438;;-15.753048;;-16.965954;;-19.07298;;-21.834857;;-25.103149;;-28.717582;;-31.854798;;-33.505637;;-33.877299;;-33.962709;;-34.087253;;-34.231112;;-34.264564;;-34.259217;;-34.780002;;-36.558048;;-39.727897;;-45.905828;;-56.537913;;-71.529972;;-91.501879;;-117.45219;;-150.6638;;-192.51028;;-244.12369;;-306.80816;;-381.49886;;-468.23179;;-565.27761;;-667.77405;;-766.94834;;-858.48348;;-946.85637;;-1037.2932;;-1132.4293;;-1228.2899;;-1313.9141;;-1378.7105;;-1420.0803;;-1443.4356;;-1456.2871;;-1463.8736;;-1468.6539;;-1472.0247;;-1475.9599;;-1482.7541;;-1492.7437;;-1502.7286;;-1508.1687;;-1507.5683;;-1503.7355;;-1500.5631;;-1499.6563;;-1499.9923;;-1499.9923
-15.564784;;-15.564784;;-15.564784;;-15.564784;;-15.564786;;-15.564845;;-15.565342;;-15.567446;;-15.576088;;-15.629062;;-16.251972;;-18.054615;;-20.607993;;-23.794284;;-27.565263;;-31.29036;;-34.312988;;-34.917223;;-34.135833;;-33.416061;;-33.138366;;-33.113897;;-33.071967;;-33.019633;;-33.426675;;-34.923771;;-37.595247;;-41.389367;;-48.944678;;-60.740941;;-76.950743;;-98.267413;;-125.70166;;-160.49441;;-203.65556;;-256.3028;;-319.43358;;-393.45024;;-477.61286;;-569.2437;;-663.41878;;-757.08204;;-853.0252;;-955.79047;;-1067.0446;;-1181.0015;;-1285.0172;;-1365.8938;;-1418.6502;;-1448.3277;;-1463.3276;;-1469.7959;;-1471.004;;-1469.5332;;-1469.0461;;-1473.5854;;-1484.4292;;-1497.8328;;-1507.6585;;-1511.1498;;-1510.8624;;-1510.7354;;-1512.0196;;-1513.403;;-1513.403
-15.564784;;-15.564784;;-15.564785;;-15.564798;;-15.564902;;-15.565834;;-15.571557;;-15.593225;;-15.6652;;-15.909095;;-16.959103;;-19.054804;;-21.885326;;-25.34649;;-29.335201;;-33.159171;;-35.889889;;-35.819522;;-34.505786;;-33.376293;;-32.914328;;-32.945596;;-33.116967;;-33.280602;;-33.667349;;-34.74453;;-36.779703;;-39.683083;;-43.83819;;-52.395999;;-65.242761;;-82.638085;;-105.29866;;-134.23258;;-170.49087;;-214.99652;;-268.82308;;-332.7469;;-406.9615;;-490.79222;;-582.96533;;-683.70228;;-794.55355;;-914.42895;;-1039.6138;;-1163.4844;;-1275.4245;;-1363.5399;;-1422.0559;;-1454.7196;;-1469.7012;;-1473.988;;-1472.2348;;-1468.2774;;-1466.3578;;-1470.558;;-1482.0865;;-1497.1925;;-1509.544;;-1515.8117;;-1517.8534;;-1519.1806;;-1521.0429;;-1522.5022;;-1522.5022
-15.564785;;-15.564785;;-15.564837;;-15.565429;;-15.568522;;-15.580458;;-15.623896;;-15.836499;;-16.545775;;-17.252616;;-18.051919;;-19.834431;;-22.535717;;-25.913009;;-29.778972;;-33.349435;;-35.683362;;-35.837717;;-34.901073;;-34.031852;;-33.757927;;-34.030317;;-34.525099;;-34.981875;;-35.425273;;-36.176618;;-37.611902;;-39.912095;;-42.932252;;-47.372899;;-57.121819;;-71.445766;;-90.621261;;-115.41465;;-146.89916;;-186.11326;;-234.25975;;-292.75386;;-363.09995;;-446.94045;;-545.77425;;-659.93613;;-786.99451;;-920.94836;;-1053.3717;;-1176.7795;;-1285.0019;;-1370.1725;;-1427.0903;;-1458.3105;;-1471.654;;-1475.0592;;-1474.354;;-1473.3515;;-1474.6728;;-1480.3348;;-1490.7328;;-1503.1565;;-1513.1202;;-1518.2812;;-1520.1811;;-1521.6343;;-1523.5834;;-1525.0811;;-1525.0811
-15.564788;;-15.564788;;-15.5653;;-15.570711;;-15.597289;;-15.686385;;-16.070312;;-17.172733;;-18.506997;;-19.500912;;-20.172626;;-21.330183;;-23.282935;;-26.132222;;-29.194918;;-32.078112;;-34.201575;;-35.203844;;-35.345688;;-35.241152;;-35.402787;;-35.967014;;-36.753455;;-37.481861;;-38.035141;;-38.610772;;-39.620034;;-41.381508;;-43.805393;;-46.67663;;-54.615801;;-67.905564;;-86.340604;;-110.64032;;-142.00784;;-182.00544;;-232.30739;;-294.52425;;-370.49498;;-461.80424;;-569.33037;;-692.44955;;-827.67826;;-966.72133;;-1096.117;;-1207.9641;;-1302.5601;;-1376.3747;;-1425.6161;;-1453.0332;;-1466.3754;;-1473.4002;;-1479.1345;;-1485.3907;;-1491.9873;;-1498.6291;;-1505.2257;;-1510.8229;;-1513.891;;-1514.4239;;-1514.6375;;-1516.6112;;-1519.9845;;-1522.57;;-1522.57
-15.564806;;-15.564806;;-15.567215;;-15.592081;;-15.715816;;-16.22637;;-17.538963;;-19.342077;;-21.200557;;-22.451213;;-23.022856;;-23.949613;;-25.053184;;-26.788091;;-28.628717;;-30.73398;;-32.908216;;-34.782657;;-36.044467;;-36.762454;;-37.360426;;-38.1442;;-39.112568;;-40.033682;;-40.693119;;-41.179334;;-41.892077;;-43.155342;;-44.882554;;-49.372052;;-60.260378;;-76.090138;;-97.286236;;-124.87498;;-160.26894;;-205.20732;;-261.382;;-330.62053;;-414.76225;;-515.19437;;-632.25379;;-764.118;;-904.79113;;-1041.0027;;-1154.2074;;-1243.5456;;-1316.5852;;-1373.1709;;-1412.3872;;-1438.0936;;-1456.5847;;-1472.4864;;-1487.3891;;-1500.4505;;-1509.9864;;-1515.0844;;-1515.9083;;-1512.9954;;-1507.4947;;-1502.2887;;-1501.167;;-1505.5533;;-1512.6651;;-1517.7994;;-1517.7994
-15.564911;;-15.564911;;-15.572467;;-15.650436;;-16.170322;;-17.626707;;-19.701687;;-22.147728;;-24.539377;;-26.016046;;-26.501067;;-26.815338;;-27.337234;;-27.950413;;-28.924781;;-30.586;;-32.846173;;-35.205549;;-37.096439;;-38.32698;;-39.160676;;-39.973921;;-40.950947;;-41.953966;;-42.696411;;-43.163705;;-43.709486;;-44.581532;;-47.088915;;-56.355077;;-70.562496;;-89.909705;;-115.27548;;-147.95044;;-189.56975;;-241.88541;;-306.71061;;-386.00321;;-481.45105;;-593.96631;;-722.77197;;-863.75264;;-1006.1872;;-1127.7107;;-1212.7715;;-1274.0693;;-1322.2592;;-1361.0117;;-1393.3201;;-1422.8197;;-1451.2144;;-1477.3424;;-1498.8839;;-1514.1371;;-1522.3781;;-1523.6484;;-1518.4263;;-1507.8638;;-1494.9621;;-1485.2557;;-1484.3142;;-1492.7914;;-1504.973;;-1513.314;;-1513.314
-15.565538;;-15.565538;;-15.58655;;-15.933712;;-17.409841;;-19.624843;;-22.40252;;-25.460818;;-28.357382;;-30.088943;;-29.930097;;-29.350803;;-28.827172;;-28.884672;;-29.815052;;-31.592178;;-33.932603;;-36.352235;;-38.36965;;-39.74022;;-40.561468;;-41.190313;;-41.991409;;-42.992517;;-44.016898;;-45.468003;;-47.437501;;-49.284921;;-54.830117;;-67.104695;;-84.822723;;-108.4759;;-139.17515;;-178.43631;;-228.03572;;-289.67089;;-365.35157;;-456.95093;;-565.80676;;-691.90897;;-832.26992;;-978.30647;;-1110.613;;-1202.1453;;-1257.399;;-1294.0555;;-1322.8158;;-1350.9331;;-1383.4311;;-1420.843;;-1458.3995;;-1489.9137;;-1511.933;;-1524.4169;;-1528.8083;;-1526.0389;;-1516.293;;-1500.638;;-1483.2211;;-1471.4341;;-1471.8235;;-1484.0123;;-1500.0303;;-1510.5908;;-1510.5908
-15.568191;;-15.568191;;-15.69002;;-16.951342;;-19.128242;;-21.985415;;-25.384949;;-29.034598;;-32.551663;;-34.000339;;-32.807444;;-30.705498;;-29.166954;;-29.203668;;-30.737227;;-33.032622;;-35.505282;;-37.783703;;-39.65024;;-40.938556;;-41.658335;;-42.42706;;-44.002603;;-46.596747;;-50.110659;;-53.894138;;-57.257559;;-59.929201;;-66.438064;;-81.379286;;-102.99616;;-131.77509;;-168.95526;;-216.24671;;-275.3504;;-348.05786;;-436.33094;;-541.62699;;-664.29328;;-802.30916;;-948.80892;;-1087.36;;-1188.3497;;-1246.259;;-1280.648;;-1304.7704;;-1327.7137;;-1356.661;;-1394.6622;;-1437.8173;;-1477.467;;-1506.5875;;-1523.6669;;-1531.2307;;-1532.0656;;-1526.9662;;-1515.3533;;-1497.999;;-1479.5231;;-1467.8151;;-1469.1469;;-1482.2852;;-1498.7452;;-1509.372;;-1509.372
-15.582911;;-15.582911;;-16.314315;;-18.27701;;-21.02197;;-24.448688;;-28.381081;;-32.685401;;-36.32825;;-36.906785;;-34.337097;;-31.257335;;-29.216856;;-29.594353;;-31.802757;;-34.592713;;-37.129031;;-39.157956;;-40.768607;;-42.410103;;-45.686578;;-49.167405;;-52.291139;;-56.201342;;-61.313075;;-66.826561;;-71.571096;;-75.186175;;-81.831444;;-99.251964;;-125.1769;;-159.81339;;-204.45601;;-260.95447;;-330.7992;;-415.82367;;-517.62942;;-636.78793;;-771.76939;;-916.72442;;-1057.0542;;-1163.4047;;-1224.217;;-1261.4121;;-1289.9055;;-1317.0261;;-1347.2923;;-1383.6577;;-1425.3616;;-1466.6577;;-1499.9672;;-1521.2289;;-1531.7248;;-1535.2233;;-1534.3027;;-1529.0218;;-1518.2395;;-1502.4205;;-1485.7215;;-1475.0506;;-1475.5958;;-1486.1173;;-1499.4995;;-1508.1845;;-1508.1845
-15.76182;;-15.76182;;-17.309561;;-19.771758;;-22.988633;;-26.892796;;-31.252055;;-35.861696;;-39.336517;;-38.451299;;-35.303876;;-32.075987;;-30.193599;;-31.040614;;-33.537707;;-36.396638;;-38.714227;;-40.4975;;-43.912429;;-49.344282;;-55.153357;;-60.397472;;-64.827819;;-70.108954;;-76.932195;;-84.296115;;-90.615751;;-95.393198;;-101.96653;;-121.00448;;-151.34282;;-192.39232;;-245.31002;;-311.98139;;-393.52724;;-491.60479;;-607.06962;;-738.8516;;-881.96437;;-1023.3063;;-1134.3835;;-1196.9127;;-1234.5066;;-1267.5219;;-1303.921;;-1343.6253;;-1384.6559;;-1425.3385;;-1463.2748;;-1494.9247;;-1517.2697;;-1529.9978;;-1535.5917;;-1537.106;;-1536.0591;;-1532.027;;-1523.8345;;-1511.5776;;-1498.1179;;-1488.4796;;-1486.6857;;-1492.3579;;-1500.7875;;-1506.5517;;-1506.5517
-16.558232;;-16.558232;;-18.57029;;-21.49987;;-25.215324;;-29.593855;;-34.57175;;-39.332584;;-42.376364;;-40.234287;;-36.739771;;-33.730145;;-32.422622;;-33.609338;;-36.058683;;-38.563484;;-40.803684;;-45.597881;;-52.44945;;-60.515705;;-68.712711;;-75.816632;;-81.656854;;-88.506062;;-97.354217;;-106.91849;;-115.13985;;-121.37604;;-128.37264;;-147.40328;;-181.74385;;-229.37976;;-291.00155;;-368.33753;;-461.89523;;-572.77159;;-700.49861;;-841.18978;;-983.89249;;-1103.5302;;-1174.7259;;-1214.7024;;-1247.7256;;-1288.0033;;-1336.6203;;-1386.8332;;-1431.8814;;-1468.2968;;-1495.4395;;-1514.1803;;-1526.0472;;-1532.8095;;-1536.1946;;-1537.4836;;-1537.1544;;-1534.8284;;-1529.6991;;-1521.5025;;-1511.5722;;-1502.9476;;-1498.7095;;-1499.5529;;-1503.1497;;-1506.0685;;-1506.0685
-17.628397;;-17.628397;;-19.920009;;-23.233614;;-27.411692;;-32.281665;;-37.770913;;-42.929423;;-45.684885;;-42.6739;;-38.790595;;-35.977248;;-35.326914;;-36.726405;;-38.945625;;-41.500939;;-47.05277;;-55.059826;;-64.848561;;-75.704246;;-86.585547;;-95.879501;;-103.37134;;-112.07834;;-123.36455;;-135.59571;;-146.14401;;-154.20937;;-162.42873;;-180.40563;;-217.00324;;-270.4886;;-340.44732;;-428.04963;;-532.85762;;-654.71959;;-790.97418;;-933.19914;;-1061.5869;;-1149.4692;;-1203.3751;;-1242.5582;;-1282.9529;;-1331.9261;;-1385.9824;;-1436.1303;;-1475.2173;;-1501.0738;;-1515.7526;;-1523.4276;;-1528.0614;;-1531.7938;;-1534.8947;;-1536.8873;;-1537.4988;;-1536.6569;;-1534.0812;;-1529.3546;;-1522.668;;-1515.4974;;-1510.085;;-1507.76;;-1507.8903;;-1508.655;;-1508.655
-18.538614;;-18.538614;;-21.037424;;-24.647384;;-29.193975;;-34.477077;;-40.408696;;-45.948677;;-48.613294;;-45.055436;;-40.81957;;-38.107097;;-38.00077;;-39.586236;;-42.161135;;-48.175535;;-57.030061;;-68.190892;;-81.18094;;-95.339273;;-109.43799;;-121.36776;;-130.82085;;-141.67148;;-155.72415;;-171.02574;;-184.31474;;-194.63909;;-205.2718;;-223.29666;;-259.4225;;-316.05642;;-392.36788;;-488.25651;;-601.97039;;-730.92217;;-869.13901;;-1002.1148;;-1105.9709;;-1179.5653;;-1236.5145;;-1286.9627;;-1337.5542;;-1389.1996;;-1437.5972;;-1477.1742;;-1504.5776;;-1519.7504;;-1525.5224;;-1526.5229;;-1527.1736;;-1529.5495;;-1533.0013;;-1535.8733;;-1537.3166;;-1537.4757;;-1536.559;;-1534.2878;;-1530.3389;;-1525.1902;;-1520.2341;;-1516.7786;;-1515.0783;;-1514.5202;;-1514.5202
-19.251383;;-19.251383;;-21.895773;;-25.71296;;-30.514206;;-36.07621;;-42.289815;;-48.028181;;-50.381529;;-46.547491;;-42.219496;;-39.726993;;-40.024192;;-42.40876;;-48.805514;;-58.285333;;-70.489267;;-85.174757;;-101.9661;;-120.12864;;-138.0516;;-152.98034;;-164.60647;;-177.80748;;-195.0019;;-213.87452;;-230.42591;;-243.55224;;-257.24468;;-278.21259;;-314.28097;;-370.05633;;-447.45566;;-546.36093;;-663.68143;;-792.51052;;-922.99695;;-1037.9262;;-1129.1369;;-1204.6484;;-1272.3209;;-1335.5878;;-1392.9623;;-1440.6879;;-1476.7525;;-1502.1344;;-1518.6642;;-1527.3319;;-1529.3588;;-1527.7654;;-1526.5432;;-1528.0135;;-1531.5293;;-1534.9625;;-1536.9956;;-1537.7311;;-1537.6821;;-1536.8734;;-1534.9709;;-1531.9705;;-1528.5108;;-1525.4377;;-1523.2536;;-1522.1216;;-1522.1216
