-23.405113;;-23.405113;;-23.458771;;-25.915269;;-30.940132;;-38.001896;;-47.2133;;-58.879374;;-73.211782;;-90.40397;;-110.65922;;-133.47044;;-157.81973;;-181.06928;;-200.00116;;-222.91284;;-256.98674;;-304.49587;;-367.06573;;-446.04306;;-542.59074;;-655.86004;;-783.59073;;-923.40233;;-1072.7626;;-1229.4974;;-1389.9909;;-1548.052;;-1695.964;;-1827.6471;;-1942.2799;;-2044.2218;;-2138.5682;;-2226.8642;;-2307.4573;;-2379.2956;;-2443.5668;;-2501.6661;;-2553.7597;;-2599.6459;;-2639.384;;-2673.1082;;-2701.239;;-2724.5781;;-2743.8958;;-2760.2082;;-2775.6466;;-2793.1185;;-2814.4571;;-2839.1772;;-2865.1891;;-2889.9236;;-2910.4184;;-2923.7896;;-2929.2138;;-2929.0564;;-2926.7583;;-2924.1326;;-2922.2704;;-2923.2333;;-2927.6417;;-2932.5204;;-2934.7214;;-2934.6991;;-2934.6991
-23.405215;;-23.405215;;-23.567179;;-26.687716;;-32.126161;;-39.624974;;-49.363643;;-61.682424;;-76.801578;;-94.953643;;-116.35197;;-140.4763;;-166.24776;;-190.82651;;-210.46375;;-235.67018;;-274.30033;;-327.19588;;-395.16477;;-479.32778;;-580.41055;;-696.42866;;-824.99746;;-963.0831;;-1108.6224;;-1260.2961;;-1414.7309;;-1566.1864;;-1707.6312;;-1832.9633;;-1941.154;;-2037.6294;;-2128.9697;;-2217.0785;;-2299.9357;;-2376.0548;;-2445.4943;;-2507.6753;;-2561.1398;;-2605.267;;-2640.7417;;-2668.9541;;-2691.835;;-2711.4177;;-2729.1698;;-2746.4667;;-2765.3523;;-2787.6495;;-2813.3553;;-2840.5847;;-2866.8834;;-2889.9931;;-2907.7355;;-2918.6003;;-2923.3038;;-2925.0637;;-2927.1667;;-2930.4363;;-2933.985;;-2937.2784;;-2939.6085;;-2939.2331;;-2935.7716;;-2932.2249;;-2932.2249
-23.405357;;-23.405357;;-23.683806;;-27.140419;;-32.816212;;-40.568322;;-50.613932;;-63.315697;;-78.905604;;-97.642721;;-119.76069;;-144.76226;;-171.61673;;-197.63113;;-219.64481;;-250.13852;;-295.48749;;-355.6287;;-431.01367;;-522.46551;;-628.98573;;-748.44089;;-877.47098;;-1012.321;;-1151.5195;;-1294.3432;;-1437.9894;;-1578.3735;;-1710.3068;;-1828.2369;;-1930.8755;;-2023.8651;;-2114.1058;;-2203.0415;;-2288.2255;;-2368.3061;;-2442.8833;;-2509.6527;;-2565.2196;;-2608.0672;;-2639.3837;;-2662.2138;;-2680.4582;;-2697.3683;;-2714.6422;;-2733.5774;;-2756.0558;;-2783.0282;;-2812.7817;;-2841.7832;;-2866.8865;;-2886.4457;;-2900.1239;;-2908.6614;;-2914.0791;;-2919.2699;;-2926.2282;;-2934.5113;;-2941.9623;;-2946.4072;;-2945.8527;;-2938.8468;;-2927.3529;;-2918.1927;;-2918.1927
-23.405317;;-23.405317;;-23.652517;;-27.032911;;-32.651656;;-40.343123;;-50.317782;;-62.936772;;-78.444492;;-97.107854;;-119.19557;;-144.29105;;-171.58574;;-199.10247;;-226.33562;;-265.39555;;-319.09759;;-387.68971;;-471.72066;;-570.39297;;-682.08025;;-803.89428;;-931.19298;;-1060.1317;;-1190.2865;;-1321.2802;;-1451.2061;;-1578.3168;;-1699.8549;;-1811.3113;;-1911.0868;;-2003.8576;;-2095.2677;;-2185.6739;;-2272.4316;;-2354.8035;;-2432.6338;;-2502.6685;;-2559.9763;;-2602.1555;;-2630.8394;;-2650.5663;;-2666.823;;-2683.6518;;-2702.6244;;-2724.5166;;-2750.6613;;-2781.2995;;-2813.6609;;-2843.0284;;-2865.674;;-2880.8338;;-2890.4484;;-2897.404;;-2904.2067;;-2912.6627;;-2923.3519;;-2934.9381;;-2944.6609;;-2949.3742;;-2945.6407;;-2931.157;;-2909.6109;;-2892.8943;;-2892.8943
-23.405198;;-23.405198;;-23.545385;;-26.568736;;-31.938769;;-39.365497;;-49.023321;;-61.257026;;-76.327238;;-94.499992;;-116.09889;;-140.85178;;-168.36652;;-198.03751;;-233.59265;;-281.58168;;-343.50981;;-420.30161;;-511.83642;;-616.31222;;-731.47245;;-852.81104;;-974.71118;;-1094.8528;;-1214.6111;;-1334.0078;;-1451.8309;;-1567.8761;;-1681.1855;;-1788.6424;;-1888.6364;;-1983.8282;;-2077.2684;;-2168.1941;;-2254.4899;;-2336.3957;;-2414.3385;;-2485.013;;-2542.9084;;-2585.1517;;-2613.6484;;-2633.7072;;-2651.3889;;-2670.9045;;-2693.6556;;-2719.7584;;-2749.4799;;-2782.2137;;-2814.9293;;-2842.9751;;-2862.9488;;-2875.0817;;-2882.7218;;-2889.4305;;-2897.2343;;-2907.1882;;-2919.5562;;-2932.8497;;-2943.8426;;-2948.3551;;-2941.2108;;-2918.6206;;-2885.7349;;-2860.2823;;-2860.2823
-23.405168;;-23.405168;;-23.485719;;-26.143588;;-31.272839;;-38.440272;;-47.785986;;-59.640924;;-74.291045;;-92.112821;;-113.21148;;-137.84373;;-166.18048;;-199.65916;;-242.28915;;-296.78814;;-364.84805;;-447.48628;;-543.43161;;-651.0065;;-766.49683;;-883.84284;;-997.85878;;-1109.1718;;-1220.9149;;-1333.4512;;-1445.421;;-1556.2478;;-1665.5069;;-1771.6811;;-1873.6109;;-1971.6353;;-2065.7738;;-2154.5775;;-2237.3038;;-2315.4675;;-2390.2016;;-2458.9481;;-2516.6387;;-2560.1392;;-2590.9564;;-2614.2543;;-2635.9278;;-2659.9889;;-2687.6814;;-2718.4247;;-2751.0267;;-2783.8156;;-2814.2627;;-2839.4136;;-2857.5438;;-2869.7064;;-2878.8708;;-2887.2732;;-2895.7799;;-2905.4632;;-2917.4173;;-2930.6348;;-2941.5484;;-2944.9932;;-2934.3329;;-2904.7075;;-2862.6006;;-2830.2527;;-2830.2527
-23.405326;;-23.405326;;-23.481173;;-26.010142;;-31.025707;;-38.051658;;-47.215078;;-58.840473;;-73.235764;;-90.803218;;-111.74243;;-136.55891;;-166.06098;;-202.48477;;-248.38334;;-305.8829;;-376.68395;;-460.98485;;-557.631;;-664.45657;;-776.87195;;-888.71823;;-996.91404;;-1104.239;;-1214.3514;;-1327.4977;;-1441.2421;;-1553.151;;-1662.0988;;-1767.9175;;-1870.5211;;-1968.902;;-2060.8986;;-2144.8476;;-2221.5441;;-2293.7508;;-2363.3604;;-2429.0215;;-2486.6364;;-2532.6261;;-2567.2415;;-2594.8692;;-2621.2127;;-2650.2056;;-2682.8621;;-2717.7584;;-2752.1766;;-2783.5284;;-2810.3787;;-2832.4729;;-2850.4532;;-2865.6961;;-2879.3245;;-2891.0988;;-2900.5831;;-2909.1779;;-2919.0357;;-2929.972;;-2938.6911;;-2939.8571;;-2926.685;;-2894.71;;-2851.1036;;-2818.2155;;-2818.2155
-23.406167;;-23.406167;;-23.530665;;-26.205547;;-31.211848;;-38.158816;;-47.173582;;-58.563801;;-72.703194;;-89.708485;;-110.08413;;-134.31788;;-163.47103;;-199.72612;;-245.28807;;-302.07216;;-371.62919;;-453.81853;;-547.62174;;-650.88221;;-759.43665;;-868.47886;;-976.63494;;-1086.8509;;-1202.1759;;-1322.2716;;-1443.2375;;-1560.0978;;-1670.0389;;-1773.7541;;-1873.1796;;-1968.0239;;-2055.5572;;-2133.9409;;-2204.69;;-2271.3521;;-2336.4977;;-2399.7822;;-2457.8158;;-2506.4155;;-2544.4305;;-2575.4256;;-2605.1523;;-2637.7608;;-2674.066;;-2711.8271;;-2747.3047;;-2777.7268;;-2802.9109;;-2824.6636;;-2845.0629;;-2865.0955;;-2883.8659;;-2899.0979;;-2909.5426;;-2916.7846;;-2923.5691;;-2930.5885;;-2935.5156;;-2933.9379;;-2920.5878;;-2892.9412;;-2857.702;;-2832.0319;;-2832.0319
-23.409615;;-23.409615;;-23.770182;;-26.939824;;-32.074339;;-38.980721;;-47.789614;;-58.745577;;-72.091795;;-87.931103;;-106.58497;;-128.28783;;-153.91045;;-186.19668;;-227.93978;;-280.90566;;-346.45586;;-424.71047;;-514.64882;;-614.70138;;-721.72665;;-832.13039;;-944.95366;;-1062.4565;;-1186.8119;;-1316.8049;;-1446.8459;;-1569.2205;;-1679.0032;;-1777.6251;;-1870.1659;;-1959.0856;;-2042.2811;;-2117.1936;;-2184.746;;-2248.5956;;-2311.7616;;-2374.2309;;-2432.5916;;-2482.2186;;-2521.3626;;-2553.2545;;-2583.7405;;-2617.2835;;-2654.7711;;-2693.6444;;-2730.101;;-2762.092;;-2790.3016;;-2816.6313;;-2842.4457;;-2867.6105;;-2890.1429;;-2907.2659;;-2917.825;;-2923.5745;;-2927.5073;;-2931.0155;;-2932.7617;;-2929.6084;;-2918.5514;;-2899.4397;;-2877.514;;-2862.4893;;-2862.4893
-23.429142;;-23.429142;;-24.76155;;-28.680294;;-34.274655;;-41.454769;;-50.278277;;-60.683718;;-72.892681;;-86.845893;;-102.75804;;-120.44725;;-140.09226;;-165.95012;;-202.26821;;-249.94454;;-309.9959;;-383.23588;;-468.93949;;-566.50623;;-674.00179;;-788.39425;;-907.8902;;-1033.8523;;-1167.845;;-1307.5228;;-1445.3347;;-1571.056;;-1678.1829;;-1769.5156;;-1854.0161;;-1937.6529;;-2019.2274;;-2094.7042;;-2163.1147;;-2227.3529;;-2290.5852;;-2352.8191;;-2410.3406;;-2458.4846;;-2495.8328;;-2525.8077;;-2554.2467;;-2585.8728;;-2622.0754;;-2660.7333;;-2698.6957;;-2734.8551;;-2770.0685;;-2804.7847;;-2838.0843;;-2868.2328;;-2893.0429;;-2910.5473;;-2920.4883;;-2925.1013;;-2927.7371;;-2930.2071;;-2931.4974;;-2929.1715;;-2921.94;;-2911.1665;;-2900.4679;;-2893.8691;;-2893.8691
-23.721183;;-23.721183;;-26.662093;;-31.459332;;-37.806255;;-45.669244;;-54.825868;;-65.168863;;-76.082627;;-87.247761;;-99.542863;;-112.86744;;-126.29004;;-145.1553;;-176.33809;;-218.93879;;-273.5634;;-341.44517;;-422.57064;;-517.11999;;-624.47003;;-742.59621;;-869.06193;;-1003.5588;;-1146.3753;;-1293.5852;;-1435.6921;;-1560.8002;;-1662.3963;;-1745.6444;;-1823.1704;;-1904.01;;-1987.6465;;-2068.0778;;-2141.3291;;-2208.3253;;-2271.9703;;-2332.7864;;-2387.5707;;-2432.2871;;-2466.1828;;-2492.8013;;-2517.702;;-2545.8439;;-2579.5997;;-2617.8843;;-2658.1079;;-2699.2504;;-2741.7238;;-2784.7225;;-2825.4447;;-2860.6147;;-2887.7896;;-2905.8883;;-2915.7411;;-2920.3887;;-2923.7652;;-2927.8628;;-2931.4393;;-2932.1199;;-2929.2445;;-2924.4049;;-2919.9666;;-2917.5089;;-2917.5089
-25.358379;;-25.358379;;-29.268478;;-34.984578;;-42.273188;;-50.978903;;-60.803166;;-71.288291;;-80.871883;;-88.114532;;-96.459514;;-106.17808;;-115.08019;;-127.52178;;-154.52146;;-192.86864;;-242.83386;;-305.72842;;-382.31702;;-473.24375;;-579.05855;;-699.11581;;-831.57636;;-974.21085;;-1124.3323;;-1275.8153;;-1417.6887;;-1537.8241;;-1631.5243;;-1706.8092;;-1779.0562;;-1859.4122;;-1947.7905;;-2036.1442;;-2116.8534;;-2187.8525;;-2251.3278;;-2309.0282;;-2359.6283;;-2400.6553;;-2431.9103;;-2456.2735;;-2478.3957;;-2503.426;;-2535.1048;;-2573.5988;;-2616.2666;;-2661.0554;;-2707.7636;;-2755.7724;;-2802.1482;;-2842.5941;;-2873.6683;;-2894.1852;;-2905.6001;;-2911.7464;;-2917.0973;;-2923.7642;;-2930.4695;;-2934.9225;;-2936.3165;;-2935.4752;;-2933.8458;;-2932.6992;;-2932.6992
-27.818447;;-27.818447;;-32.317089;;-38.82254;;-47.028815;;-56.618544;;-67.206427;;-77.87975;;-85.549639;;-88.707182;;-93.857478;;-101.2797;;-107.76895;;-114.55768;;-138.18254;;-173.10912;;-219.30623;;-278.10242;;-350.88553;;-438.53751;;-542.45279;;-663.01088;;-799.12422;;-947.5848;;-1102.497;;-1254.6751;;-1392.0454;;-1504.0739;;-1589.1906;;-1657.7745;;-1726.657;;-1808.008;;-1901.7774;;-1998.0835;;-2086.0269;;-2160.7421;;-2223.6515;;-2277.8768;;-2324.6127;;-2363.5579;;-2394.8456;;-2419.8044;;-2441.5;;-2465.1214;;-2495.7392;;-2534.542;;-2578.505;;-2624.3872;;-2671.79;;-2721.4225;;-2771.502;;-2817.247;;-2853.7342;;-2878.7209;;-2893.5179;;-2902.2362;;-2909.5462;;-2917.8567;;-2926.6169;;-2934.1797;;-2939.3809;;-2941.7895;;-2941.9363;;-2941.3216;;-2941.3216
-30.164417;;-30.164417;;-35.127022;;-42.277574;;-51.244518;;-61.579591;;-72.774368;;-83.469601;;-88.71348;;-88.973523;;-92.095679;;-98.364018;;-104.13979;;-107.00447;;-127.61866;;-159.85372;;-203.27132;;-259.09548;;-329.14844;;-414.39157;;-516.55867;;-636.5466;;-773.66964;;-924.47869;;-1081.2171;;-1231.4129;;-1361.9938;;-1465.6633;;-1544.2864;;-1609.3602;;-1677.5339;;-1760.6524;;-1858.1952;;-1959.0625;;-2050.666;;-2126.9431;;-2189.1336;;-2241.257;;-2286.3413;;-2325.7993;;-2359.7293;;-2387.6802;;-2411.1158;;-2435.0534;;-2465.2529;;-2503.4603;;-2546.6908;;-2591.4765;;-2637.7186;;-2687.2914;;-2739.509;;-2789.5742;;-2831.5897;;-2862.1633;;-2881.6925;;-2893.6255;;-2902.3574;;-2910.8451;;-2919.9408;;-2929.2451;;-2937.5113;;-2943.0175;;-2945.1272;;-2945.2515;;-2945.2515
-32.047398;;-32.047398;;-37.337701;;-44.937788;;-54.41823;;-65.216049;;-76.689196;;-87.094198;;-90.228219;;-89.207958;;-91.269519;;-96.926809;;-102.83255;;-104.65485;;-121.70141;;-151.69734;;-193.08631;;-246.8027;;-314.69647;;-397.98785;;-498.32424;;-616.87041;;-753.16815;;-903.82447;;-1060.4013;;-1208.1837;;-1333.4271;;-1432.4295;;-1509.6493;;-1576.1448;;-1646.5401;;-1731.0522;;-1828.6534;;-1928.4081;;-2018.3062;;-2093.023;;-2154.2571;;-2206.1849;;-2252.2086;;-2294.1315;;-2331.6334;;-2363.1587;;-2389.2698;;-2414.4883;;-2444.3125;;-2480.8153;;-2522.0069;;-2565.2316;;-2610.4657;;-2659.4966;;-2712.0526;;-2764.0782;;-2810.046;;-2845.9751;;-2870.773;;-2886.3269;;-2896.3172;;-2904.1973;;-2912.3145;;-2921.907;;-2932.2431;;-2940.5812;;-2944.8697;;-2945.9846;;-2945.9846
-33.643951;;-33.643951;;-39.162543;;-47.063855;;-56.8591;;-67.866944;;-79.381516;;-88.954001;;-91.044753;;-90.211347;;-91.900107;;-96.976248;;-103.00543;;-105.75415;;-118.14543;;-146.0291;;-185.58885;;-237.36544;;-303.122;;-384.33017;;-482.43125;;-598.7747;;-733.12209;;-882.37211;;-1038.3043;;-1185.7216;;-1310.6416;;-1411.4917;;-1493.7488;;-1566.5942;;-1641.1362;;-1725.2499;;-1818.2781;;-1911.4823;;-1995.3911;;-2066.3816;;-2126.5201;;-2179.3679;;-2227.4791;;-2271.9863;;-2312.239;;-2346.6966;;-2375.7041;;-2402.7668;;-2432.3784;;-2467.0779;;-2506.5895;;-2549.2715;;-2594.3513;;-2642.3953;;-2693.3103;;-2744.6997;;-2792.5007;;-2832.5239;;-2862.0003;;-2881.0838;;-2892.5862;;-2899.9666;;-2906.5015;;-2915.1031;;-2926.1748;;-2936.4872;;-2942.6349;;-2944.7051;;-2944.7051
-35.324458;;-35.324458;;-41.028524;;-49.157985;;-59.150377;;-70.188202;;-81.374371;;-89.807993;;-92.262995;;-92.770036;;-94.703104;;-99.082913;;-104.59149;;-108.08845;;-115.42089;;-141.08098;;-178.61472;;-228.20236;;-291.5027;;-370.25877;;-465.63194;;-579.13632;;-710.82373;;-858.12166;;-1013.7196;;-1163.5129;;-1293.5002;;-1401.9289;;-1493.7057;;-1575.3849;;-1654.107;;-1735.6932;;-1820.9949;;-1905.0909;;-1981.9059;;-2049.1826;;-2108.5475;;-2162.3282;;-2211.8363;;-2257.5545;;-2299.224;;-2336.1868;;-2368.6551;;-2398.5574;;-2429.0716;;-2463.2459;;-2502.3033;;-2545.0718;;-2589.7093;;-2635.78;;-2683.913;;-2733.7407;;-2782.5065;;-2825.4281;;-2858.1825;;-2879.8794;;-2892.8653;;-2900.1551;;-2905.0936;;-2911.7791;;-2921.9782;;-2932.6927;;-2939.7514;;-2942.4553;;-2942.4553
-37.286539;;-37.286539;;-43.159057;;-51.467383;;-61.52634;;-72.474779;;-82.922952;;-90.404402;;-94.300752;;-96.769159;;-99.438241;;-103.1702;;-107.57654;;-110.94095;;-114.26369;;-136.98327;;-172.12176;;-219.35698;;-280.08646;;-356.26882;;-448.84119;;-559.39917;;-688.33792;;-833.71344;;-989.38466;;-1142.9652;;-1280.4374;;-1398.0702;;-1499.2451;;-1588.3653;;-1669.666;;-1747.5234;;-1824.7762;;-1900.5996;;-1972.0183;;-2037.2831;;-2096.7583;;-2151.21;;-2200.9576;;-2246.564;;-2288.9945;;-2328.8306;;-2365.9216;;-2400.3265;;-2433.7523;;-2469.244;;-2508.5444;;-2550.4551;;-2592.8281;;-2635.6202;;-2680.9317;;-2730.0204;;-2780.3994;;-2825.8963;;-2860.6635;;-2883.4999;;-2897.0796;;-2904.2603;;-2908.0031;;-2912.647;;-2920.7987;;-2930.2206;;-2936.9045;;-2939.6954;;-2939.6954
-39.609921;;-39.609921;;-45.64409;;-54.096375;;-64.114078;;-74.474012;;-83.896415;;-91.164462;;-96.729375;;-101.07662;;-104.65848;;-108.05879;;-111.56169;;-114.72293;;-116.76228;;-134.46123;;-167.01141;;-212.13248;;-270.67791;;-344.55046;;-434.83713;;-542.99302;;-669.75875;;-813.7545;;-969.86317;;-1127.165;;-1271.302;;-1395.5903;;-1501.8831;;-1594.0549;;-1675.277;;-1749.1526;;-1819.8517;;-1889.6461;;-1957.9864;;-2023.3433;;-2084.5708;;-2140.6575;;-2190.9897;;-2236.5389;;-2279.8137;;-2322.8512;;-2365.4017;;-2405.8543;;-2444.1041;;-2482.2021;;-2521.5725;;-2561.2276;;-2599.9051;;-2638.941;;-2681.8242;;-2730.6672;;-2782.7057;;-2830.2985;;-2866.055;;-2888.4247;;-2900.9207;;-2907.3239;;-2910.6471;;-2914.4514;;-2920.8306;;-2928.1347;;-2933.3573;;-2935.5947;;-2935.5947
-42.426996;;-42.426996;;-48.378273;;-56.791795;;-66.482688;;-76.043989;;-84.469936;;-91.994762;;-98.758151;;-104.37581;;-108.70715;;-112.1996;;-115.71131;;-119.5746;;-122.45258;;-133.47664;;-163.58337;;-206.88628;;-263.66284;;-335.67522;;-424.31054;;-530.74888;;-656.03612;;-799.23675;;-955.9798;;-1116.2483;;-1264.7012;;-1391.1505;;-1496.7554;;-1586.8442;;-1665.3787;;-1735.6317;;-1801.8186;;-1867.7006;;-1934.7353;;-2002.1411;;-2067.6176;;-2128.0851;;-2181.4041;;-2228.376;;-2272.7063;;-2318.2003;;-2365.5245;;-2412.2003;;-2455.9871;;-2497.003;;-2536.1598;;-2573.5143;;-2609.4147;;-2646.1761;;-2687.4033;;-2735.1398;;-2786.6795;;-2834.0486;;-2868.844;;-2888.7353;;-2898.0619;;-2902.7444;;-2906.7903;;-2912.1184;;-2918.5209;;-2924.1207;;-2927.436;;-2928.6691;;-2928.6691
-48.01694;;-48.01694;;-53.072742;;-60.868104;;-69.608744;;-77.878983;;-85.507972;;-93.061839;;-100.18171;;-106.21336;;-110.83529;;-114.57426;;-118.833;;-124.20586;;-128.48973;;-133.57421;;-161.16587;;-202.63396;;-257.7391;;-328.04923;;-415.21451;;-520.11464;;-644.03077;;-786.36961;;-943.27503;;-1105.1802;;-1255.3003;;-1379.7072;;-1480.1856;;-1565.045;;-1639.9185;;-1707.8626;;-1772.1465;;-1836.6249;;-1904.2403;;-1975.4588;;-2047.3966;;-2114.8873;;-2173.7384;;-2223.8045;;-2269.3017;;-2315.7925;;-2365.7649;;-2416.95;;-2465.2848;;-2508.7574;;-2547.9685;;-2584.5758;;-2620.5012;;-2657.9764;;-2699.2104;;-2745.1578;;-2793.3532;;-2836.7742;;-2867.2609;;-2882.0334;;-2886.2707;;-2888.5978;;-2894.4895;;-2903.5586;;-2911.9761;;-2916.9407;;-2918.7066;;-2919.017;;-2919.017
-56.405037;;-56.405037;;-60.744367;;-67.588537;;-74.986226;;-82.017385;;-88.925007;;-95.723359;;-102.00071;;-107.28254;;-111.3418;;-114.8857;;-119.72771;;-126.35267;;-131.56915;;-133.29436;;-158.12853;;-197.65152;;-250.93072;;-319.25331;;-404.41393;;-507.12575;;-628.80475;;-769.1336;;-924.67245;;-1086.2461;;-1236.0759;;-1356.8639;;-1451.6762;;-1532.0942;;-1605.1957;;-1673.6511;;-1739.3812;;-1805.506;;-1875.6668;;-1951.3905;;-2029.6859;;-2104.0086;;-2168.5709;;-2222.2108;;-2269.0784;;-2315.764;;-2366.3302;;-2419.3178;;-2469.9586;;-2515.0229;;-2555.0673;;-2592.9992;;-2631.6605;;-2672.5456;;-2715.8293;;-2760.6316;;-2804.1956;;-2840.871;;-2864.1447;;-2872.0807;;-2870.8751;;-2871.1841;;-2879.3128;;-2892.4414;;-2903.3335;;-2908.4253;;-2909.5469;;-2909.5631;;-2909.5631
-66.861157;;-66.861157;;-70.732181;;-76.761776;;-83.413645;;-90.359479;;-96.856935;;-101.96261;;-105.80384;;-108.76593;;-111.03039;;-113.48903;;-117.9733;;-124.60734;;-129.69734;;-130.27483;;-152.91214;;-190.43454;;-241.41992;;-306.96471;;-388.92454;;-488.00983;;-605.70568;;-741.98806;;-893.966;;-1053.3651;;-1203.1137;;-1323.7428;;-1417.8027;;-1498.8108;;-1574.4657;;-1646.7316;;-1716.2662;;-1785.4601;;-1858.2436;;-1936.7839;;-2018.3422;;-2096.2071;;-2164.2224;;-2220.7406;;-2269.456;;-2316.7708;;-2367.0351;;-2419.4835;;-2470.027;;-2515.7835;;-2557.5271;;-2598.4675;;-2641.4324;;-2686.9432;;-2733.2706;;-2777.6091;;-2816.6025;;-2846.1265;;-2862.3818;;-2865.3144;;-2861.545;;-2861.6094;;-2871.2292;;-2886.0661;;-2897.5663;;-2902.4444;;-2903.5506;;-2903.8584;;-2903.8584
-78.237379;;-78.339139;;-81.862742;;-87.410455;;-94.39075;;-102.33277;;-108.97645;;-112.14816;;-112.34416;;-111.47489;;-110.75106;;-111.2898;;-114.49855;;-119.97721;;-124.18661;;-124.88252;;-145.57558;;-180.70923;;-228.65384;;-290.37997;;-367.77829;;-461.69596;;-573.6594;;-704.06758;;-850.8928;;-1007.5624;;-1159.7967;;-1287.9235;;-1389.9921;;-1478.5615;;-1561.0036;;-1638.5102;;-1711.1362;;-1781.4065;;-1853.8823;;-1931.2999;;-2011.5332;;-2088.8174;;-2157.7584;;-2216.6008;;-2268.0148;;-2316.9603;;-2366.838;;-2417.3644;;-2466.1901;;-2512.0134;;-2556.0047;;-2600.8936;;-2648.7038;;-2698.7158;;-2747.4641;;-2790.7318;;-2825.315;;-2849.3691;;-2862.2931;;-2865.6037;;-2864.561;;-2866.8863;;-2876.4767;;-2889.1769;;-2897.9847;;-2901.1658;;-2901.9633;;-2902.5626;;-2902.5626
-88.998781;;-89.102829;;-92.133929;;-97.889305;;-106.47372;;-116.25732;;-123.44942;;-124.67444;;-120.84321;;-115.50796;;-111.20424;;-109.36504;;-110.82135;;-114.56619;;-117.74311;;-119.38936;;-137.80048;;-170.12869;;-214.52116;;-271.84659;;-343.97151;;-432.19977;;-537.97497;;-662.24764;;-804.04529;;-958.84725;;-1115.9655;;-1257.7286;;-1375.4298;;-1477.0227;;-1568.2738;;-1649.8;;-1722.409;;-1789.9983;;-1858.1454;;-1930.2;;-2005.0777;;-2078.7486;;-2147.2057;;-2208.5202;;-2263.5602;;-2314.9128;;-2364.558;;-2412.8175;;-2459.5176;;-2505.302;;-2551.7333;;-2600.6828;;-2652.9365;;-2706.3643;;-2756.0735;;-2797.3131;;-2828.164;;-2849.6138;;-2863.7043;;-2872.2219;;-2877.5753;;-2883.3953;;-2891.4985;;-2899.1564;;-2902.6984;;-2902.7666;;-2902.708;;-2903.4249;;-2903.4249
-96.152912;;-96.152912;;-99.28385;;-106.36371;;-117.22436;;-129.05849;;-136.9389;;-136.40088;;-129.23959;;-120.14345;;-112.61639;;-108.47119;;-108.0371;;-109.92296;;-112.19265;;-115.44597;;-132.07136;;-161.70394;;-202.63206;;-255.72;;-322.85641;;-406.11902;;-506.7997;;-626.17975;;-764.13551;;-917.77807;;-1079.3328;;-1234.3653;;-1370.091;;-1487.1207;;-1587.4981;;-1671.4591;;-1741.8577;;-1804.6424;;-1866.171;;-1930.3301;;-1997.5446;;-2066.0027;;-2133.2147;;-2196.8951;;-2255.741;;-2309.7711;;-2359.7106;;-2406.586;;-2452.1064;;-2498.4915;;-2547.4865;;-2599.8526;;-2654.964;;-2709.7646;;-2759.1262;;-2798.8715;;-2828.5032;;-2850.6506;;-2868.1633;;-2882.1162;;-2892.6663;;-2900.6162;;-2906.3688;;-2908.5989;;-2906.836;;-2904.085;;-2903.6831;;-2904.9311;;-2904.9311
-99.646423;;-99.646423;;-103.06219;;-111.25127;;-123.64848;;-136.79487;;-145.15865;;-143.71292;;-134.91859;;-123.8971;;-114.48088;;-108.64185;;-106.47109;;-106.55067;;-108.03299;;-113.28126;;-129.84701;;-157.43442;;-195.46;;-245.00055;;-307.97894;;-386.82541;;-483.50989;;-599.02761;;-733.6396;;-885.4609;;-1048.7416;;-1212.2894;;-1363.4612;;-1496.0395;;-1605.9985;;-1692.5714;;-1761.1465;;-1819.6282;;-1874.6377;;-1930.6368;;-1989.9575;;-2052.9688;;-2118.335;;-2183.3562;;-2245.0008;;-2301.4032;;-2352.534;;-2399.938;;-2446.3131;;-2494.533;;-2546.0432;;-2600.2921;;-2655.5006;;-2709.0544;;-2757.6265;;-2798.5165;;-2831.2059;;-2857.0369;;-2877.4483;;-2892.9901;;-2903.9646;;-2910.997;;-2914.0968;;-2912.6425;;-2908.1023;;-2904.8548;;-2905.7164;;-2908.2656;;-2908.2656
-102.01743;;-102.12227;;-104.71811;;-112.20986;;-124.16181;;-136.95322;;-145.09056;;-144.05301;;-135.91177;;-125.29265;;-115.83678;;-109.40866;;-105.9822;;-104.58017;;-105.58485;;-113.19351;;-130.93099;;-157.32627;;-192.87823;;-239.27331;;-298.69862;;-373.60363;;-466.56772;;-578.63483;;-709.84097;;-858.91198;;-1021.5431;;-1189.2452;;-1351.1943;;-1496.8177;;-1615.8953;;-1705.8743;;-1774.0535;;-1829.6667;;-1879.4778;;-1928.8398;;-1982.036;;-2040.9389;;-2104.573;;-2169.7725;;-2232.6057;;-2290.459;;-2343.2847;;-2393.0114;;-2442.286;;-2493.3037;;-2546.4387;;-2599.9937;;-2652.121;;-2702.476;;-2751.2037;;-2796.9903;;-2836.9611;;-2868.3468;;-2890.0949;;-2903.3779;;-2910.8327;;-2914.6902;;-2915.2715;;-2912.3618;;-2908.284;;-2907.3247;;-2910.8409;;-2914.9802;;-2914.9802
-103.50462;;-103.61001;;-104.77518;;-110.315;;-120.54413;;-131.85171;;-139.03454;;-138.65853;;-132.4511;;-124.01132;;-116.1623;;-110.29852;;-106.44256;;-104.38619;;-105.71333;;-115.742;;-134.93604;;-161.28366;;-194.99444;;-238.33478;;-294.56318;;-366.38876;;-456.28559;;-565.93453;;-694.75626;;-841.71312;;-1003.3353;;-1172.6393;;-1339.7935;;-1492.1689;;-1616.1913;;-1708.0001;;-1775.6263;;-1828.9586;;-1875.2322;;-1920.8438;;-1971.2737;;-2028.7593;;-2091.8392;;-2156.8001;;-2219.504;;-2277.5648;;-2331.6225;;-2384.0937;;-2436.9118;;-2490.4555;;-2543.3894;;-2593.5307;;-2640.5153;;-2687.5389;;-2738.3467;;-2791.848;;-2841.094;;-2878.312;;-2900.5764;;-2910.8731;;-2914.7031;;-2915.7683;;-2914.6745;;-2911.7633;;-2909.8871;;-2912.3649;;-2918.6108;;-2923.926;;-2923.926
-103.29464;;-103.40038;;-103.35321;;-107.12889;;-115.59058;;-125.12379;;-130.97782;;-130.97152;;-126.888;;-121.27165;;-115.79522;;-111.26988;;-107.95753;;-106.40968;;-108.89618;;-120.41732;;-140.55654;;-167.35187;;-200.4244;;-241.72063;;-296.16082;;-366.83173;;-455.9744;;-565.47744;;-694.41765;;-841.5554;;-1003.3646;;-1172.5875;;-1338.7001;;-1488.6557;;-1609.5028;;-1698.0035;;-1762.2531;;-1812.7438;;-1857.7129;;-1903.8177;;-1955.793;;-2014.7799;;-2078.5428;;-2143.2489;;-2205.1748;;-2262.6076;;-2316.9879;;-2371.1598;;-2426.2762;;-2480.824;;-2531.943;;-2577.7393;;-2620.1153;;-2665.4724;;-2719.6931;;-2780.7347;;-2837.8283;;-2879.6637;;-2902.8571;;-2912.4847;;-2915.8921;;-2916.967;;-2915.9909;;-2913.7579;;-2913.6136;;-2918.1648;;-2925.6416;;-2931.2344;;-2931.2344
-101.28416;;-101.39005;;-100.8542;;-103.7822;;-111.08081;;-119.11796;;-123.74958;;-123.99714;;-121.79437;;-118.74523;;-115.51177;;-112.58884;;-110.59131;;-110.48388;;-114.29309;;-126.0358;;-146.14875;;-172.92377;;-205.91844;;-247.41302;;-302.87101;;-375.21778;;-466.57551;;-578.72398;;-710.47942;;-860.27606;;-1023.6676;;-1191.4737;;-1350.8191;;-1489.5493;;-1598.8301;;-1677.698;;-1734.4472;;-1781.1272;;-1827.6591;;-1879.2717;;-1936.9459;;-1999.1838;;-2063.6369;;-2127.7185;;-2188.8418;;-2245.7845;;-2300.0348;;-2354.3153;;-2409.4008;;-2463.1079;;-2512.2485;;-2555.6379;;-2596.6073;;-2642.66;;-2699.7225;;-2764.6963;;-2825.3278;;-2869.6284;;-2894.8986;;-2907.28;;-2914.1538;;-2918.4268;;-2919.6242;;-2918.5488;;-2918.6825;;-2922.6179;;-2928.9586;;-2933.6895;;-2933.6895
-98.21419;;-98.320163;;-97.954224;;-100.88465;;-107.68545;;-114.7744;;-118.65869;;-119.2317;;-118.44749;;-117.23258;;-115.68744;;-114.28712;;-113.91593;;-115.501;;-120.33399;;-131.32579;;-150.31435;;-176.38317;;-209.84211;;-254.13787;;-313.26716;;-389.60692;;-485.38727;;-601.94564;;-738.07857;;-891.82411;;-1057.2966;;-1222.4137;;-1371.1246;;-1493.7983;;-1587.3888;;-1653.2967;;-1700.331;;-1743.0952;;-1793.5308;;-1853.902;;-1919.1731;;-1984.4267;;-2048.411;;-2111.325;;-2172.1828;;-2229.5842;;-2283.8691;;-2336.8909;;-2389.6849;;-2441.2265;;-2489.5433;;-2534.0212;;-2577.453;;-2625.7917;;-2683.4755;;-2747.2915;;-2806.5382;;-2851.3089;;-2879.9038;;-2897.6658;;-2910.1756;;-2919.0024;;-2923.3509;;-2923.923;;-2923.7704;;-2925.6246;;-2929.4242;;-2932.5989;;-2932.5989
-94.905972;;-95.011969;;-95.204615;;-98.675505;;-105.56088;;-112.37994;;-116.0394;;-116.76928;;-116.57655;;-116.30851;;-115.9681;;-115.95794;;-117.11024;;-120.07844;;-125.53343;;-135.46218;;-152.63922;;-178.09229;;-213.85529;;-262.73649;;-326.83127;;-408.2974;;-509.47506;;-630.77105;;-771.47006;;-928.91332;;-1095.5289;;-1256.1557;;-1392.7456;;-1499.9692;;-1579.8023;;-1635.1174;;-1674.9023;;-1715.5052;;-1769.9156;;-1837.4171;;-1907.8454;;-1973.9181;;-2036.2085;;-2097.9529;;-2159.4724;;-2218.4181;;-2273.064;;-2323.9747;;-2373.0642;;-2421.7946;;-2470.2706;;-2517.9468;;-2565.5278;;-2615.9845;;-2671.9692;;-2731.2559;;-2786.5332;;-2831.1352;;-2863.8274;;-2887.5702;;-2905.2437;;-2917.6045;;-2924.5601;;-2927.1398;;-2927.7345;;-2928.7334;;-2930.9432;;-2933.0167;;-2933.0167
-91.848682;;-91.954783;;-92.737515;;-96.876085;;-104.21254;;-111.37693;;-115.23871;;-115.8164;;-115.3749;;-115.3515;;-115.94321;;-117.21251;;-119.59495;;-123.51228;;-129.33367;;-138.41777;;-154.16309;;-181.17663;;-221.32997;;-275.36394;;-344.86565;;-432.03965;;-538.45885;;-664.2623;;-808.89388;;-968.68927;;-1134.2528;;-1288.0379;;-1413.2235;;-1509.2843;;-1581.0597;;-1632.1348;;-1670.7862;;-1712.2663;;-1768.3501;;-1836.8506;;-1906.4687;;-1970.1614;;-2030.0641;;-2091.0797;;-2153.9585;;-2215.0009;;-2270.2027;;-2318.9288;;-2364.2299;;-2410.0407;;-2458.1842;;-2507.8958;;-2557.9433;;-2608.8995;;-2662.3217;;-2717.3436;;-2769.7271;;-2815.0555;;-2851.5382;;-2879.5574;;-2900.0523;;-2913.9337;;-2922.384;;-2927.113;;-2930.0643;;-2932.7688;;-2935.6561;;-2937.7677;;-2937.7677
-89.123393;;-89.229714;;-90.275668;;-94.665064;;-102.27817;;-110.00239;;-114.49616;;-115.17886;;-114.45348;;-114.50413;;-115.82931;;-118.13165;;-121.41936;;-125.98014;;-132.09349;;-140.79055;;-157.70204;;-189.6661;;-235.28;;-295.07572;;-370.74485;;-464.1066;;-575.6581;;-705.96675;;-853.66815;;-1013.6643;;-1174.6293;;-1318.6753;;-1434.0096;;-1523.3888;;-1592.2835;;-1644.5641;;-1687.1908;;-1731.8806;;-1787.1843;;-1850.9493;;-1914.574;;-1973.4741;;-2030.5761;;-2090.7964;;-2154.6643;;-2217.3746;;-2273.1625;;-2320.5842;;-2363.4437;;-2406.7997;;-2452.9941;;-2501.3257;;-2550.3334;;-2600.0368;;-2651.7172;;-2705.2694;;-2757.7234;;-2804.8956;;-2843.7404;;-2873.242;;-2894.1383;;-2908.187;;-2917.5533;;-2924.4831;;-2930.6867;;-2936.5924;;-2941.4541;;-2944.2179;;-2944.2179
-86.688613;;-86.795068;;-87.699973;;-91.6739;;-98.961973;;-106.99352;;-112.45496;;-114.13627;;-113.98688;;-114.43752;;-116.27342;;-119.20106;;-123.09017;;-128.12761;;-134.50056;;-143.82;;-167.19589;;-205.6014;;-257.75052;;-324.61204;;-407.99911;;-508.38361;;-626.54132;;-762.02312;;-911.69751;;-1068.1046;;-1218.3769;;-1348.7698;;-1454.7104;;-1539.7623;;-1608.1707;;-1663.3848;;-1711.1298;;-1759.5284;;-1813.6075;;-1871.511;;-1928.2079;;-1981.9406;;-2035.8611;;-2094.2104;;-2157.3567;;-2220.2304;;-2276.3554;;-2323.8585;;-2366.3799;;-2408.3521;;-2451.5137;;-2495.7673;;-2541.1926;;-2588.8554;;-2640.083;;-2694.4776;;-2748.6576;;-2797.5277;;-2837.0472;;-2866.1474;;-2886.4501;;-2900.5706;;-2911.0998;;-2920.4426;;-2929.9158;;-2938.7623;;-2945.1733;;-2948.2788;;-2948.2788
-84.600319;;-84.706767;;-85.405742;;-88.701639;;-95.270508;;-103.2722;;-109.781;;-113.18455;;-114.4712;;-115.65315;;-117.77788;;-120.98265;;-125.29449;;-130.74034;;-137.35963;;-151.03736;;-182.55154;;-228.03294;;-287.69909;;-363.11189;;-455.38107;;-564.92237;;-691.87688;;-833.89551;;-984.46324;;-1131.5933;;-1263.3306;;-1376.1422;;-1471.7315;;-1552.8669;;-1621.4711;;-1679.505;;-1731.3654;;-1782.8035;;-1836.5454;;-1890.8295;;-1942.8936;;-1992.7082;;-2043.3086;;-2098.3152;;-2158.3682;;-2219.261;;-2275.047;;-2323.5943;;-2367.3942;;-2409.26;;-2450.0477;;-2490.4832;;-2532.5724;;-2578.6925;;-2629.9874;;-2685.094;;-2739.8684;;-2788.8636;;-2828.0435;;-2856.7577;;-2877.1864;;-2892.2377;;-2904.562;;-2916.4364;;-2928.5531;;-2939.1782;;-2946.0837;;-2949.0096;;-2949.0096
-82.484598;;-82.590722;;-83.500731;;-86.600284;;-92.672427;;-100.61121;;-108.08481;;-113.28313;;-116.18211;;-118.14014;;-120.45333;;-123.8442;;-128.56049;;-134.37305;;-141.57453;;-163.08676;;-201.07552;;-253.31062;;-320.64169;;-404.93489;;-506.61436;;-626.35093;;-763.18687;;-912.42122;;-1062.7038;;-1195.4576;;-1304.7506;;-1398.9475;;-1483.7529;;-1561.0984;;-1630.5815;;-1691.8655;;-1747.2454;;-1800.7116;;-1854.2189;;-1906.6037;;-1956.3199;;-2003.8284;;-2051.5056;;-2102.2402;;-2157.2506;;-2214.1947;;-2268.6198;;-2318.09;;-2363.4427;;-2406.0912;;-2446.6013;;-2486.2512;;-2527.7874;;-2573.7771;;-2624.706;;-2678.4851;;-2731.2139;;-2778.5293;;-2817.286;;-2846.9181;;-2869.0752;;-2886.0452;;-2900.1326;;-2913.4992;;-2926.7193;;-2937.9384;;-2944.993;;-2947.8799;;-2947.8799
-79.168016;;-79.168016;;-81.099323;;-84.961409;;-91.228432;;-99.382505;;-107.74968;;-114.46336;;-118.75966;;-121.4625;;-124.06603;;-127.741;;-132.82118;;-138.76878;;-147.29849;;-174.93149;;-217.94017;;-275.66509;;-349.46693;;-441.07316;;-550.78501;;-679.18568;;-824.34443;;-979.38751;;-1128.227;;-1247.213;;-1338.7062;;-1418.4628;;-1494.6845;;-1569.2295;;-1640.2541;;-1705.1959;;-1763.689;;-1817.9252;;-1870.0594;;-1920.4472;;-1968.6716;;-2014.939;;-2060.2832;;-2106.5152;;-2155.5442;;-2207.362;;-2259.3256;;-2308.6586;;-2354.8077;;-2398.7188;;-2441.3939;;-2484.0572;;-2528.4315;;-2575.7105;;-2625.4657;;-2675.8841;;-2724.6967;;-2769.5679;;-2808.4402;;-2840.3417;;-2865.4605;;-2884.4765;;-2898.8298;;-2911.0804;;-2923.1521;;-2934.3039;;-2942.2718;;-2946.0429;;-2946.0429
-74.000295;;-74.000295;;-77.406377;;-82.864925;;-90.032399;;-98.743592;;-107.97622;;-115.98357;;-121.56926;;-125.14108;;-128.2359;;-132.2044;;-137.31204;;-142.74511;;-151.95163;;-182.44122;;-228.23874;;-289.09421;;-366.56663;;-462.16068;;-576.27242;;-709.30004;;-858.74349;;-1016.5213;;-1164.1434;;-1277.4194;;-1362.3872;;-1436.2053;;-1508.4741;;-1581.8075;;-1654.1094;;-1721.5844;;-1781.8911;;-1835.7742;;-1885.7634;;-1933.8062;;-1980.4549;;-2025.3316;;-2067.9879;;-2109.3793;;-2152.3039;;-2198.8097;;-2247.6142;;-2295.8009;;-2342.3065;;-2388.3527;;-2435.3663;;-2483.734;;-2532.9918;;-2582.2232;;-2630.4236;;-2677.0395;;-2721.9948;;-2764.8349;;-2804.2847;;-2838.8057;;-2866.8494;;-2887.0221;;-2899.7278;;-2908.5474;;-2917.9053;;-2928.826;;-2938.5074;;-2943.9191;;-2943.9191
-68.114993;;-68.114993;;-73.127536;;-80.44574;;-88.880465;;-98.332671;;-108.35351;;-117.49085;;-124.35505;;-128.9492;;-132.60486;;-136.60657;;-141.0838;;-145.07982;;-153.07202;;-183.83489;;-229.96982;;-291.14043;;-368.87391;;-464.51553;;-578.50148;;-711.17593;;-860.00882;;-1017.1099;;-1165.1366;;-1282.8731;;-1373.1748;;-1450.0172;;-1523.3204;;-1596.9225;;-1669.5166;;-1737.4954;;-1798.1348;;-1851.5435;;-1900.106;;-1946.1917;;-1990.4372;;-2031.7405;;-2069.0464;;-2104.0354;;-2141.1852;;-2183.5795;;-2229.9729;;-2277.4615;;-2325.4641;;-2375.5802;;-2428.754;;-2483.7872;;-2538.0754;;-2589.2661;;-2636.5325;;-2680.7287;;-2723.3094;;-2764.8649;;-2804.5919;;-2840.638;;-2870.2943;;-2890.7647;;-2901.7749;;-2907.6092;;-2914.4483;;-2924.7008;;-2935.3566;;-2941.9079;;-2941.9079
-63.57487;;-63.57487;;-69.951075;;-78.791116;;-88.416069;;-98.536429;;-109.12735;;-119.08879;;-127.02194;;-132.57591;;-136.69863;;-140.42927;;-143.74586;;-145.76383;;-151.31214;;-180.74446;;-225.49458;;-284.93587;;-360.43433;;-453.22095;;-563.70137;;-692.2743;;-836.75015;;-990.37792;;-1139.1229;;-1266.0833;;-1368.5732;;-1454.5944;;-1532.8274;;-1608.1586;;-1680.7352;;-1748.3466;;-1809.2032;;-1863.287;;-1912.0257;;-1956.7154;;-1996.846;;-2030.3566;;-2057.1706;;-2082.6966;;-2114.7784;;-2156.1721;;-2203.2899;;-2252.5778;;-2304.5351;;-2360.9724;;-2421.3311;;-2482.5002;;-2540.8067;;-2593.9172;;-2641.6456;;-2685.4643;;-2727.1993;;-2767.7521;;-2806.6168;;-2842.125;;-2871.723;;-2892.6962;;-2904.369;;-2910.152;;-2915.7877;;-2924.3875;;-2934.0077;;-2940.3058;;-2940.3058
-61.426191;;-61.426191;;-68.566592;;-78.463611;;-88.925534;;-99.462388;;-110.22544;;-120.46485;;-128.95342;;-135.21038;;-139.8019;;-143.39252;;-145.8023;;-146.41939;;-149.50625;;-176.46508;;-218.86156;;-275.53647;;-347.57072;;-436.11413;;-541.41637;;-663.93661;;-801.92183;;-949.98432;;-1097.5877;;-1231.9537;;-1346.8241;;-1444.1873;;-1529.9566;;-1608.9978;;-1682.9702;;-1751.6349;;-1814.514;;-1871.3602;;-1922.0894;;-1966.0829;;-2000.7743;;-2022.8083;;-2034.4723;;-2047.8274;;-2075.9385;;-2120.1272;;-2171.9349;;-2225.7303;;-2283.132;;-2346.342;;-2413.1767;;-2479.0072;;-2540.3078;;-2595.6989;;-2645.2883;;-2690.094;;-2731.5533;;-2770.5355;;-2806.7899;;-2839.59;;-2868.0987;;-2890.7671;;-2905.9854;;-2914.5156;;-2920.1488;;-2926.583;;-2933.9797;;-2939.212;;-2939.212
-60.490846;;-60.490846;;-68.149791;;-78.671816;;-89.734985;;-100.44918;;-110.90595;;-120.77122;;-129.24021;;-136.01578;;-141.39145;;-145.59425;;-148.29798;;-149.24393;;-151.35815;;-173.75659;;-212.85566;;-266.05835;;-333.92142;;-417.63359;;-517.05923;;-632.60972;;-762.8981;;-903.69911;;-1047.246;;-1184.0927;;-1307.258;;-1414.7776;;-1509.119;;-1593.9563;;-1671.9632;;-1744.7254;;-1812.7578;;-1875.2548;;-1930.5114;;-1975.9303;;-2006.7913;;-2018.6071;;-2016.4056;;-2019.0345;;-2044.4722;;-2092.3071;;-2148.9923;;-2206.4193;;-2267.1364;;-2334.2274;;-2404.8388;;-2473.7027;;-2537.8265;;-2596.428;;-2649.0281;;-2695.4405;;-2736.3335;;-2772.3487;;-2803.8041;;-2832.0853;;-2859.2326;;-2884.7646;;-2905.0285;;-2917.4097;;-2923.8624;;-2928.8788;;-2934.5881;;-2938.9694;;-2938.9694
-58.829031;;-58.829031;;-66.87285;;-77.91113;;-89.589079;;-100.51748;;-110.38616;;-119.46705;;-127.65654;;-135.01725;;-141.67925;;-147.47356;;-151.98786;;-155.23804;;-159.3863;;-175.41744;;-209.62351;;-258.10121;;-320.69923;;-398.49629;;-491.45841;;-599.36475;;-721.15218;;-853.55022;;-990.83698;;-1126.0141;;-1252.8091;;-1367.5495;;-1469.88;;-1561.6888;;-1645.9166;;-1725.4185;;-1801.3562;;-1872.4073;;-1935.514;;-1986.3097;;-2018.6432;;-2028.0781;;-2021.677;;-2020.9486;;-2044.8934;;-2091.9744;;-2147.199;;-2202.2614;;-2260.6811;;-2326.5942;;-2397.6154;;-2468.52;;-2536.1812;;-2599.1989;;-2655.7666;;-2704.2066;;-2744.0914;;-2775.7401;;-2800.7456;;-2823.6164;;-2849.3551;;-2877.662;;-2902.3618;;-2918.1639;;-2926.0419;;-2930.9995;;-2936.1047;;-2940.0275;;-2940.0275
-56.146332;;-56.146332;;-64.336598;;-75.643541;;-87.83503;;-99.219616;;-108.63899;;-116.99638;;-125.06133;;-133.21372;;-141.45645;;-149.4058;;-156.66527;;-163.39858;;-171.34226;;-185.59;;-213.00388;;-254.5521;;-309.96023;;-379.81468;;-465.10805;;-564.93283;;-678.15837;;-802.38132;;-933.38592;;-1065.6913;;-1193.7547;;-1313.3725;;-1422.44;;-1521.1399;;-1611.9896;;-1698.4679;;-1782.4382;;-1862.7643;;-1935.68;;-1995.3923;;-2035.2056;;-2052.0395;;-2053.7116;;-2058.8011;;-2082.1528;;-2122.1099;;-2167.4142;;-2213.1354;;-2263.9987;;-2324.8132;;-2394.1008;;-2466.7511;;-2538.4907;;-2606.2506;;-2666.7243;;-2716.952;;-2755.5084;;-2782.7464;;-2802.0507;;-2820.6415;;-2845.0006;;-2874.1454;;-2900.4358;;-2917.8564;;-2927.222;;-2933.1722;;-2938.4582;;-2942.1288;;-2942.1288
-53.435971;;-53.435971;;-61.548128;;-72.833898;;-85.275203;;-97.200346;;-106.59842;;-114.59638;;-122.81601;;-131.78894;;-141.42068;;-151.31657;;-161.23413;;-171.44733;;-183.2755;;-199.61427;;-223.77903;;-258.04904;;-304.694;;-365.40564;;-441.25926;;-533.00079;;-639.15488;;-757.60877;;-885.08508;;-1016.7762;;-1147.1537;;-1271.3912;;-1386.2413;;-1490.6896;;-1586.5873;;-1677.5432;;-1766.3412;;-1852.9988;;-1933.9925;;-2002.7474;;-2052.615;;-2082.071;;-2098.2161;;-2113.5785;;-2136.7702;;-2166.9005;;-2199.0603;;-2233.3179;;-2275.516;;-2330.5636;;-2397.5973;;-2471.3569;;-2546.0168;;-2616.6931;;-2678.9814;;-2729.3692;;-2766.3009;;-2790.9255;;-2808.1007;;-2825.6282;;-2848.9326;;-2875.9699;;-2899.8088;;-2916.1797;;-2926.4808;;-2934.1277;;-2940.4369;;-2944.3066;;-2944.3066
-51.616366;;-51.616366;;-59.628704;;-70.841087;;-83.423686;;-95.803365;;-105.52936;;-113.44296;;-121.86368;;-131.34234;;-141.7219;;-152.76032;;-164.49321;;-177.34109;;-192.29492;;-211.00864;;-234.94307;;-264.97818;;-303.55883;;-355.44326;;-423.4447;;-508.46339;;-610.75368;;-727.82641;;-856.57276;;-992.23906;;-1128.3884;;-1258.6019;;-1378.3677;;-1486.3095;;-1584.2659;;-1675.9592;;-1765.0448;;-1853.031;;-1937.3392;;-2011.5819;;-2069.6674;;-2110.7456;;-2139.8952;;-2163.9678;;-2187.0556;;-2209.7571;;-2232.4858;;-2258.8653;;-2295.1077;;-2345.7809;;-2410.2024;;-2482.9421;;-2557.1797;;-2627.0081;;-2687.716;;-2736.1099;;-2771.4445;;-2796.0465;;-2815.1401;;-2834.711;;-2857.3146;;-2880.1599;;-2898.8616;;-2912.4402;;-2923.2346;;-2933.0415;;-2941.1833;;-2945.8546;;-2945.8546
-50.961448;;-50.961448;;-58.978793;;-70.239322;;-83.020195;;-95.788719;;-105.88592;;-113.65888;;-122.02454;;-131.54157;;-141.98076;;-153.30284;;-165.87849;;-180.28349;;-197.25552;;-217.63675;;-241.80951;;-269.62813;;-302.68845;;-348.02367;;-411.58606;;-494.32067;;-596.44178;;-716.85915;;-851.48142;;-995.46961;;-1140.9357;;-1278.6006;;-1402.1073;;-1510.6172;;-1607.1973;;-1696.2786;;-1782.1829;;-1867.3828;;-1950.3046;;-2025.6826;;-2088.4927;;-2137.5167;;-2174.9728;;-2203.964;;-2227.175;;-2247.0997;;-2266.7979;;-2290.7276;;-2324.3936;;-2371.7123;;-2432.0493;;-2500.3022;;-2569.8236;;-2634.8912;;-2691.3092;;-2736.6806;;-2771.1472;;-2797.5592;;-2820.2349;;-2842.4448;;-2864.15;;-2882.7301;;-2896.7342;;-2908.0511;;-2919.4872;;-2931.3083;;-2941.2031;;-2946.7297;;-2946.7297
-50.88406;;-50.88406;;-58.960167;;-70.221519;;-83.31866;;-96.398841;;-106.76628;;-114.20846;;-122.24491;;-131.51771;;-141.67828;;-152.79974;;-165.54676;;-180.63284;;-198.57637;;-219.66612;;-243.65272;;-269.77345;;-299.34653;;-341.55985;;-404.72352;;-488.98531;;-594.36139;;-720.33725;;-862.63697;;-1016.4334;;-1172.6977;;-1319.0379;;-1446.217;;-1553.708;;-1646.5172;;-1730.6597;;-1811.3562;;-1891.6071;;-1970.6866;;-2044.8919;;-2110.3034;;-2164.5319;;-2206.8288;;-2238.4143;;-2262.7414;;-2284.077;;-2305.8828;;-2331.3519;;-2364.3901;;-2408.1095;;-2462.2065;;-2522.6876;;-2584.147;;-2641.9667;;-2692.9914;;-2735.6221;;-2770.1386;;-2798.5832;;-2823.5679;;-2846.4875;;-2866.5771;;-2882.32;;-2894.2266;;-2905.2375;;-2917.6525;;-2930.6023;;-2941.1418;;-2946.8759;;-2946.8759
-50.229076;;-50.229076;;-58.260921;;-69.489092;;-82.652205;;-95.943791;;-106.74154;;-114.01555;;-121.71933;;-130.74153;;-140.64128;;-151.47859;;-164.07136;;-179.2196;;-197.2885;;-218.22246;;-241.40139;;-265.84667;;-293.27324;;-335.61256;;-400.90871;;-488.2005;;-597.62699;;-728.85055;;-878.05252;;-1040.7294;;-1207.3888;;-1363.2466;;-1495.4806;;-1602.599;;-1691.1436;;-1769.1805;;-1843.4054;;-1917.6892;;-1992.4515;;-2065.4813;;-2133.1923;;-2191.4143;;-2237.0837;;-2270.9862;;-2298.0747;;-2323.7505;;-2350.6;;-2379.563;;-2412.552;;-2452.0346;;-2498.5324;;-2549.7046;;-2601.8278;;-2651.6972;;-2697.3174;;-2737.6131;;-2772.1748;;-2801.3106;;-2825.9869;;-2847.2102;;-2865.2035;;-2879.8045;;-2892.0528;;-2904.2347;;-2917.5172;;-2930.4566;;-2940.4117;;-2945.6424;;-2945.6424
-48.402332;;-48.402332;;-56.209104;;-67.166696;;-80.184659;;-93.59618;;-105.20489;;-112.9511;;-120.57777;;-129.46104;;-139.24001;;-149.9045;;-162.21461;;-176.95553;;-194.44583;;-214.51255;;-236.38933;;-259.17924;;-285.66216;;-330.229;;-398.07402;;-487.98852;;-600.48146;;-735.28656;;-889.32093;;-1058.5618;;-1233.6944;;-1398.8195;;-1537.8132;;-1646.8267;;-1732.7751;;-1805.3892;;-1873.0578;;-1941.1956;;-2011.9683;;-2084.3596;;-2154.2109;;-2215.535;;-2264.1164;;-2301.1436;;-2332.5674;;-2363.9043;;-2396.4015;;-2428.8732;;-2461.6308;;-2496.9437;;-2536.3461;;-2578.9739;;-2622.5725;;-2665.2801;;-2706.067;;-2743.9029;;-2777.2796;;-2804.9758;;-2827.2283;;-2845.7003;;-2861.9808;;-2876.6625;;-2890.2253;;-2903.6017;;-2916.9868;;-2929.0244;;-2937.8551;;-2942.4051;;-2942.4051
-46.024984;;-46.024984;;-53.523369;;-64.099758;;-76.870575;;-90.335406;;-102.82274;;-111.62977;;-119.46797;;-128.33855;;-138.15027;;-148.81478;;-160.80401;;-174.72047;;-190.9231;;-209.38686;;-229.53626;;-250.83613;;-277.72932;;-325.18484;;-394.98487;;-486.43538;;-600.45795;;-736.78593;;-893.10946;;-1065.8946;;-1246.3965;;-1418.8787;;-1565.4164;;-1679.3279;;-1766.3798;;-1836.6782;;-1899.7994;;-1962.9544;;-2030.2534;;-2101.555;;-2172.0791;;-2235.0678;;-2286.4661;;-2327.7743;;-2364.3939;;-2400.7316;;-2436.9883;;-2471.1275;;-2503.0361;;-2535.1922;;-2569.6439;;-2606.1103;;-2643.266;;-2680.4448;;-2717.2753;;-2752.3127;;-2783.0835;;-2807.8585;;-2827.2227;;-2843.6361;;-2859.2689;;-2874.5609;;-2889.043;;-2902.575;;-2915.0577;;-2925.7673;;-2933.6426;;-2937.8253;;-2937.8253
-44.053437;;-44.053437;;-51.294112;;-61.548536;;-74.095764;;-87.549071;;-100.59373;;-110.49865;;-118.75322;;-127.78712;;-137.81602;;-148.64525;;-160.30174;;-173.06048;;-187.35842;;-203.56181;;-221.59886;;-241.62032;;-270.1318;;-320.14516;;-391.11826;;-482.9834;;-596.97172;;-732.63857;;-888.38254;;-1061.0789;;-1242.8227;;-1419.2893;;-1573.2094;;-1695.5744;;-1789.0866;;-1862.2411;;-1924.8254;;-1985.543;;-2050.0491;;-2118.9103;;-2187.7195;;-2250.7358;;-2305.0195;;-2351.4779;;-2393.0717;;-2432.1639;;-2468.84;;-2502.072;;-2532.5683;;-2562.9607;;-2594.8704;;-2627.6485;;-2660.4245;;-2693.5287;;-2727.0285;;-2759.0851;;-2786.9044;;-2809.171;;-2827.1254;;-2843.316;;-2859.3815;;-2875.0573;;-2889.3112;;-2901.8219;;-2912.8496;;-2922.3377;;-2929.6481;;-2933.7557;;-2933.7557
-42.521316;;-42.521316;;-49.541281;;-59.513521;;-71.806627;;-85.133104;;-98.407697;;-109.19171;;-118.06454;;-127.47723;;-137.861;;-148.90597;;-160.20973;;-171.70252;;-183.91033;;-197.68019;;-213.55821;;-232.5089;;-263.1744;;-315.00826;;-386.48216;;-477.90614;;-590.61065;;-723.67721;;-876.12859;;-1045.0991;;-1223.7533;;-1400.3494;;-1560.6657;;-1694.628;;-1800.1066;;-1881.7972;;-1948.4872;;-2009.7002;;-2072.1525;;-2137.4259;;-2202.8492;;-2265.0271;;-2322.203;;-2373.6238;;-2418.7535;;-2457.8915;;-2492.1645;;-2522.9224;;-2552.0905;;-2581.7994;;-2612.4807;;-2642.8347;;-2672.3433;;-2702.0644;;-2732.3814;;-2761.5346;;-2787.2198;;-2808.9097;;-2828.0104;;-2846.0884;;-2863.32;;-2878.6601;;-2891.4148;;-2902.1862;;-2911.9276;;-2920.7043;;-2927.6878;;-2931.6758;;-2931.6758
-40.575024;;-40.575024;;-47.285676;;-56.845778;;-68.594797;;-81.714462;;-95.045905;;-106.73081;;-116.44735;;-126.28305;;-136.89381;;-147.99072;;-158.94638;;-169.45202;;-180.06808;;-191.99674;;-206.21338;;-224.36339;;-256.91167;;-309.86304;;-381.48265;;-472.25866;;-583.27002;;-713.12807;;-861.14111;;-1024.4859;;-1197.4552;;-1371.5252;;-1536.4823;;-1682.3279;;-1802.3275;;-1896.1838;;-1970.2742;;-2033.9825;;-2094.9403;;-2156.5085;;-2218.6105;;-2280.1315;;-2339.677;;-2394.4388;;-2440.933;;-2478.2773;;-2509.2395;;-2537.6238;;-2566.0382;;-2595.4038;;-2624.831;;-2652.8019;;-2679.3701;;-2706.0504;;-2733.3503;;-2759.8671;;-2784.2125;;-2806.7746;;-2828.8322;;-2850.3052;;-2869.2445;;-2883.8283;;-2894.5073;;-2903.6114;;-2912.7824;;-2921.5472;;-2928.4002;;-2932.1417;;-2932.1417
-37.850895;;-37.850895;;-44.118306;;-53.080532;;-64.175369;;-76.779801;;-90.005283;;-102.5069;;-113.03195;;-122.89843;;-133.17559;;-143.93904;;-154.64171;;-164.82064;;-174.90391;;-186.14227;;-199.58575;;-217.23534;;-251.08826;;-304.74368;;-376.57504;;-467.20431;;-577.25685;;-705.39246;;-850.745;;-1010.2528;;-1178.7366;;-1350.0635;;-1517.232;;-1671.2779;;-1803.1258;;-1908.3787;;-1990.1821;;-2056.7865;;-2116.6929;;-2175.5352;;-2235.6124;;-2296.8384;;-2357.2535;;-2412.7745;;-2458.8397;;-2494.3788;;-2523.1477;;-2550.1483;;-2577.9533;;-2606.3695;;-2633.8402;;-2659.2663;;-2683.348;;-2707.6784;;-2732.5174;;-2756.5331;;-2779.0538;;-2801.6347;;-2826.1049;;-2851.1147;;-2872.3514;;-2886.9758;;-2896.6548;;-2905.3806;;-2915.1172;;-2924.5803;;-2931.6082;;-2935.1801;;-2935.1801
-34.919794;;-34.919794;;-40.704769;;-49.010151;;-59.36726;;-71.327327;;-84.192191;;-96.937061;;-107.70991;;-116.78475;;-125.88895;;-135.84217;;-146.42785;;-157.04939;;-167.77112;;-179.50422;;-193.03156;;-210.59908;;-245.8243;;-300.36196;;-372.91913;;-464.34031;;-575.15268;;-704.3246;;-850.94636;;-1011.6078;;-1180.4232;;-1351.0427;;-1517.8545;;-1673.8812;;-1810.6866;;-1922.2651;;-2009.0966;;-2077.8465;;-2137.4638;;-2195.2572;;-2254.6468;;-2315.2033;;-2374.252;;-2428.0458;;-2472.967;;-2508.1484;;-2536.7542;;-2563.2072;;-2589.7086;;-2615.9339;;-2640.8231;;-2664.1501;;-2686.909;;-2710.1464;;-2733.3529;;-2754.6852;;-2773.6608;;-2793.2855;;-2817.2664;;-2844.3522;;-2868.3253;;-2884.9386;;-2896.2059;;-2906.7196;;-2918.1215;;-2928.5364;;-2935.7467;;-2939.1802;;-2939.1802
-32.499085;;-32.499085;;-37.867161;;-45.593301;;-55.269386;;-66.54079;;-78.778058;;-91.042067;;-101.13468;;-108.54988;;-115.88992;;-124.77124;;-135.29441;;-146.79938;;-158.90776;;-171.89813;;-186.04408;;-204.35546;;-241.96293;;-298.18268;;-372.43227;;-465.95973;;-579.43824;;-712.33314;;-863.89936;;-1030.4423;;-1204.5386;;-1376.8898;;-1541.1327;;-1693.1167;;-1827.4815;;-1939.1172;;-2027.4222;;-2097.7565;;-2158.5981;;-2217.2324;;-2276.6212;;-2335.4926;;-2391.2442;;-2441.8539;;-2485.6105;;-2521.6589;;-2551.3791;;-2577.5212;;-2601.9441;;-2625.1609;;-2647.4851;;-2669.6964;;-2692.6254;;-2716.1943;;-2738.6759;;-2757.3125;;-2771.3984;;-2785.3609;;-2805.5892;;-2832.3546;;-2858.6142;;-2878.5914;;-2893.4248;;-2906.9429;;-2919.969;;-2930.5712;;-2937.2765;;-2940.276;;-2940.276
-30.799397;;-30.799397;;-35.835306;;-43.085149;;-52.166831;;-62.746665;;-74.187881;;-85.491673;;-94.079933;;-99.401581;;-104.9924;;-112.93511;;-123.43897;;-135.81376;;-149.38574;;-163.79789;;-178.78241;;-199.38185;;-240.30906;;-299.04204;;-375.86966;;-472.54701;;-589.90032;;-727.9688;;-886.15819;;-1060.4708;;-1241.7836;;-1416.5728;;-1576.3292;;-1720.4655;;-1847.8621;;-1955.6865;;-2043.6959;;-2116.3421;;-2180.4578;;-2241.457;;-2300.9232;;-2357.344;;-2409.2598;;-2456.6585;;-2499.3127;;-2536.0966;;-2566.6845;;-2592.3118;;-2614.7055;;-2635.4241;;-2656.0644;;-2678.0713;;-2701.9041;;-2726.3791;;-2748.6514;;-2765.2152;;-2775.1304;;-2783.607;;-2798.9729;;-2823.3337;;-2850.0632;;-2872.4562;;-2890.1631;;-2905.533;;-2918.631;;-2928.0238;;-2933.4047;;-2935.6936;;-2935.6936
-29.439097;;-29.439097;;-34.174059;;-40.985077;;-49.50293;;-59.392062;;-69.988609;;-80.20421;;-87.112327;;-90.710229;;-95.161341;;-102.59186;;-113.1104;;-125.99319;;-140.50463;;-155.94534;;-171.79984;;-196.13232;;-240.05471;;-301.22605;;-380.58596;;-480.31146;;-601.31408;;-744.1412;;-908.25671;;-1089.3308;;-1276.7056;;-1452.6178;;-1606.4374;;-1741.965;;-1862.1599;;-1966.4045;;-2055.1246;;-2131.7373;;-2200.5667;;-2264.4055;;-2323.7871;;-2378.0492;;-2427.3211;;-2472.7417;;-2514.4816;;-2551.1604;;-2581.7112;;-2606.7088;;-2627.9532;;-2647.6586;;-2667.8803;;-2689.9295;;-2713.7996;;-2737.9008;;-2759.2337;;-2774.3709;;-2782.4307;;-2788.4292;;-2800.658;;-2822.025;;-2847.0811;;-2869.3212;;-2887.3172;;-2902.1961;;-2913.7588;;-2921.3147;;-2925.4546;;-2927.2894;;-2927.2894
-27.917581;;-27.917581;;-32.314548;;-38.641095;;-46.55348;;-55.645528;;-65.567563;;-74.954682;;-81.002524;;-83.904874;;-87.988517;;-95.26619;;-105.66208;;-118.48332;;-133.13279;;-148.91629;;-165.47141;;-192.9552;;-238.52275;;-300.92361;;-381.52365;;-482.75532;;-605.6041;;-750.94819;;-918.29584;;-1103.1228;;-1293.7633;;-1469.1382;;-1617.2444;;-1746.5644;;-1863.1538;;-1967.4922;;-2059.7641;;-2141.7219;;-2215.1777;;-2281.1545;;-2340.3962;;-2393.7778;;-2442.4917;;-2487.5765;;-2528.8608;;-2565.0947;;-2595.4087;;-2620.2847;;-2641.4953;;-2661.4013;;-2681.8123;;-2703.2155;;-2725.0168;;-2746.0227;;-2764.2817;;-2777.326;;-2784.7343;;-2791.0157;;-2803.1125;;-2823.1935;;-2846.4521;;-2867.1425;;-2883.682;;-2896.8777;;-2906.8364;;-2913.4458;;-2917.4577;;-2919.5221;;-2919.5221
-26.207715;;-26.207715;;-30.214623;;-36.003503;;-43.278833;;-51.725897;;-61.04381;;-70.084261;;-76.588457;;-80.052601;;-84.421152;;-91.533816;;-101.3579;;-113.46039;;-127.51884;;-143.00272;;-159.71651;;-188.06545;;-233.46929;;-295.27871;;-375.05028;;-475.31726;;-597.19466;;-741.70372;;-908.50776;;-1093.261;;-1284.257;;-1459.0224;;-1604.3089;;-1732.059;;-1850.2807;;-1959.4163;;-2058.2237;;-2146.2018;;-2223.3414;;-2290.4805;;-2349.7347;;-2403.4526;;-2453.0094;;-2498.6309;;-2539.8022;;-2575.9008;;-2606.6829;;-2632.4847;;-2654.5499;;-2674.8941;;-2694.9458;;-2714.4518;;-2732.3499;;-2748.0358;;-2760.7247;;-2768.9409;;-2773.3834;;-2779.6708;;-2794.3072;;-2817.3453;;-2842.2184;;-2862.9055;;-2878.3912;;-2890.3367;;-2899.7402;;-2906.8239;;-2911.8446;;-2914.6574;;-2914.6574
-24.776311;;-24.776311;;-28.357579;;-33.623694;;-40.331278;;-48.29495;;-57.243414;;-66.314728;;-74.003539;;-78.863941;;-83.687508;;-90.365051;;-99.243609;;-110.31243;;-123.49537;;-138.3686;;-154.54121;;-181.2416;;-224.70022;;-284.14951;;-361.089;;-458.0212;;-576.29303;;-716.90447;;-879.83407;;-1061.3408;;-1250.7859;;-1426.7673;;-1574.021;;-1704.9379;;-1828.8738;;-1945.9516;;-2053.0735;;-2147.4027;;-2227.8107;;-2295.8827;;-2355.372;;-2409.7;;-2460.087;;-2506.038;;-2546.9767;;-2583.0925;;-2614.8078;;-2642.1687;;-2665.4804;;-2686.0025;;-2704.9086;;-2721.871;;-2735.7605;;-2745.9617;;-2751.4649;;-2750.8537;;-2747.1921;;-2750.6193;;-2769.7287;;-2801.2207;;-2833.192;;-2857.1673;;-2873.0311;;-2884.4476;;-2893.9194;;-2902.0168;;-2908.3182;;-2911.9081;;-2911.9081
-24.032708;;-24.032708;;-27.186653;;-32.05715;;-38.382383;;-46.0683;;-54.840499;;-64.021649;;-72.52201;;-78.480116;;-83.480191;;-89.659074;;-97.789802;;-108.15239;;-120.72243;;-135.04102;;-150.39793;;-173.32053;;-213.28117;;-268.92467;;-341.47697;;-433.28974;;-546.07419;;-680.66273;;-837.48929;;-1013.7798;;-1200.8389;;-1380.4163;;-1534.9525;;-1673.0692;;-1804.8928;;-1930.8211;;-2046.5308;;-2147.376;;-2231.4535;;-2301.0096;;-2361.0113;;-2415.746;;-2466.5307;;-2512.4413;;-2552.7786;;-2588.3109;;-2620.14;;-2648.3337;;-2672.512;;-2693.1564;;-2711.1973;;-2726.5734;;-2738.2461;;-2744.7358;;-2743.1848;;-2731.4012;;-2715.9516;;-2714.0545;;-2738.2517;;-2781.2158;;-2823.5252;;-2852.7867;;-2869.8427;;-2880.9448;;-2890.385;;-2899.1951;;-2906.4473;;-2910.6158;;-2910.6158
-23.779847;;-23.779847;;-26.654934;;-31.324344;;-37.463147;;-44.988721;;-53.632756;;-62.754609;;-71.340962;;-77.36902;;-82.138509;;-88.091058;;-96.155084;;-106.49407;;-118.8848;;-132.81301;;-147.48737;;-165.66716;;-200.43144;;-250.99577;;-317.95932;;-403.32165;;-509.26173;;-636.39017;;-785.60459;;-955.33026;;-1139.3046;;-1323.5746;;-1489.9721;;-1639.1259;;-1780.3121;;-1915.0431;;-2038.9463;;-2146.3741;;-2234.7607;;-2306.6327;;-2367.8308;;-2423.4888;;-2475.1043;;-2521.1866;;-2560.5624;;-2594.3455;;-2624.4863;;-2651.6533;;-2675.5342;;-2696.3513;;-2714.773;;-2730.6187;;-2742.5552;;-2747.9748;;-2742.1052;;-2722.031;;-2697.2137;;-2690.4748;;-2717.6271;;-2768.5427;;-2818.2463;;-2851.2805;;-2869.1295;;-2880.0154;;-2889.545;;-2899.0505;;-2907.2231;;-2912.0022;;-2912.0022
-23.644985;;-23.644985;;-26.254944;;-30.740855;;-36.69827;;-44.023609;;-52.350801;;-61.32913;;-69.622219;;-75.217031;;-79.733795;;-85.909223;;-94.510641;;-105.28767;;-117.71683;;-131.23913;;-145.31809;;-160.26292;;-187.43022;;-231.80871;;-292.33483;;-370.36711;;-468.26585;;-586.9786;;-727.47273;;-889.44701;;-1069.0975;;-1256.8187;;-1436.7556;;-1600.3903;;-1752.634;;-1896.4615;;-2028.6541;;-2143.2428;;-2236.9442;;-2312.3765;;-2376.2515;;-2434.3597;;-2487.8973;;-2534.4509;;-2572.3614;;-2603.2494;;-2630.0883;;-2654.434;;-2676.6475;;-2697.4028;;-2717.2503;;-2735.2777;;-2749.3323;;-2756.2727;;-2751.0692;;-2730.8096;;-2705.0498;;-2696.6998;;-2721.9376;;-2771.2299;;-2819.8777;;-2852.2482;;-2869.7238;;-2880.7225;;-2891.0216;;-2901.8154;;-2911.3557;;-2917.021;;-2917.021
-23.496299;;-23.496299;;-25.360018;;-29.372873;;-34.871151;;-41.712074;;-49.597446;;-58.188759;;-66.305818;;-72.123639;;-76.917946;;-83.541032;;-92.618281;;-103.64923;;-115.94013;;-129.07577;;-142.83882;;-157.01461;;-176.33545;;-213.65165;;-267.1861;;-337.57961;;-426.85624;;-536.87683;;-668.25088;;-821.7291;;-995.55521;;-1183.6732;;-1373.9834;;-1552.7143;;-1717.1025;;-1870.5972;;-2012.0655;;-2135.7098;;-2237.1544;;-2318.5683;;-2387.2103;;-2449.1031;;-2504.8067;;-2551.2651;;-2586.9886;;-2614.4217;;-2637.3999;;-2658.1995;;-2678.0431;;-2698.4724;;-2720.1143;;-2741.08;;-2758.2149;;-2768.6038;;-2768.6883;;-2756.2205;;-2738.0204;;-2731.5781;;-2750.4079;;-2788.6961;;-2827.7975;;-2855.0155;;-2870.9953;;-2882.4463;;-2894.0598;;-2906.4521;;-2917.4362;;-2923.9722;;-2923.9722
-23.434513;;-23.434513;;-24.09836;;-27.188441;;-31.85985;;-37.870935;;-45.057975;;-53.101625;;-61.167423;;-68.076412;;-73.693647;;-80.23883;;-88.60566;;-98.469406;;-109.85182;;-123.15489;;-137.887;;-153.29334;;-169.9133;;-199.10536;;-245.6591;;-308.80384;;-389.95014;;-491.46386;;-614.19825;;-759.10058;;-925.86095;;-1110.8725;;-1305.3297;;-1495.1585;;-1670.7689;;-1833.8598;;-1985.6761;;-2121.1894;;-2234.3348;;-2325.197;;-2400.207;;-2465.4051;;-2521.6482;;-2566.6449;;-2599.9218;;-2624.519;;-2644.4366;;-2662.3436;;-2680.3341;;-2700.7461;;-2724.2428;;-2748.1866;;-2768.7027;;-2783.3125;;-2790.2636;;-2788.231;;-2780.6045;;-2777.7469;;-2789.1455;;-2813.1832;;-2839.2782;;-2859.2943;;-2873.239;;-2885.2445;;-2898.0944;;-2911.5268;;-2923.1148;;-2929.8916;;-2929.8916
-23.416785;;-23.416785;;-23.559012;;-25.03323;;-28.645765;;-33.708032;;-40.038178;;-47.368602;;-55.406301;;-63.256386;;-69.890917;;-75.3806;;-81.203781;;-88.10496;;-97.821392;;-111.18631;;-127.7345;;-146.21723;;-165.31526;;-189.36981;;-229.80315;;-286.60733;;-360.81786;;-454.58265;;-569.7201;;-706.71783;;-866.09338;;-1045.7652;;-1239.275;;-1434.4423;;-1618.5301;;-1789.9025;;-1951.6019;;-2100.209;;-2227.753;;-2330.1822;;-2411.1925;;-2477.2189;;-2531.5244;;-2574.3596;;-2606.4302;;-2630.3022;;-2649.1771;;-2665.9741;;-2683.6931;;-2705.0008;;-2730.2142;;-2756.3919;;-2779.6293;;-2797.7603;;-2809.9833;;-2815.632;;-2815.9428;;-2816.1454;;-2822.283;;-2835.2848;;-2850.7042;;-2864.4636;;-2876.5195;;-2888.9345;;-2902.6176;;-2916.3286;;-2927.5562;;-2933.8723;;-2933.8723
-23.408726;;-23.408726;;-23.453015;;-23.798692;;-26.033532;;-30.141026;;-35.638075;;-42.378742;;-50.024622;;-58.177487;;-65.458745;;-69.752132;;-72.16104;;-76.039628;;-84.277609;;-97.165255;;-114.20075;;-134.80091;;-157.61652;;-183.00851;;-219.61841;;-271.81468;;-340.80418;;-428.59901;;-537.68899;;-668.59563;;-821.97621;;-996.71874;;-1187.9497;;-1385.3522;;-1575.2769;;-1752.4471;;-1920.6951;;-2078.9742;;-2218.2026;;-2329.8136;;-2414.0867;;-2478.418;;-2529.8637;;-2571.779;;-2605.3075;;-2631.3866;;-2651.8094;;-2669.7362;;-2688.9694;;-2711.9566;;-2738.2804;;-2765.1111;;-2789.3072;;-2809.0944;;-2823.6921;;-2832.3948;;-2835.5757;;-2836.4174;;-2839.6503;;-2847.5067;;-2858.2169;;-2869.2206;;-2880.3257;;-2892.8508;;-2906.955;;-2920.7432;;-2931.5091;;-2937.2937;;-2937.2937
-23.405815;;-23.405815;;-23.416635;;-23.49295;;-24.257067;;-27.385639;;-32.083724;;-38.089493;;-45.155422;;-52.77021;;-60.046741;;-63.960678;;-63.279991;;-64.401471;;-71.665373;;-84.131772;;-101.03088;;-122.12989;;-146.99005;;-175.94342;;-213.3486;;-264.00414;;-330.42306;;-415.06952;;-520.72061;;-648.66719;;-799.39817;;-972.34258;;-1163.5059;;-1363.4722;;-1557.6554;;-1737.1752;;-1905.9103;;-2065.5227;;-2207.5785;;-2321.4271;;-2405.4082;;-2467.7417;;-2518.0667;;-2561.5076;;-2598.9259;;-2629.5801;;-2653.8855;;-2674.8805;;-2696.6427;;-2721.2129;;-2747.6541;;-2773.6043;;-2797.0083;;-2816.5557;;-2831.0207;;-2838.9194;;-2839.9574;;-2837.4484;;-2837.861;;-2845.5726;;-2858.71;;-2872.3034;;-2884.3957;;-2896.7417;;-2910.6259;;-2924.3917;;-2935.0279;;-2940.6021;;-2940.6021
-23.405149;;-23.405149;;-23.406769;;-23.420914;;-23.54616;;-25.120521;;-28.771295;;-33.779657;;-39.891123;;-46.600858;;-53.065054;;-56.980198;;-55.119118;;-54.194784;;-61.34228;;-73.52948;;-90.053039;;-111.01984;;-136.82105;;-168.50876;;-208.90654;;-261.12779;;-328.16224;;-413.03687;;-518.94268;;-647.6352;;-799.87307;;-975.25368;;-1169.9429;;-1374.2011;;-1571.3287;;-1748.8712;;-1910.9216;;-2061.988;;-2196.3931;;-2305.1322;;-2386.8253;;-2449.1847;;-2501.3516;;-2548.2376;;-2590.5068;;-2626.7799;;-2656.441;;-2681.6139;;-2705.881;;-2731.2033;;-2757.0124;;-2781.7009;;-2803.8754;;-2822.2934;;-2835.1803;;-2840.0234;;-2835.5035;;-2825.8587;;-2821.6808;;-2831.4553;;-2852.1493;;-2873.1335;;-2888.428;;-2900.4747;;-2913.1386;;-2926.0622;;-2936.2229;;-2941.5387;;-2941.5387
-23.405073;;-23.405073;;-23.405194;;-23.406968;;-23.433949;;-23.741643;;-25.867052;;-29.658651;;-34.605504;;-40.242312;;-45.748023;;-49.13947;;-47.299233;;-46.04688;;-53.450309;;-65.254227;;-81.315282;;-102.03647;;-128.54379;;-162.17103;;-205.13354;;-259.96777;;-329.58065;;-417.24274;;-526.09166;;-658.08113;;-814.55505;;-995.16133;;-1195.8118;;-1405.6583;;-1604.6403;;-1776.2908;;-1925.8885;;-2061.3481;;-2181.5917;;-2281.8527;;-2361.82;;-2426.9671;;-2483.5228;;-2535.0201;;-2582.2831;;-2624.2155;;-2659.5086;;-2688.8909;;-2715.0839;;-2740.4761;;-2765.6503;;-2789.7572;;-2811.3104;;-2828.5966;;-2839.5531;;-2841.1796;;-2831.1643;;-2814.1418;;-2804.552;;-2815.4274;;-2843.23;;-2871.8749;;-2890.8713;;-2902.6315;;-2913.3147;;-2924.208;;-2932.8774;;-2937.4215;;-2937.4215
-23.405072;;-23.405072;;-23.405076;;-23.405249;;-23.41204;;-23.483112;;-24.005359;;-26.261563;;-29.894713;;-34.356544;;-38.864945;;-41.714554;;-40.02158;;-39.787965;;-47.232137;;-58.756647;;-74.404967;;-94.972291;;-121.80215;;-156.29858;;-200.60843;;-257.20755;;-329.03574;;-419.32502;;-530.81175;;-665.98647;;-826.59343;;-1012.4281;;-1219.2678;;-1435.2541;;-1636.4617;;-1800.4907;;-1934.7917;;-2052.3318;;-2157.7718;;-2250.7073;;-2331.1835;;-2401.5361;;-2464.5007;;-2521.8811;;-2574.4663;;-2621.5957;;-2661.6939;;-2694.4735;;-2722.0617;;-2747.4794;;-2772.4588;;-2796.5931;;-2817.9397;;-2834.3326;;-2843.9974;;-2844.4047;;-2832.8494;;-2813.2058;;-2800.533;;-2809.8648;;-2838.6697;;-2869.5804;;-2890.0526;;-2901.4785;;-2910.2332;;-2918.4968;;-2924.8984;;-2928.2252;;-2928.2252
-23.405072;;-23.405072;;-23.405072;;-23.40509;;-23.406389;;-23.422587;;-23.531112;;-24.119471;;-26.221332;;-29.424445;;-32.881455;;-35.09414;;-33.759045;;-35.088708;;-42.409899;;-53.480078;;-68.573459;;-88.574976;;-114.8722;;-148.89055;;-192.78799;;-249.06073;;-320.67823;;-410.74856;;-522.09112;;-657.52705;;-819.14654;;-1007.1456;;-1217.7364;;-1439.1839;;-1645.3509;;-1804.7685;;-1925.8208;;-2028.3463;;-2122.3157;;-2210.7105;;-2293.6329;;-2370.7853;;-2441.7337;;-2506.1603;;-2564.2188;;-2615.6478;;-2659.2626;;-2694.5781;;-2723.4716;;-2749.2929;;-2774.3436;;-2798.4174;;-2819.4683;;-2835.4533;;-2845.2656;;-2847.344;;-2839.3127;;-2823.5709;;-2812.1742;;-2818.3909;;-2841.6217;;-2868.1466;;-2886.8888;;-2897.6894;;-2904.9693;;-2910.7613;;-2914.8821;;-2917.0048;;-2917.0048
-23.405072;;-23.405072;;-23.405072;;-23.405073;;-23.405201;;-23.407419;;-23.4275;;-23.534297;;-24.001226;;-25.703925;;-28.091714;;-29.691699;;-28.718021;;-31.170771;;-38.103399;;-48.392893;;-62.448982;;-81.16604;;-105.7928;;-138.04122;;-179.68113;;-233.25581;;-301.67719;;-388.09153;;-495.37105;;-626.51723;;-783.97841;;-968.582;;-1177.6356;;-1401.1965;;-1615.0932;;-1779.4496;;-1896.1366;;-1991.0955;;-2078.2475;;-2163.5734;;-2248.7527;;-2332.5661;;-2411.7987;;-2483.4473;;-2546.5677;;-2601.4109;;-2647.74;;-2685.4085;;-2716.0702;;-2742.8637;;-2768.1037;;-2791.8467;;-2812.6473;;-2829.1706;;-2840.8131;;-2846.6253;;-2844.8996;;-2836.825;;-2830.1425;;-2834.2065;;-2849.9625;;-2869.2532;;-2884.3713;;-2893.9778;;-2900.0887;;-2904.1902;;-2906.9098;;-2908.3928;;-2908.3928
-23.405072;;-23.405072;;-23.405072;;-23.405072;;-23.405074;;-23.405206;;-23.407538;;-23.423562;;-23.484482;;-23.697116;;-24.681588;;-25.665174;;-25.069551;;-27.711067;;-33.952871;;-43.162946;;-55.784993;;-72.664982;;-94.967277;;-124.29508;;-162.288;;-211.33673;;-274.18908;;-353.98693;;-453.60439;;-576.06861;;-724.12845;;-899.30235;;-1100.3347;;-1320.1647;;-1539.9076;;-1720.3236;;-1845.8107;;-1942.8836;;-2028.0274;;-2110.6317;;-2196.2607;;-2284.8024;;-2371.0426;;-2449.418;;-2517.75;;-2576.4585;;-2626.0124;;-2666.62;;-2699.7214;;-2728.0697;;-2753.8132;;-2777.3746;;-2798.3264;;-2816.3197;;-2830.9156;;-2841.1134;;-2845.7633;;-2845.5965;;-2844.9286;;-2849.173;;-2859.6507;;-2872.6027;;-2883.7181;;-2891.6753;;-2897.2414;;-2901.3121;;-2904.3102;;-2906.0611;;-2906.0611
-23.405072;;-23.405072;;-23.405072;;-23.405072;;-23.405072;;-23.405074;;-23.405214;;-23.406462;;-23.411628;;-23.424404;;-23.455936;;-23.53887;;-23.487058;;-24.991861;;-30.206378;;-38.130796;;-49.115342;;-63.904013;;-83.534242;;-109.34727;;-143.131;;-186.74276;;-242.80145;;-314.27253;;-404.05794;;-515.04798;;-650.15161;;-811.44894;;-999.01073;;-1208.6329;;-1427.3223;;-1625.3078;;-1770.4231;;-1878.049;;-1966.7103;;-2049.0519;;-2134.9189;;-2226.3562;;-2317.8198;;-2402.7065;;-2477.8332;;-2542.6675;;-2597.1621;;-2641.5396;;-2677.4129;;-2707.6337;;-2734.3831;;-2758.3603;;-2779.9955;;-2799.8548;;-2817.6024;;-2831.9758;;-2842.1468;;-2848.7557;;-2853.8492;;-2859.7245;;-2867.2181;;-2875.2767;;-2882.6052;;-2889.1885;;-2895.6552;;-2901.8573;;-2906.7845;;-2909.471;;-2909.471
-23.405072;;-23.405072;;-23.405072;;-23.405072;;-23.405072;;-23.405072;;-23.405073;;-23.405083;;-23.405124;;-23.405225;;-23.405402;;-23.405678;;-23.405621;;-23.554229;;-27.164458;;-33.638403;;-42.950951;;-55.652772;;-72.617678;;-95.014457;;-124.4339;;-162.50893;;-211.5977;;-274.3929;;-353.78467;;-452.47456;;-573.36758;;-718.90147;;-890.12975;;-1085.0914;;-1295.6494;;-1501.7061;;-1668.5209;;-1791.6451;;-1889.6772;;-1977.1464;;-2065.8237;;-2159.6993;;-2255.1029;;-2346.6285;;-2430.4064;;-2503.6616;;-2564.5463;;-2613.0824;;-2651.6808;;-2683.9595;;-2712.4061;;-2737.8117;;-2760.9331;;-2782.8417;;-2803.465;;-2821.6434;;-2836.7248;;-2848.9042;;-2858.414;;-2865.4104;;-2870.3605;;-2874.1319;;-2878.146;;-2884.1995;;-2892.9814;;-2902.6711;;-2910.1831;;-2913.885;;-2913.885
-23.405072;;-23.405072;;-23.405072;;-23.405072;;-23.405072;;-23.405072;;-23.405072;;-23.405072;;-23.405072;;-23.405072;;-23.405073;;-23.405074;;-23.405078;;-23.408364;;-24.762772;;-29.879141;;-37.68614;;-48.516768;;-63.094854;;-82.429667;;-107.92771;;-141.01042;;-183.78469;;-238.66638;;-308.44791;;-395.72055;;-503.25652;;-633.68115;;-788.70245;;-967.93267;;-1166.6426;;-1371.5278;;-1554.6484;;-1694.7711;;-1805.2717;;-1901.3534;;-1994.4933;;-2090.4996;;-2189.2907;;-2287.7348;;-2380.8926;;-2462.9759;;-2530.1254;;-2582.5379;;-2623.8564;;-2658.6004;;-2689.5716;;-2717.5866;;-2743.2948;;-2767.7452;;-2791.2111;;-2813.057;;-2832.5905;;-2848.914;;-2860.6905;;-2867.2202;;-2869.4104;;-2869.5889;;-2871.0539;;-2877.0593;;-2888.3142;;-2901.346;;-2911.1532;;-2915.6626;;-2915.6626
-23.405072;;-23.405072;;-23.405072;;-23.405072;;-23.405072;;-23.405072;;-23.405072;;-23.405072;;-23.405072;;-23.405072;;-23.405072;;-23.405072;;-23.405073;;-23.405242;;-23.541892;;-27.088868;;-33.524595;;-42.792597;;-55.428351;;-72.289841;;-94.628372;;-123.69398;;-161.39321;;-209.92057;;-271.88147;;-349.9228;;-446.64112;;-564.75873;;-706.42259;;-872.29752;;-1059.8858;;-1260.3326;;-1453.0355;;-1608.8402;;-1729.7647;;-1831.83;;-1927.1691;;-2024.3442;;-2126.9935;;-2233.1075;;-2335.4709;;-2425.2739;;-2497.5275;;-2553.3081;;-2597.4295;;-2634.8417;;-2668.5056;;-2699.4825;;-2728.3224;;-2755.7439;;-2782.2201;;-2807.616;;-2830.8558;;-2849.6553;;-2861.7492;;-2866.9397;;-2867.2361;;-2865.6139;;-2865.8153;;-2871.7639;;-2884.3631;;-2899.1985;;-2910.0546;;-2914.7462;;-2914.7462
-23.405072;;-23.405072;;-23.405072;;-23.405072;;-23.405072;;-23.405072;;-23.405072;;-23.405072;;-23.405072;;-23.405072;;-23.405072;;-23.405072;;-23.405072;;-23.405101;;-23.413178;;-25.118574;;-30.482364;;-38.58464;;-49.792007;;-64.855912;;-84.813995;;-111.10272;;-145.17686;;-189.17596;;-245.54557;;-316.99609;;-406.04002;;-515.42392;;-647.58441;;-803.85966;;-983.15608;;-1179.3895;;-1376.7471;;-1544.7952;;-1671.396;;-1773.9588;;-1868.4181;;-1966.8187;;-2074.7936;;-2189.3407;;-2300.2376;;-2396.4064;;-2472.7354;;-2531.4271;;-2577.9477;;-2617.1669;;-2652.2606;;-2684.9715;;-2716.0744;;-2745.9472;;-2774.9849;;-2803.1597;;-2828.8126;;-2848.6535;;-2860.3548;;-2864.9315;;-2865.4973;;-2864.8566;;-2865.8558;;-2871.84;;-2883.4545;;-2896.0101;;-2903.6411;;-2905.8073;;-2905.8073
-23.405072;;-23.405072;;-23.405072;;-23.405072;;-23.405072;;-23.405072;;-23.405072;;-23.405072;;-23.405072;;-23.405072;;-23.405072;;-23.405072;;-23.405072;;-23.405079;;-23.406336;;-23.958057;;-28.476043;;-35.714708;;-45.923286;;-59.765346;;-78.193878;;-102.55758;;-134.21633;;-175.1991;;-227.8319;;-294.82335;;-378.69314;;-482.16533;;-607.85371;;-757.50968;;-930.89575;;-1123.5868;;-1322.648;;-1499.4881;;-1629.4739;;-1730.5836;;-1824.5453;;-1925.913;;-2040.0796;;-2162.1075;;-2279.593;;-2380.4016;;-2459.6911;;-2520.3309;;-2567.8796;;-2607.0451;;-2641.4702;;-2673.8197;;-2705.2978;;-2736.0731;;-2766.2841;;-2795.668;;-2822.1249;;-2842.1348;;-2853.8912;;-2859.3798;;-2862.2764;;-2864.903;;-2868.4136;;-2873.5838;;-2878.7347;;-2879.065;;-2872.3776;;-2864.6702;;-2864.6702
-23.405072;;-23.405072;;-23.405072;;-23.405072;;-23.405072;;-23.405072;;-23.405072;;-23.405072;;-23.405072;;-23.405072;;-23.405072;;-23.405072;;-23.405072;;-23.405073;;-23.405313;;-23.535284;;-27.150216;;-33.724458;;-43.229717;;-56.229662;;-73.612777;;-96.563263;;-126.58262;;-165.52686;;-215.75186;;-279.70077;;-360.05771;;-459.51811;;-580.8194;;-725.99269;;-895.36996;;-1085.6263;;-1285.8558;;-1470.3135;;-1605.8118;;-1708.0711;;-1804.0831;;-1909.2233;;-2027.7416;;-2153.6346;;-2274.0426;;-2376.7666;;-2457.0321;;-2517.7278;;-2564.3246;;-2601.6371;;-2633.845;;-2664.2734;;-2694.4503;;-2724.4921;;-2754.2911;;-2783.2598;;-2809.2009;;-2829.0439;;-2841.5895;;-2848.9085;;-2854.3963;;-2860.0153;;-2865.1487;;-2865.7106;;-2854.1968;;-2825.4194;;-2786.0891;;-2756.527;;-2756.527
-23.405072;;-23.405072;;-23.405072;;-23.405072;;-23.405072;;-23.405072;;-23.405072;;-23.405072;;-23.405072;;-23.405072;;-23.405072;;-23.405072;;-23.405072;;-23.405072;;-23.405103;;-23.439292;;-26.259826;;-32.379493;;-41.417537;;-53.865596;;-70.574455;;-92.692959;;-121.68386;;-159.36124;;-207.93061;;-270.1254;;-348.36772;;-445.45644;;-564.23607;;-706.95591;;-874.37053;;-1063.9691;;-1266.4292;;-1458.8176;;-1603.6781;;-1710.7182;;-1809.9394;;-1916.7982;;-2035.2491;;-2159.9555;;-2279.0517;;-2380.6403;;-2459.5769;;-2518.3755;;-2562.5511;;-2597.221;;-2626.8285;;-2654.8649;;-2683.0093;;-2711.4397;;-2739.8539;;-2767.4174;;-2792.1954;;-2811.9128;;-2825.6715;;-2834.5386;;-2840.6715;;-2846.0411;;-2849.2667;;-2840.3489;;-2802.8103;;-2730.621;;-2644.2853;;-2584.4033;;-2584.4033
-23.405072;;-23.405072;;-23.405072;;-23.405072;;-23.405072;;-23.405072;;-23.405072;;-23.405072;;-23.405072;;-23.405072;;-23.405072;;-23.405072;;-23.405072;;-23.405072;;-23.405076;;-23.417261;;-25.6649;;-31.481754;;-40.205342;;-52.285314;;-68.551607;;-90.132296;;-118.46729;;-155.44759;;-202.95404;;-263.89609;;-340.99221;;-436.71654;;-554.11816;;-695.63103;;-862.35265;;-1052.4306;;-1257.8497;;-1458.1775;;-1615.1728;;-1729.7944;;-1832.2249;;-1938.0245;;-2052.2076;;-2171.6864;;-2286.5455;;-2385.2281;;-2461.7801;;-2518.1105;;-2559.839;;-2592.2516;;-2619.6631;;-2645.4992;;-2671.6372;;-2698.3476;;-2725.0848;;-2750.9034;;-2774.4311;;-2794.227;;-2809.2315;;-2818.7007;;-2822.9172;;-2824.3838;;-2822.9993;;-2804.781;;-2744.2704;;-2633.7652;;-2506.1838;;-2419.7599;;-2419.7599
-23.405072;;-23.405072;;-23.405072;;-23.405072;;-23.405072;;-23.405072;;-23.405072;;-23.405072;;-23.405072;;-23.405072;;-23.405072;;-23.405072;;-23.405072;;-23.405072;;-23.405073;;-23.409599;;-25.132507;;-30.655816;;-39.055899;;-50.745753;;-66.532428;;-87.518932;;-115.21638;;-151.18957;;-197.68816;;-257.19156;;-332.79446;;-426.86088;;-542.50141;;-682.31576;;-847.7212;;-1037.4974;;-1244.9032;;-1452.0176;;-1622.3366;;-1746.7055;;-1853.0026;;-1956.924;;-2065.2616;;-2178.2073;;-2288.4557;;-2384.7917;;-2460.0444;;-2515.2117;;-2555.8264;;-2587.0627;;-2612.9085;;-2636.8431;;-2661.1376;;-2686.1517;;-2711.0896;;-2735.1202;;-2757.6144;;-2777.7371;;-2793.8883;;-2803.4985;;-2805.1925;;-2802.2952;;-2797.6896;;-2778.0827;;-2714.1672;;-2595.3963;;-2457.3622;;-2363.4187;;-2363.4187
-23.405072;;-23.405072;;-23.405072;;-23.405072;;-23.405072;;-23.405072;;-23.405072;;-23.405072;;-23.405072;;-23.405072;;-23.405072;;-23.405072;;-23.405072;;-23.405072;;-23.405072;;-23.406301;;-24.500876;;-29.619935;;-37.562935;;-48.695945;;-63.786884;;-83.895907;;-110.48743;;-145.07563;;-189.85436;;-247.35278;;-320.41338;;-411.70425;;-524.23287;;-660.75405;;-823.00932;;-1010.4433;;-1217.6569;;-1429.3606;;-1612.2991;;-1746.8854;;-1857.1815;;-1959.7013;;-2063.2828;;-2171.4904;;-2279.5179;;-2376.2233;;-2452.9317;;-2509.3785;;-2550.7052;;-2581.8982;;-2606.7612;;-2628.924;;-2650.9497;;-2673.2886;;-2695.4127;;-2717.3872;;-2739.5128;;-2760.8825;;-2778.8232;;-2789.6103;;-2791.3192;;-2787.855;;-2784.7457;;-2773.5566;;-2729.2018;;-2639.4046;;-2531.3459;;-2457.3519;;-2457.3519
-23.405072;;-23.405072;;-23.405072;;-23.405072;;-23.405072;;-23.405072;;-23.405072;;-23.405072;;-23.405072;;-23.405072;;-23.405072;;-23.405072;;-23.405072;;-23.405072;;-23.405072;;-23.405302;;-23.874667;;-28.393047;;-35.723779;;-46.137656;;-60.331625;;-79.302011;;-104.34968;;-137.11394;;-179.71637;;-234.39255;;-304.10894;;-391.55974;;-499.68766;;-631.38125;;-788.6945;;-971.73066;;-1176.4189;;-1390.0698;;-1583.4789;;-1726.8382;;-1839.1592;;-1940.0774;;-2041.1104;;-2148.2925;;-2258.0488;;-2358.7045;;-2439.9653;;-2500.0885;;-2543.6262;;-2575.6285;;-2600.0391;;-2620.289;;-2638.3932;;-2654.7743;;-2670.6767;;-2689.295;;-2712.6126;;-2738.2135;;-2760.7383;;-2775.5927;;-2781.6551;;-2783.0771;;-2785.9431;;-2787.0228;;-2770.0157;;-2723.9215;;-2662.8047;;-2619.2071;;-2619.2071
-23.405072;;-23.405072;;-23.405072;;-23.405072;;-23.405072;;-23.405072;;-23.405072;;-23.405072;;-23.405072;;-23.405072;;-23.405072;;-23.405072;;-23.405072;;-23.405072;;-23.405072;;-23.405105;;-23.512692;;-27.069873;;-33.661956;;-43.244485;;-56.397852;;-74.038093;;-97.38702;;-127.99618;;-167.88887;;-219.19511;;-284.79612;;-367.49235;;-470.09933;;-595.58888;;-746.29286;;-922.93108;;-1122.713;;-1335.5403;;-1536.842;;-1688.8718;;-1801.5508;;-1900.4519;;-2000.9359;;-2110.5337;;-2225.5113;;-2333.0214;;-2421.118;;-2486.5128;;-2533.1729;;-2566.5728;;-2590.958;;-2608.802;;-2620.2754;;-2625.4911;;-2629.5451;;-2642.2026;;-2668.7088;;-2703.4332;;-2735.5985;;-2758.6965;;-2772.9646;;-2782.8859;;-2793.3423;;-2803.7539;;-2805.9485;;-2792.9486;;-2769.8305;;-2751.803;;-2751.803
-23.405072;;-23.405072;;-23.405072;;-23.405072;;-23.405072;;-23.405072;;-23.405072;;-23.405072;;-23.405072;;-23.405072;;-23.405072;;-23.405072;;-23.405072;;-23.405072;;-23.405072;;-23.405075;;-23.417703;;-25.659852;;-31.439656;;-40.097464;;-52.079215;;-68.212868;;-89.62713;;-117.86629;;-154.5271;;-201.9071;;-262.64678;;-339.62105;;-435.52624;;-553.33148;;-695.60142;;-863.62854;;-1055.8785;;-1264.887;;-1471.0928;;-1635.2696;;-1751.2755;;-1850.148;;-1951.903;;-2065.3678;;-2186.6148;;-2301.8878;;-2397.737;;-2469.2139;;-2519.5862;;-2554.7549;;-2579.11;;-2593.7246;;-2596.4917;;-2587.2865;;-2576.0324;;-2580.7052;;-2610.959;;-2657.6807;;-2703.3642;;-2738.0416;;-2762.3571;;-2781.1551;;-2798.0459;;-2812.9378;;-2822.4065;;-2823.7687;;-2819.1482;;-2814.4367;;-2814.4367
-23.405072;;-23.405072;;-23.405072;;-23.405072;;-23.405072;;-23.405072;;-23.405072;;-23.405072;;-23.405072;;-23.405072;;-23.405072;;-23.405072;;-23.405072;;-23.405072;;-23.405072;;-23.405072;;-23.405997;;-24.307783;;-29.205013;;-36.852083;;-47.573946;;-62.098619;;-81.445102;;-107.03333;;-140.32075;;-183.44357;;-238.86347;;-309.44454;;-397.84926;;-506.9462;;-639.48317;;-797.27163;;-979.96034;;-1182.5975;;-1390.6732;;-1571.2944;;-1699.4573;;-1803.5539;;-1908.156;;-2024.1986;;-2149.2238;;-2270.1204;;-2372.608;;-2450.0098;;-2504.4714;;-2541.7351;;-2565.8849;;-2577.0019;;-2572.1718;;-2552.1186;;-2529.9611;;-2528.4063;;-2560.2654;;-2615.2666;;-2672.1236;;-2717.5228;;-2750.6775;;-2776.092;;-2796.9635;;-2813.2913;;-2823.5998;;-2827.8368;;-2828.2315;;-2827.6057;;-2827.6057
-23.405072;;-23.405072;;-23.405072;;-23.405072;;-23.405072;;-23.405072;;-23.405072;;-23.405072;;-23.405072;;-23.405072;;-23.405072;;-23.405072;;-23.405072;;-23.405072;;-23.405072;;-23.405072;;-23.405188;;-23.556644;;-27.225512;;-33.810557;;-43.310527;;-56.299032;;-73.675226;;-96.737301;;-126.80832;;-165.87158;;-216.22157;;-280.58587;;-361.76315;;-462.47556;;-585.6066;;-733.43477;;-906.66071;;-1102.5639;;-1311.3361;;-1509.2522;;-1660.0955;;-1775.1784;;-1883.1001;;-1998.4425;;-2122.083;;-2243.0911;;-2347.3716;;-2427.476;;-2485.1877;;-2525.7467;;-2551.7073;;-2562.1027;;-2555.3856;;-2534.6906;;-2513.2025;;-2511.4594;;-2541.6093;;-2595.822;;-2654.9401;;-2704.7686;;-2742.0852;;-2770.1157;;-2792.2468;;-2808.9776;;-2819.3382;;-2823.8764;;-2825.0226;;-2825.0879;;-2825.0879
-23.405072;;-23.405072;;-23.405072;;-23.405072;;-23.405072;;-23.405072;;-23.405072;;-23.405072;;-23.405072;;-23.405072;;-23.405072;;-23.405072;;-23.405072;;-23.405072;;-23.405072;;-23.405072;;-23.405128;;-23.424574;;-25.620014;;-31.295604;;-39.778785;;-51.49626;;-67.254918;;-88.159705;;-115.72569;;-151.52068;;-197.80899;;-257.1947;;-332.63679;;-426.85362;;-542.79959;;-683.17457;;-849.56016;;-1041.0177;;-1251.3316;;-1463.5594;;-1641.9435;;-1771.5144;;-1882.1406;;-1993.9135;;-2111.0562;;-2224.1318;;-2319.7622;;-2393.1874;;-2450.5804;;-2498.035;;-2533.3635;;-2551.2342;;-2551.4281;;-2540.6277;;-2530.4872;;-2534.7388;;-2561.7663;;-2607.7774;;-2659.9161;;-2706.0123;;-2741.1551;;-2767.2157;;-2787.931;;-2804.5219;;-2815.8958;;-2821.6895;;-2823.5425;;-2823.7581;;-2823.7581
-23.405072;;-23.405072;;-23.405072;;-23.405072;;-23.405072;;-23.405072;;-23.405072;;-23.405072;;-23.405072;;-23.405072;;-23.405072;;-23.405072;;-23.405072;;-23.405072;;-23.405072;;-23.405072;;-23.405102;;-23.410402;;-24.508987;;-29.501201;;-37.22531;;-48.022751;;-62.638979;;-82.115738;;-107.90091;;-141.494;;-185.08725;;-241.21478;;-312.87852;;-403.05589;;-514.68592;;-650.79089;;-813.59378;;-1003.3427;;-1216.0287;;-1438.7316;;-1640.8279;;-1786.2511;;-1899.7842;;-2008.2596;;-2116.6389;;-2213.6413;;-2286.5518;;-2339.272;;-2390.8339;;-2450.8318;;-2507.3512;;-2544.0728;;-2558.9817;;-2562.5311;;-2566.3013;;-2578.4861;;-2603.6812;;-2640.8603;;-2682.8485;;-2720.6248;;-2749.3202;;-2770.297;;-2787.6267;;-2803.194;;-2815.7098;;-2823.4205;;-2826.5347;;-2827.117;;-2827.117
-23.405072;;-23.405072;;-23.405072;;-23.405072;;-23.405072;;-23.405072;;-23.405072;;-23.405072;;-23.405072;;-23.405072;;-23.405072;;-23.405072;;-23.405072;;-23.405072;;-23.405072;;-23.405072;;-23.405084;;-23.406876;;-23.886757;;-28.288307;;-35.439298;;-45.586548;;-59.416809;;-77.925827;;-102.51847;;-134.65342;;-176.47948;;-230.49423;;-299.68398;;-387.26777;;-496.20348;;-629.68441;;-790.34892;;-979.18489;;-1193.5478;;-1423.1325;;-1641.9615;;-1804.4118;;-1923.8182;;-2032.6078;;-2133.8597;;-2211.425;;-2253.0949;;-2276.2238;;-2318.5081;;-2394.0742;;-2478.3766;;-2539.7443;;-2571.2829;;-2586.8674;;-2600.5997;;-2619.0742;;-2644.5917;;-2676.5995;;-2710.7694;;-2740.7916;;-2763.0082;;-2778.9203;;-2792.6729;;-2806.5808;;-2819.4656;;-2828.6677;;-2833.0906;;-2834.2445;;-2834.2445
-23.405072;;-23.405072;;-23.405072;;-23.405072;;-23.405072;;-23.405072;;-23.405072;;-23.405072;;-23.405072;;-23.405072;;-23.405072;;-23.405072;;-23.405072;;-23.405073;;-23.405078;;-23.405101;;-23.405172;;-23.4058;;-23.581145;;-27.303958;;-33.929581;;-43.499097;;-56.624825;;-74.349134;;-97.751099;;-128.52889;;-168.68384;;-220.65917;;-287.39039;;-372.21347;;-478.14015;;-608.41194;;-765.94208;;-952.25484;;-1165.7603;;-1398.2795;;-1627.9391;;-1809.055;;-1939.2951;;-2053.6221;;-2153.4182;;-2218.1082;;-2236.2001;;-2236.6032;;-2271.4476;;-2357.5503;;-2460.894;;-2538.6554;;-2579.8011;;-2600.9324;;-2619.7771;;-2643.2571;;-2671.4163;;-2702.216;;-2732.4127;;-2757.9973;;-2776.7028;;-2790.0204;;-2801.704;;-2814.219;;-2826.7872;;-2836.5793;;-2841.7783;;-2843.3633;;-2843.3633
-23.405072;;-23.405072;;-23.405072;;-23.405072;;-23.405072;;-23.405072;;-23.405072;;-23.405072;;-23.405072;;-23.405072;;-23.405072;;-23.405072;;-23.405074;;-23.405158;;-23.405828;;-23.408478;;-23.414773;;-23.424642;;-23.484192;;-26.314609;;-32.355332;;-41.267083;;-53.566744;;-70.234949;;-92.290616;;-121.36093;;-159.3642;;-208.65056;;-272.04784;;-352.8759;;-454.21666;;-579.24895;;-731.0551;;-911.58778;;-1120.1854;;-1350.6254;;-1585.0631;;-1783.4558;;-1927.8589;;-2052.7916;;-2161.037;;-2230.1229;;-2248.4457;;-2247.3667;;-2280.6564;;-2365.0201;;-2466.2026;;-2541.0696;;-2578.467;;-2597.1704;;-2618.3204;;-2648.4365;;-2682.8734;;-2716.0713;;-2745.5763;;-2769.998;;-2788.2817;;-2801.4844;;-2812.7032;;-2824.3948;;-2836.2097;;-2845.5887;;-2850.6362;;-2852.1708;;-2852.1708
-23.405072;;-23.405072;;-23.405072;;-23.405072;;-23.405072;;-23.405072;;-23.405072;;-23.405072;;-23.405072;;-23.405072;;-23.405072;;-23.405072;;-23.405126;;-23.406244;;-23.414169;;-23.443765;;-23.512176;;-23.625406;;-23.840052;;-25.463794;;-30.767445;;-38.861816;;-50.145113;;-65.512687;;-85.896838;;-112.82065;;-148.08253;;-193.89462;;-252.93139;;-328.35792;;-423.3191;;-540.8356;;-684.03295;;-855.16225;;-1054.3168;;-1276.9625;;-1508.9135;;-1717.2729;;-1873.4772;;-2011.5097;;-2140.2119;;-2235.5631;;-2280.4637;;-2298.3866;;-2335.0587;;-2407.1982;;-2489.3076;;-2546.6504;;-2570.532;;-2581.3037;;-2603.3514;;-2642.0693;;-2686.0248;;-2724.3723;;-2755.2599;;-2780.2484;;-2799.4838;;-2813.4892;;-2824.6995;;-2835.4392;;-2845.6939;;-2853.511;;-2857.518;;-2858.6272;;-2858.6272
-23.405072;;-23.405072;;-23.405072;;-23.405072;;-23.405072;;-23.405072;;-23.405072;;-23.405072;;-23.405072;;-23.405072;;-23.405072;;-23.405078;;-23.405553;;-23.412792;;-23.458594;;-23.620733;;-24.005902;;-24.842464;;-26.119553;;-27.101525;;-30.117562;;-36.860542;;-46.927458;;-60.690295;;-79.182741;;-103.70171;;-135.89675;;-177.80991;;-231.92359;;-301.1974;;-388.77319;;-497.4855;;-630.37752;;-789.86485;;-976.5832;;-1187.3124;;-1410.8036;;-1620.1622;;-1781.6608;;-1931.3627;;-2088.1661;;-2224.5081;;-2310.8094;;-2355.2413;;-2395.34;;-2452.7187;;-2515.2919;;-2557.674;;-2571.4078;;-2575.8322;;-2597.6136;;-2642.0626;;-2692.9007;;-2734.9956;;-2766.6461;;-2791.732;;-2811.5278;;-2826.1242;;-2837.0852;;-2846.2225;;-2853.855;;-2859.2034;;-2861.929;;-2862.799;;-2862.799
-23.405072;;-23.405072;;-23.405072;;-23.405072;;-23.405072;;-23.405072;;-23.405072;;-23.405072;;-23.405072;;-23.405072;;-23.405103;;-23.40539;;-23.408671;;-23.440062;;-23.612068;;-24.197699;;-25.583579;;-27.773917;;-30.008485;;-31.358036;;-32.603826;;-36.819634;;-44.874727;;-56.816256;;-73.288964;;-95.391071;;-124.60005;;-162.77973;;-212.2159;;-275.65346;;-356.21702;;-456.62632;;-579.76459;;-728.16247;;-902.88876;;-1101.8001;;-1316.0628;;-1523.6208;;-1688.5135;;-1847.1552;;-2029.4786;;-2204.7604;;-2329.9574;;-2396.0267;;-2436.2058;;-2482.3623;;-2536.4296;;-2578.5214;;-2595.8957;;-2602.2386;;-2622.9007;;-2664.7855;;-2712.8796;;-2752.1451;;-2780.9481;;-2803.9423;;-2823.0581;;-2837.9127;;-2848.6878;;-2856.1438;;-2860.9712;;-2863.9608;;-2865.91;;-2867.029;;-2867.029
-23.405072;;-23.405072;;-23.405072;;-23.405072;;-23.405072;;-23.405072;;-23.405072;;-23.405072;;-23.405072;;-23.405075;;-23.405413;;-23.408453;;-23.427217;;-23.535947;;-24.045469;;-25.664199;;-28.449771;;-31.86533;;-35.05683;;-36.979631;;-38.019951;;-40.952;;-46.575665;;-55.626741;;-69.560408;;-89.168663;;-115.65008;;-150.64747;;-196.25258;;-255.0244;;-329.99255;;-424.0495;;-539.87226;;-680.16677;;-846.50467;;-1037.8578;;-1247.7675;;-1458.8151;;-1636.4364;;-1803.5079;;-1999.5146;;-2196.1161;;-2344.6884;;-2423.993;;-2463.4432;;-2503.8877;;-2558.2984;;-2609.9868;;-2640.9224;;-2656.1687;;-2675.4882;;-2707.5263;;-2743.711;;-2773.6103;;-2796.0512;;-2815.0538;;-2832.5605;;-2847.5803;;-2858.6423;;-2865.275;;-2868.4184;;-2869.9883;;-2871.4455;;-2872.6503;;-2872.6503
-23.405072;;-23.405072;;-23.405072;;-23.405072;;-23.405072;;-23.405072;;-23.405072;;-23.405072;;-23.405072;;-23.405086;;-23.406881;;-23.422993;;-23.502788;;-23.840104;;-25.254934;;-28.238761;;-32.256134;;-36.802859;;-41.028997;;-43.394444;;-44.566214;;-47.290588;;-52.40987;;-59.39643;;-69.045752;;-85.333482;;-109.01869;;-141.23363;;-183.75997;;-238.95307;;-309.71185;;-399.2421;;-510.16226;;-645.36525;;-807.05215;;-995.40748;;-1206.3764;;-1427.2764;;-1630.3795;;-1809.0293;;-2005.4633;;-2203.2067;;-2358.9097;;-2448.1803;;-2493.0964;;-2534.1076;;-2589.448;;-2647.0177;;-2688.2184;;-2711.4904;;-2729.314;;-2750.4361;;-2773.1867;;-2792.8831;;-2809.0589;;-2824.5501;;-2840.7964;;-2856.1129;;-2867.6875;;-2874.1651;;-2876.4548;;-2876.6319;;-2876.3813;;-2876.2981;;-2876.2981
-23.405072;;-23.405072;;-23.405072;;-23.405072;;-23.405072;;-23.405072;;-23.405072;;-23.405072;;-23.405072;;-23.405121;;-23.411118;;-23.465457;;-23.717579;;-24.726278;;-27.468104;;-31.551348;;-36.616324;;-42.177247;;-47.186838;;-50.057386;;-51.374125;;-53.957386;;-58.596127;;-64.530259;;-71.218245;;-82.321472;;-102.77921;;-132.11461;;-171.58556;;-223.29372;;-289.97657;;-374.92791;;-481.11919;;-611.42759;;-768.64995;;-954.09753;;-1165.8996;;-1395.7426;;-1623.5378;;-1821.2675;;-2012.1632;;-2200.9023;;-2357.8134;;-2461.2288;;-2522.5635;;-2571.9963;;-2626.715;;-2681.059;;-2722.2506;;-2747.347;;-2763.3184;;-2777.3826;;-2791.7625;;-2805.6591;;-2819.1653;;-2833.925;;-2850.3793;;-2866.0567;;-2877.42;;-2882.7612;;-2882.8368;;-2879.5786;;-2875.2469;;-2872.2326;;-2872.2326
-23.405072;;-23.405072;;-23.405072;;-23.405072;;-23.405072;;-23.405072;;-23.405072;;-23.405072;;-23.405074;;-23.405265;;-23.420125;;-23.554978;;-24.227482;;-26.457114;;-30.220034;;-35.147471;;-41.056912;;-47.193472;;-52.698664;;-55.853167;;-57.280342;;-59.469076;;-62.993899;;-67.144705;;-71.691813;;-78.46028;;-95.048033;;-120.89042;;-156.53437;;-203.71554;;-264.93684;;-343.33443;;-442.24757;;-564.4666;;-713.10173;;-890.33116;;-1096.0045;;-1325.1659;;-1563.4239;;-1781.3794;;-1971.2989;;-2152.4533;;-2312.6885;;-2435.5641;;-2523.3022;;-2591.6631;;-2651.5189;;-2702.296;;-2739.3576;;-2762.6809;;-2777.2596;;-2788.8459;;-2800.7772;;-2813.9048;;-2828.5487;;-2845.2181;;-2862.9694;;-2878.4597;;-2887.8949;;-2889.6869;;-2884.8943;;-2876.1335;;-2866.9552;;-2861.1309;;-2861.1309
-23.405072;;-23.405072;;-23.405072;;-23.405072;;-23.405072;;-23.405072;;-23.405072;;-23.405072;;-23.405129;;-23.406468;;-23.440444;;-23.74787;;-25.428961;;-28.83776;;-33.464903;;-39.058968;;-45.258317;;-51.313136;;-56.235836;;-58.968353;;-60.3802;;-61.982933;;-64.078331;;-66.273335;;-69.02931;;-73.715953;;-85.721997;;-107.51174;;-138.47195;;-179.90515;;-233.98879;;-303.53691;;-391.88507;;-501.80784;;-636.30576;;-798.01527;;-987.91027;;-1203.476;;-1435.236;;-1661.4585;;-1857.0339;;-2035.1503;;-2199.5054;;-2341.8979;;-2461.1844;;-2561.0562;;-2642.2011;;-2702.6638;;-2742.8479;;-2767.3172;;-2782.6905;;-2794.8914;;-2807.4826;;-2821.7757;;-2838.2272;;-2856.7712;;-2875.4793;;-2890.1436;;-2896.5781;;-2893.5726;;-2883.4907;;-2870.7023;;-2859.7726;;-2853.7749;;-2853.7749
-23.405072;;-23.405072;;-23.405072;;-23.405072;;-23.405072;;-23.405072;;-23.405072;;-23.405076;;-23.405559;;-23.413198;;-23.503106;;-24.446038;;-27.478504;;-31.886184;;-37.369549;;-43.567389;;-49.696563;;-54.719015;;-57.846459;;-59.531458;;-60.528043;;-61.43451;;-62.273207;;-63.022848;;-64.59862;;-68.445629;;-76.517129;;-93.845595;;-119.66192;;-154.80035;;-201.01755;;-260.71667;;-336.84356;;-432.18709;;-549.35093;;-691.03191;;-858.77988;;-1051.6689;;-1263.8624;;-1480.729;;-1678.5237;;-1855.6258;;-2022.3119;;-2180.6916;;-2332.3827;;-2473.8129;;-2593.6486;;-2681.6678;;-2737.5419;;-2769.7935;;-2789.0026;;-2802.9651;;-2815.6376;;-2828.6403;;-2843.3181;;-2860.7697;;-2879.6027;;-2894.7238;;-2900.4277;;-2895.3798;;-2883.8493;;-2872.1576;;-2864.557;;-2861.497;;-2861.497
-23.405072;;-23.405072;;-23.405072;;-23.405072;;-23.405072;;-23.405073;;-23.405081;;-23.405158;;-23.407583;;-23.43716;;-23.767809;;-26.104775;;-30.164486;;-35.485932;;-41.783113;;-48.538148;;-54.579251;;-57.758793;;-58.475024;;-58.640609;;-58.881661;;-59.159604;;-59.224497;;-59.214254;;-60.217289;;-63.641726;;-69.746669;;-81.646485;;-102.12774;;-131.00959;;-169.48758;;-219.48701;;-283.48237;;-364.12616;;-463.60378;;-584.42583;;-728.38715;;-895.54892;;-1082.5735;;-1280.0911;;-1471.2005;;-1647.5861;;-1817.8762;;-1992.1419;;-2175.4579;;-2360.164;;-2525.143;;-2649.9893;;-2729.6974;;-2774.6968;;-2799.4601;;-2814.0821;;-2823.3003;;-2829.8071;;-2837.4059;;-2850.5187;;-2869.7935;;-2889.0633;;-2899.5789;;-2898.4561;;-2891.1028;;-2885.0174;;-2883.2872;;-2883.9397;;-2883.9397
-23.405072;;-23.405072;;-23.405072;;-23.405072;;-23.405074;;-23.405188;;-23.406147;;-23.4102;;-23.426851;;-23.528918;;-24.729111;;-28.202352;;-33.122072;;-39.261258;;-46.320006;;-53.492583;;-59.31355;;-60.477615;;-58.973469;;-57.588234;;-57.054122;;-57.007246;;-56.926621;;-56.825976;;-57.610129;;-60.493467;;-65.638529;;-72.94614;;-87.499397;;-110.22312;;-141.45186;;-182.52328;;-235.38805;;-302.44305;;-385.63742;;-487.12193;;-608.81081;;-751.47124;;-913.67175;;-1090.2524;;-1271.7279;;-1452.2121;;-1637.0873;;-1835.1058;;-2049.4757;;-2269.0473;;-2469.4607;;-2625.2875;;-2726.932;;-2784.1098;;-2813.0096;;-2825.4738;;-2827.8061;;-2824.9813;;-2824.057;;-2832.8232;;-2853.7425;;-2879.5987;;-2898.5645;;-2905.3258;;-2904.8049;;-2904.5876;;-2907.0798;;-2909.7509;;-2909.7509
-23.405072;;-23.405072;;-23.405073;;-23.405098;;-23.405298;;-23.407095;;-23.418122;;-23.459869;;-23.598547;;-24.068472;;-26.091575;;-30.129466;;-35.583173;;-42.251969;;-49.727996;;-57.091522;;-62.350617;;-62.215509;;-59.6862;;-57.511723;;-56.622093;;-56.682034;;-57.011844;;-57.326994;;-58.072227;;-60.147184;;-64.066861;;-69.658887;;-77.66204;;-94.146018;;-118.89452;;-152.41039;;-196.07855;;-251.84723;;-321.74405;;-407.5436;;-511.30617;;-634.51934;;-777.55103;;-939.10075;;-1116.7171;;-1310.8286;;-1524.427;;-1755.411;;-1996.6196;;-2235.2916;;-2450.9717;;-2620.7435;;-2733.4828;;-2796.4114;;-2825.2729;;-2833.5308;;-2830.1543;;-2822.5355;;-2818.8485;;-2826.9594;;-2849.1962;;-2878.3317;;-2902.164;;-2914.2755;;-2918.2431;;-2920.8285;;-2924.4354;;-2927.2529;;-2927.2529
-23.405073;;-23.405073;;-23.405173;;-23.406314;;-23.412274;;-23.435271;;-23.518966;;-23.928598;;-25.295195;;-26.657101;;-28.197158;;-31.631612;;-36.836313;;-43.34351;;-50.582394;;-57.457624;;-61.952449;;-62.250503;;-60.447605;;-58.774;;-58.246044;;-58.769998;;-59.722521;;-60.602165;;-61.456421;;-62.903743;;-65.667963;;-70.098596;;-75.916202;;-84.468986;;-103.24872;;-130.84715;;-167.80225;;-215.59629;;-276.29854;;-351.90467;;-444.72345;;-557.47349;;-693.04912;;-854.61519;;-1045.0627;;-1265.0388;;-1509.8627;;-1767.9703;;-2023.1238;;-2260.9023;;-2469.4174;;-2633.5132;;-2743.1706;;-2803.3152;;-2829.0176;;-2835.5736;;-2834.2134;;-2832.285;;-2834.84;;-2845.765;;-2865.8221;;-2889.7885;;-2909.0196;;-2918.9994;;-2922.6948;;-2925.524;;-2929.2993;;-2932.1909;;-2932.1909
-23.40508;;-23.40508;;-23.406065;;-23.416491;;-23.4677;;-23.639366;;-24.379098;;-26.503186;;-29.073978;;-30.989004;;-32.283229;;-34.513551;;-38.276016;;-43.561502;;-49.457725;;-55.008801;;-59.098217;;-61.029427;;-61.303604;;-61.102505;;-61.413216;;-62.499211;;-64.01357;;-65.416422;;-66.481958;;-67.590567;;-69.53446;;-72.927748;;-77.597092;;-83.127077;;-98.421147;;-124.02907;;-159.56135;;-206.40897;;-266.88967;;-344.00692;;-440.97763;;-560.89768;;-707.30736;;-883.26115;;-1090.4537;;-1327.6866;;-1588.2508;;-1856.1611;;-2105.4789;;-2320.9811;;-2503.2393;;-2645.4524;;-2740.317;;-2793.1316;;-2818.8287;;-2832.3558;;-2843.3998;;-2855.4545;;-2868.1711;;-2880.9815;;-2893.7123;;-2904.5245;;-2910.4688;;-2911.5316;;-2911.9786;;-2915.8122;;-2922.3331;;-2927.3217;;-2927.3217
-23.405113;;-23.405113;;-23.409756;;-23.457667;;-23.696072;;-24.679783;;-27.208821;;-30.682969;;-34.263795;;-36.673496;;-37.774909;;-39.361334;;-41.686842;;-44.824197;;-48.367033;;-52.419885;;-56.606903;;-60.21759;;-62.64866;;-64.031681;;-65.182855;;-66.691927;;-68.556876;;-70.331227;;-71.601462;;-72.537895;;-73.910947;;-76.344518;;-79.671272;;-88.31933;;-109.29797;;-139.80478;;-180.66359;;-233.85469;;-302.09711;;-388.73434;;-497.01774;;-630.46259;;-792.61114;;-986.13868;;-1211.6963;;-1465.7767;;-1736.8288;;-1999.2805;;-2217.4002;;-2389.5308;;-2530.2527;;-2639.268;;-2714.8145;;-2764.3307;;-2799.9456;;-2830.5735;;-2859.2804;;-2884.4445;;-2902.8217;;-2912.6552;;-2914.261;;-2908.6744;;-2898.108;;-2888.1132;;-2885.9877;;-2894.4712;;-2908.1962;;-2918.0973;;-2918.0973
-23.405316;;-23.405316;;-23.419874;;-23.570101;;-24.571791;;-27.377882;;-31.375848;;-36.088757;;-40.696865;;-43.542036;;-44.273878;;-44.878554;;-45.882951;;-47.062198;;-48.936785;;-52.134525;;-56.48683;;-61.031177;;-64.673722;;-67.043968;;-68.649488;;-70.215619;;-72.097385;;-74.029751;;-75.460277;;-76.360623;;-77.412296;;-79.092213;;-83.921678;;-101.77388;;-129.15233;;-166.44369;;-215.3446;;-278.34188;;-358.58136;;-459.43095;;-584.37696;;-737.18763;;-921.11513;;-1137.9199;;-1386.1067;;-1657.7504;;-1932.194;;-2166.3428;;-2330.2336;;-2448.3349;;-2541.1753;;-2615.8282;;-2678.0629;;-2734.8855;;-2789.5799;;-2839.909;;-2881.4051;;-2910.7898;;-2926.6695;;-2929.1254;;-2919.0797;;-2898.7517;;-2873.9234;;-2855.2563;;-2853.4782;;-2869.8449;;-2893.3395;;-2909.4204;;-2909.4204
-23.406524;;-23.406524;;-23.447008;;-24.115903;;-26.960035;;-31.227788;;-36.579676;;-42.472251;;-48.053205;;-51.18305;;-50.87633;;-49.760497;;-48.751569;;-48.860926;;-50.651044;;-54.072088;;-58.578805;;-63.238975;;-67.125007;;-69.76506;;-71.346993;;-72.55822;;-74.101235;;-76.03005;;-78.00369;;-80.799545;;-84.594188;;-88.153503;;-98.836896;;-122.48949;;-156.63892;;-202.23544;;-261.42063;;-337.11261;;-432.72783;;-551.52981;;-697.38534;;-873.90141;;-1083.6577;;-1326.6371;;-1597.0859;;-1878.4694;;-2133.396;;-2309.7568;;-2416.2143;;-2486.835;;-2542.2373;;-2596.3969;;-2658.9953;;-2731.061;;-2803.4059;;-2864.1113;;-2906.5262;;-2930.5733;;-2939.0333;;-2933.703;;-2914.938;;-2884.7948;;-2851.2643;;-2828.5865;;-2829.372;;-2852.8905;;-2883.7771;;-2904.1359;;-2904.1359
-23.411635;;-23.411635;;-23.646369;;-26.07662;;-30.270962;;-35.77602;;-42.326071;;-49.35803;;-55.926211;;-58.715291;;-56.416963;;-52.36878;;-49.405463;;-49.475089;;-52.426977;;-56.846251;;-61.607636;;-65.995723;;-69.59103;;-72.072567;;-73.459271;;-74.940204;;-77.975373;;-82.973256;;-89.74347;;-97.033514;;-103.51454;;-108.66282;;-121.20607;;-150.00275;;-191.67259;;-247.15385;;-318.8326;;-409.99908;;-523.92412;;-664.05369;;-834.16431;;-1037.0641;;-1273.425;;-1539.3558;;-1821.6309;;-2088.5901;;-2283.1741;;-2394.7493;;-2461.0031;;-2507.4713;;-2551.6636;;-2607.4208;;-2680.621;;-2763.7508;;-2840.1277;;-2896.2203;;-2929.116;;-2943.6815;;-2945.287;;-2935.4648;;-2913.0989;;-2879.6779;;-2844.1034;;-2821.5746;;-2824.1742;;-2849.5214;;-2881.2603;;-2901.747;;-2901.747
-23.439998;;-23.439998;;-24.84923;;-28.630852;;-33.919702;;-40.522131;;-48.098867;;-56.183818;;-63.199144;;-64.312367;;-59.362338;;-53.430854;;-49.500859;;-50.226936;;-54.478707;;-59.850796;;-64.735023;;-68.642697;;-71.745122;;-74.907225;;-81.219293;;-87.925262;;-93.943689;;-101.47801;;-111.32828;;-121.95338;;-131.0974;;-138.06586;;-150.87632;;-184.45705;;-234.43564;;-301.21005;;-387.27071;;-496.17571;;-630.79087;;-794.64479;;-990.82202;;-1220.4255;;-1480.5109;;-1759.8095;;-2030.1953;;-2235.1098;;-2352.2794;;-2423.9411;;-2478.833;;-2531.0758;;-2589.3755;;-2659.4241;;-2739.7575;;-2819.3049;;-2883.4658;;-2924.4161;;-2944.6266;;-2951.3582;;-2949.5795;;-2939.4046;;-2918.6353;;-2888.1681;;-2856.0125;;-2835.4782;;-2836.5596;;-2856.8628;;-2882.6717;;-2899.4176;;-2899.4176
-23.78471;;-23.78471;;-26.766819;;-31.510858;;-37.70897;;-45.231315;;-53.630514;;-62.300714;;-68.992386;;-67.28657;;-61.223781;;-55.006529;;-51.380666;;-53.011163;;-57.819603;;-63.325028;;-67.78821;;-71.222904;;-77.801369;;-88.266203;;-99.458701;;-109.56333;;-118.1007;;-128.27823;;-141.42849;;-155.62192;;-167.8042;;-177.01647;;-189.69388;;-226.39772;;-284.88601;;-364.02042;;-466.02476;;-594.52587;;-751.67885;;-940.67489;;-1163.163;;-1417.0843;;-1692.8334;;-1965.1691;;-2179.1911;;-2299.6708;;-2372.1018;;-2435.7079;;-2505.8297;;-2582.3161;;-2661.3545;;-2739.7204;;-2812.7942;;-2873.7561;;-2916.7915;;-2941.3005;;-2952.0663;;-2954.9743;;-2952.9508;;-2945.1791;;-2929.3954;;-2905.7866;;-2879.8669;;-2861.3173;;-2857.8882;;-2868.8457;;-2885.1116;;-2896.2302;;-2896.2302
-25.319198;;-25.319198;;-29.195929;;-34.840496;;-41.999246;;-50.435578;;-59.816574;;-68.984778;;-74.846751;;-70.720243;;-63.988865;;-58.191591;;-55.672565;;-57.95744;;-62.674394;;-67.498382;;-71.812928;;-81.04841;;-94.248861;;-109.79096;;-125.58648;;-139.27701;;-150.53369;;-163.73591;;-180.79151;;-199.22866;;-215.07965;;-227.10784;;-240.60657;;-277.30152;;-343.50378;;-435.32774;;-554.09809;;-703.13984;;-883.42838;;-1097.077;;-1343.1858;;-1614.2695;;-1889.2271;;-2119.7428;;-2256.9218;;-2333.9455;;-2397.5678;;-2475.1641;;-2568.8245;;-2665.5565;;-2752.3347;;-2822.4787;;-2874.7567;;-2910.8473;;-2933.6958;;-2946.7113;;-2953.2223;;-2955.696;;-2955.0539;;-2950.5666;;-2940.6804;;-2924.8896;;-2905.7638;;-2889.1617;;-2881.0181;;-2882.6689;;-2889.6224;;-2895.2591;;-2895.2591
-27.381136;;-27.381136;;-31.796499;;-38.180987;;-46.231097;;-55.614314;;-65.977882;;-75.911587;;-81.21886;;-75.418551;;-67.938007;;-62.518464;;-61.265177;;-63.960147;;-68.234252;;-73.156076;;-83.851085;;-99.277802;;-118.13971;;-139.05957;;-160.0308;;-177.945;;-192.3881;;-209.17427;;-230.93201;;-254.51234;;-274.85182;;-290.40962;;-306.26887;;-340.93562;;-411.48524;;-514.57449;;-649.40025;;-818.214;;-1020.1711;;-1254.9802;;-1517.5157;;-1791.5529;;-2038.9279;;-2208.2576;;-2312.1215;;-2387.614;;-2465.4369;;-2559.785;;-2663.9236;;-2760.5287;;-2835.821;;-2885.6216;;-2913.8864;;-2928.6584;;-2937.5728;;-2944.7528;;-2950.7173;;-2954.547;;-2955.7161;;-2954.0853;;-2949.1153;;-2940.0043;;-2927.1217;;-2913.3144;;-2902.9021;;-2898.4447;;-2898.7177;;-2900.205;;-2900.205
-29.134896;;-29.134896;;-33.949479;;-40.904966;;-49.665109;;-59.844323;;-71.058248;;-81.726453;;-86.858872;;-80.004884;;-71.844732;;-66.619115;;-66.413567;;-69.467098;;-74.426972;;-86.013436;;-103.07319;;-124.57915;;-149.61337;;-176.90167;;-204.07712;;-227.07491;;-245.30191;;-266.22326;;-293.31603;;-322.81668;;-348.44081;;-368.35452;;-388.86544;;-423.62301;;-493.25861;;-602.40668;;-749.46383;;-934.23521;;-1153.3455;;-1401.8106;;-1668.1245;;-1924.3394;;-2124.4469;;-2266.2461;;-2375.9712;;-2473.1661;;-2570.6335;;-2670.1282;;-2763.3622;;-2839.5994;;-2892.3811;;-2921.5986;;-2932.705;;-2934.6198;;-2935.8627;;-2940.4318;;-2947.0735;;-2952.598;;-2955.369;;-2955.6639;;-2953.8862;;-2949.5003;;-2941.8862;;-2931.9676;;-2922.4274;;-2915.7874;;-2912.5311;;-2911.4705;;-2911.4705
-30.508224;;-30.508224;;-35.603303;;-42.958065;;-52.208865;;-62.925453;;-74.681463;;-85.731524;;-90.264028;;-82.877646;;-74.539584;;-69.737382;;-70.309009;;-74.902194;;-87.225556;;-105.49029;;-129.00652;;-157.30884;;-189.67281;;-224.68192;;-259.23134;;-288.01296;;-310.43209;;-335.88659;;-369.0363;;-405.42003;;-437.33173;;-462.64472;;-489.04952;;-529.47325;;-598.99129;;-706.47709;;-855.62271;;-1046.2003;;-1272.2551;;-1520.4811;;-1771.8991;;-1993.3416;;-2169.0834;;-2314.5742;;-2444.9579;;-2566.8488;;-2677.3831;;-2769.3237;;-2838.7944;;-2887.6817;;-2919.5141;;-2936.2007;;-2940.0945;;-2937.0149;;-2934.6527;;-2937.4795;;-2944.2461;;-2950.8523;;-2954.7585;;-2956.1619;;-2956.0519;;-2954.4785;;-2950.8009;;-2945.0141;;-2938.3502;;-2932.4414;;-2928.2504;;-2926.0846;;-2926.0846
