-0.50927211;;-0.50927211;;-0.51244166;;-0.5169797;;-0.52260549;;-0.52892774;;-0.80701191;;-0.81036302;;-0.80522611;;-0.79693282;;-0.79089886;;-0.78853968;;-0.7881047;;-0.78632341;;-0.79031443;;-0.80373049;;-0.82437565;;-0.85195703;;-0.88726986;;-0.93131802;;-0.98458999;;-1.0478122;;-1.1215883;;-1.2041016;;-1.2907278;;-1.3730966;;-1.4430189;;-1.4993304;;-1.5451495;;-1.5855662;;-1.6267077;;-1.6730475;;-1.724327;;-1.7755605;;-1.8213788;;-1.8597021;;-1.8917445;;-1.9196131;;-1.9447903;;-1.9679894;;-1.9889077;;-2.0065592;;-2.0211004;;-2.0344472;;-2.0490384;;-2.0662179;;-2.0856507;;-2.1064882;;-2.1283092;;-2.1516281;;-2.176612;;-2.2022084;;-2.2263844;;-2.2472074;;-2.263501;;-2.2757642;;-2.285704;;-2.2953625;;-2.3065633;;-2.3210552;;-2.3397139;;-2.3617946;;-2.385406;;-2.4094827;;-2.4094827
-0.51023729;;-0.51023729;;-0.51351337;;-0.51818244;;-0.52392147;;-0.53026093;;-0.8081399;;-0.80807616;;-0.80256134;;-0.79581807;;-0.79080242;;-0.78850072;;-0.78781978;;-0.78650895;;-0.78748923;;-0.79938377;;-0.8185955;;-0.84475338;;-0.87860753;;-0.92129908;;-0.97321196;;-1.0349656;;-1.1072628;;-1.1887495;;-1.275186;;-1.3587842;;-1.4314899;;-1.492062;;-1.5433227;;-1.5888388;;-1.6324535;;-1.6774688;;-1.7243847;;-1.7705478;;-1.8124746;;-1.8488386;;-1.8805859;;-1.9091467;;-1.9352851;;-1.9593025;;-1.9811739;;-2.0003964;;-2.0170035;;-2.0319903;;-2.0469015;;-2.0634402;;-2.0821356;;-2.1023864;;-2.1233006;;-2.1448537;;-2.1676884;;-2.1918856;;-2.2161826;;-2.2383019;;-2.2562211;;-2.2698064;;-2.2805496;;-2.2901767;;-2.3005122;;-2.3138955;;-2.3319066;;-2.3539764;;-2.3778774;;-2.4020632;;-2.4020632
-0.5113642;;-0.5113642;;-0.51473702;;-0.51950882;;-0.52528608;;-0.80251263;;-0.80597838;;-0.80501565;;-0.80064335;;-0.79575199;;-0.79181204;;-0.78951841;;-0.78844775;;-0.78719081;;-0.7858509;;-0.79587836;;-0.81343215;;-0.83804987;;-0.87029857;;-0.91150224;;-0.96197586;;-1.0221761;;-1.0929331;;-1.1733711;;-1.2598462;;-1.3454885;;-1.4223521;;-1.488112;;-1.5446902;;-1.5944666;;-1.6396321;;-1.6826469;;-1.7251189;;-1.7666607;;-1.8056323;;-1.8410193;;-1.8730089;;-1.9020851;;-1.9285034;;-1.9526216;;-1.9751426;;-1.996219;;-2.0156213;;-2.0331627;;-2.0495119;;-2.0663433;;-2.0845859;;-2.1036895;;-2.1227038;;-2.1418196;;-2.1625148;;-2.1858161;;-2.210621;;-2.2338935;;-2.2527434;;-2.2667661;;-2.277756;;-2.2872845;;-2.2969041;;-2.3089764;;-2.3255494;;-2.3465501;;-2.3699593;;-2.3939117;;-2.3939117
-0.51269861;;-0.51269861;;-0.51616427;;-0.52101875;;-0.79975293;;-0.80187872;;-0.80302564;;-0.80147878;;-0.79871011;;-0.79573316;;-0.79309698;;-0.79107022;;-0.78980381;;-0.78860214;;-0.78659835;;-0.79361232;;-0.80945133;;-0.83268312;;-0.86358852;;-0.903407;;-0.95256282;;-1.0114282;;-1.0810013;;-1.1606041;;-1.2473148;;-1.3350322;;-1.4155449;;-1.4849966;;-1.5444288;;-1.5959495;;-1.6411607;;-1.6819843;;-1.7207534;;-1.7589442;;-1.7962936;;-1.8319069;;-1.8650588;;-1.8952147;;-1.9221395;;-1.9465252;;-1.9698333;;-1.9930098;;-2.015615;;-2.0364795;;-2.055253;;-2.0730341;;-2.0907507;;-2.1080131;;-2.1243788;;-2.1408538;;-2.1596993;;-2.18246;;-2.2078904;;-2.2320647;;-2.2512073;;-2.2647159;;-2.2748648;;-2.2838218;;-2.2931461;;-2.3045911;;-2.3196992;;-2.3389532;;-2.3611777;;-2.3846057;;-2.3846057
-0.51431656;;-0.51431656;;-0.51773462;;-0.52256684;;-0.80136549;;-0.80103377;;-0.80006031;;-0.79863338;;-0.79707665;;-0.79542585;;-0.79386673;;-0.79232216;;-0.79133904;;-0.79069636;;-0.78941902;;-0.79264715;;-0.80690662;;-0.82890269;;-0.85865184;;-0.89728754;;-0.945399;;-1.0032236;;-1.0718912;;-1.1510355;;-1.2381196;;-1.3274828;;-1.4102935;;-1.4808463;;-1.5398297;;-1.5902088;;-1.6340034;;-1.672853;;-1.7090703;;-1.7450544;;-1.7816967;;-1.8186103;;-1.8543178;;-1.887146;;-1.9160644;;-1.941666;;-1.9658927;;-1.9906578;;-2.0159333;;-2.0400887;;-2.0616198;;-2.0805937;;-2.0976903;;-2.1131533;;-2.1274635;;-2.1422174;;-2.1597534;;-2.1815643;;-2.206438;;-2.2301868;;-2.2484871;;-2.2602413;;-2.2681931;;-2.2759055;;-2.2855265;;-2.2977442;;-2.3123605;;-2.329889;;-2.3505866;;-2.3733188;;-2.3733188
-0.51752709;;-0.51752709;;-0.52043084;;-0.79979751;;-0.80066008;;-0.79946641;;-0.79784565;;-0.79671543;;-0.79590523;;-0.79499127;;-0.79391904;;-0.79279706;;-0.79234968;;-0.79268618;;-0.79255488;;-0.79254553;;-0.80524568;;-0.82597404;;-0.85452673;;-0.89198826;;-0.93919363;;-0.99614008;;-1.0640296;;-1.1426359;;-1.2298132;;-1.3200518;;-1.4036481;;-1.4728932;;-1.5289335;;-1.5763906;;-1.6181951;;-1.6556701;;-1.6907867;;-1.7259099;;-1.7630264;;-1.8022073;;-1.8418061;;-1.8788883;;-1.9113727;;-1.9391079;;-1.9642127;;-1.9895339;;-2.0161204;;-2.0425245;;-2.066276;;-2.0862113;;-2.102901;;-2.1175223;;-2.1314619;;-2.1462896;;-2.1635206;;-2.1840572;;-2.206829;;-2.2280492;;-2.2434825;;-2.2518086;;-2.2562789;;-2.2621476;;-2.2725644;;-2.2869128;;-2.3023634;;-2.318734;;-2.3379736;;-2.3601351;;-2.3601352
-0.52234471;;-0.52234471;;-0.52483696;;-0.80437752;;-0.8022229;;-0.80010845;;-0.79847004;;-0.7971695;;-0.79605167;;-0.79504455;;-0.79386128;;-0.79261668;;-0.79229195;;-0.79328914;;-0.79386387;;-0.79208619;;-0.80310033;;-0.82246054;;-0.84982759;;-0.88612153;;-0.93226607;;-0.987994;;-1.0546013;;-1.1320462;;-1.2184261;;-1.3083572;;-1.3916383;;-1.4587107;;-1.5115366;;-1.5565261;;-1.5973111;;-1.6350065;;-1.6708838;;-1.707065;;-1.7457547;;-1.7876204;;-1.8310431;;-1.8723318;;-1.9084795;;-1.9384809;;-1.9643837;;-1.9896099;;-2.016218;;-2.0432618;;-2.0679747;;-2.0884728;;-2.105274;;-2.1203017;;-2.1354673;;-2.1519692;;-2.1701704;;-2.1898463;;-2.2097061;;-2.2267935;;-2.2375822;;-2.2413614;;-2.2420411;;-2.2461256;;-2.2573517;;-2.2739131;;-2.2907393;;-2.3066498;;-2.3248855;;-2.3468261;;-2.3468261
-0.52835007;;-0.52835007;;-0.53057336;;-0.80968108;;-0.80688628;;-0.80476233;;-0.8033803;;-0.80151222;;-0.7991056;;-0.7966959;;-0.79431554;;-0.79214089;;-0.79115351;;-0.79181977;;-0.79206516;;-0.78957395;;-0.79936736;;-0.81758195;;-0.84349342;;-0.87829627;;-0.92282346;;-0.97664518;;-1.0409381;;-1.1160061;;-1.2003786;;-1.2890099;;-1.3721117;;-1.4389642;;-1.4913513;;-1.5366555;;-1.5787744;;-1.6184975;;-1.6565444;;-1.6946149;;-1.7350061;;-1.7787083;;-1.824265;;-1.8679957;;-1.9063628;;-1.9380753;;-1.9648232;;-1.990031;;-2.016105;;-2.0424601;;-2.0667718;;-2.087357;;-2.1048033;;-2.1212588;;-2.1386355;;-2.1575639;;-2.1773029;;-2.1964723;;-2.2133476;;-2.2258716;;-2.2321732;;-2.2325678;;-2.2311262;;-2.2343689;;-2.2457941;;-2.2630204;;-2.2802833;;-2.2958353;;-2.3134515;;-2.3355427;;-2.3355427
-0.53488389;;-0.81385606;;-0.8135026;;-0.81351017;;-0.81247419;;-0.81214473;;-0.81166804;;-0.80895682;;-0.80451219;;-0.7997963;;-0.79535577;;-0.79151134;;-0.78921561;;-0.78873103;;-0.78822303;;-0.7856402;;-0.79429668;;-0.81112641;;-0.83523563;;-0.86796916;;-0.91008757;;-0.96128106;;-1.0223089;;-1.0940807;;-1.1755212;;-1.262518;;-1.3468782;;-1.4179276;;-1.4748166;;-1.5243548;;-1.5701934;;-1.6128588;;-1.6528011;;-1.6917157;;-1.7321129;;-1.775415;;-1.8205288;;-1.8642303;;-1.9032427;;-1.9361334;;-1.964056;;-1.989779;;-2.0152392;;-2.0401339;;-2.0631017;;-2.0834131;;-2.101851;;-2.1203055;;-2.1402358;;-2.1615385;;-2.1824364;;-2.2006619;;-2.2146105;;-2.2235752;;-2.2275457;;-2.2277269;;-2.2273313;;-2.2311833;;-2.2418667;;-2.25734;;-2.272984;;-2.287489;;-2.3045567;;-2.3268573;;-2.3268574
-0.54106459;;-0.82183389;;-0.81985359;;-0.81849426;;-0.81933872;;-0.82119584;;-0.82131266;;-0.81738876;;-0.81055838;;-0.80306245;;-0.79615339;;-0.79059633;;-0.78717503;;-0.78552906;;-0.78409722;;-0.78174349;;-0.78886946;;-0.80396002;;-0.82607591;;-0.85646345;;-0.89584825;;-0.9441687;;-1.0017428;;-1.0700758;;-1.1486593;;-1.2345691;;-1.3216728;;-1.4003753;;-1.4660142;;-1.5228374;;-1.573586;;-1.6186657;;-1.6588003;;-1.6963273;;-1.7344012;;-1.7749715;;-1.817399;;-1.8592571;;-1.8979429;;-1.9318944;;-1.9614197;;-1.9880494;;-2.0129229;;-2.0361203;;-2.0574875;;-2.0774591;;-2.0970288;;-2.1175673;;-2.1398279;;-2.1628987;;-2.1841445;;-2.2009076;;-2.2123168;;-2.2193999;;-2.2237074;;-2.2265637;;-2.229508;;-2.2348348;;-2.2439468;;-2.2558023;;-2.2681217;;-2.2807625;;-2.2970823;;-2.3195719;;-2.3195719
-0.54517349;;-0.54517349;;-0.82456018;;-0.8241818;;-0.82640611;;-0.82950439;;-0.82976121;;-0.82441662;;-0.81525541;;-0.8055772;;-0.79688575;;-0.78997515;;-0.7853847;;-0.78254796;;-0.78030175;;-0.77862803;;-0.78450328;;-0.7978846;;-0.81817903;;-0.84627792;;-0.88316379;;-0.92898624;;-0.98381546;;-1.0494106;;-1.1258544;;-1.2112139;;-1.3008809;;-1.3870671;;-1.4627361;;-1.5282099;;-1.5841771;;-1.6307691;;-1.6697587;;-1.7046996;;-1.739304;;-1.7757271;;-1.8140386;;-1.8529694;;-1.8906606;;-1.92546;;-1.9566141;;-1.9842491;;-2.0087714;;-2.030757;;-2.0510634;;-2.0710294;;-2.091795;;-2.1140889;;-2.137842;;-2.1615695;;-2.1824223;;-2.1980215;;-2.2083677;;-2.2155725;;-2.2216953;;-2.2275334;;-2.2332632;;-2.2394219;;-2.2465455;;-2.2544709;;-2.2631488;;-2.2739264;;-2.2898765;;-2.3128035;;-2.3128035
-0.54717995;;-0.54717995;;-0.8271474;;-0.82793991;;-0.83090202;;-0.83427628;;-0.83413782;;-0.82807706;;-0.81810085;;-0.80738281;;-0.79759379;;-0.78964193;;-0.78391993;;-0.7798943;;-0.77688085;;-0.77614425;;-0.78201104;;-0.79431793;;-0.81319933;;-0.83937787;;-0.87406604;;-0.91758013;;-0.97042887;;-1.033845;;-1.1084661;;-1.1928966;;-1.2837606;;-1.3748209;;-1.4591173;;-1.5333153;;-1.5946731;;-1.6427496;;-1.6808187;;-1.7136423;;-1.7449245;;-1.7769456;;-1.8108332;;-1.8464398;;-1.8825801;;-1.9175576;;-1.9497383;;-1.9781824;;-2.0028547;;-2.0246649;;-2.0450523;;-2.0657137;;-2.0876864;;-2.1109208;;-2.13464;;-2.1575167;;-2.1777113;;-2.1937368;;-2.2056513;;-2.2148656;;-2.2226309;;-2.2293533;;-2.2352183;;-2.2405558;;-2.2455941;;-2.2505674;;-2.2569133;;-2.2669898;;-2.2834156;;-2.3070959;;-2.307096
-0.54854172;;-0.82745763;;-0.827386;;-0.8285745;;-0.831463;;-0.83427954;;-0.83378026;;-0.82793422;;-0.81842053;;-0.80789838;;-0.79793635;;-0.78946759;;-0.78275686;;-0.7776224;;-0.77422855;;-0.77485295;;-0.78148969;;-0.79337306;;-0.81111125;;-0.83562171;;-0.86847591;;-0.90986914;;-0.96063963;;-1.0221479;;-1.0949935;;-1.1781658;;-1.2688922;;-1.3623615;;-1.452636;;-1.5340317;;-1.6004169;;-1.6504335;;-1.6885525;;-1.7201243;;-1.7487073;;-1.7770052;;-1.8072346;;-1.8400697;;-1.8746363;;-1.9090756;;-1.9413209;;-1.9700225;;-1.9951149;;-2.0177745;;-2.0394247;;-2.0613602;;-2.0840651;;-2.106795;;-2.1286707;;-2.1496373;;-2.1698306;;-2.1885823;;-2.204643;;-2.2170874;;-2.225696;;-2.2311263;;-2.2348573;;-2.2381223;;-2.2412729;;-2.244724;;-2.250526;;-2.261282;;-2.2789147;;-2.3034729;;-2.3034729
-0.54939587;;-0.82939258;;-0.82734108;;-0.82738873;;-0.82966438;;-0.83152352;;-0.83037256;;-0.82483368;;-0.8164432;;-0.80703845;;-0.79764127;;-0.78922048;;-0.78209737;;-0.77638957;;-0.7731161;;-0.77520947;;-0.7828734;;-0.79506472;;-0.81205379;;-0.83502163;;-0.86596905;;-0.90551579;;-0.95457355;;-1.0148497;;-1.0865168;;-1.1686489;;-1.2591016;;-1.353668;;-1.4468871;;-1.5318224;;-1.600834;;-1.6519455;;-1.6900019;;-1.7205397;;-1.7471555;;-1.7731688;;-1.8014696;;-1.8329639;;-1.8665709;;-1.9002062;;-1.93176;;-1.9600142;;-1.9852987;;-2.0090308;;-2.0323285;;-2.0554169;;-2.0778317;;-2.0985425;;-2.1174785;;-2.1365378;;-2.1579234;;-2.1811656;;-2.2026899;;-2.2186067;;-2.227591;;-2.2313442;;-2.232885;;-2.2343569;;-2.2362212;;-2.2390802;;-2.2453328;;-2.2573299;;-2.2761381;;-2.301344;;-2.3013441
-0.54927527;;-0.83026366;;-0.82740761;;-0.82602242;;-0.82731312;;-0.82822466;;-0.8263582;;-0.82092956;;-0.813508;;-0.80534976;;-0.797018;;-0.78919329;;-0.78223542;;-0.77669528;;-0.7740177;;-0.77701262;;-0.78553199;;-0.79828922;;-0.81509809;;-0.83701855;;-0.86677905;;-0.90545789;;-0.95413392;;-1.0145467;;-1.0864207;;-1.1688446;;-1.2596039;;-1.3543019;;-1.446945;;-1.5303626;;-1.5975346;;-1.6468164;;-1.6829565;;-1.7118682;;-1.7375807;;-1.7635216;;-1.7922102;;-1.8239643;;-1.8572954;;-1.8901485;;-1.9206875;;-1.9480203;;-1.9729997;;-1.9972492;;-2.0214771;;-2.0449026;;-2.0661601;;-2.0843728;;-2.1007102;;-2.1188901;;-2.1423498;;-2.1700969;;-2.1963513;;-2.2151232;;-2.2247445;;-2.2281619;;-2.2294424;;-2.2307578;;-2.2323989;;-2.2351692;;-2.241612;;-2.2540239;;-2.2730986;;-2.2983785;;-2.2983785
-0.54812057;;-0.8300434;;-0.82709291;;-0.82497554;;-0.82554094;;-0.8258018;;-0.82350338;;-0.81781546;;-0.8110927;;-0.80400817;;-0.79663487;;-0.78951912;;-0.78320519;;-0.77842118;;-0.77657289;;-0.77991569;;-0.78848261;;-0.80126153;;-0.81814943;;-0.8403475;;-0.87062915;;-0.91005133;;-0.9600565;;-1.0220846;;-1.0955682;;-1.1794589;;-1.2712097;;-1.3652638;;-1.4541535;;-1.5312231;;-1.5917999;;-1.6354446;;-1.6671263;;-1.6936828;;-1.7200562;;-1.7487237;;-1.7800876;;-1.813025;;-1.8461185;;-1.8780745;;-1.9076536;;-1.9341941;;-1.9585938;;-1.9824873;;-2.0063462;;-2.0290895;;-2.049129;;-2.0659806;;-2.0815992;;-2.1003193;;-2.1256027;;-2.1558978;;-2.184501;;-2.2049587;;-2.2159592;;-2.2210064;;-2.22427;;-2.2273314;;-2.230002;;-2.2329863;;-2.2388056;;-2.2500694;;-2.2680231;;-2.2926728;;-2.2926729
-0.54635737;;-0.82934076;;-0.826744;;-0.82469157;;-0.82489387;;-0.82490546;;-0.82224351;;-0.81640524;;-0.8100324;;-0.80343453;;-0.79662095;;-0.79012148;;-0.7846881;;-0.78092202;;-0.77957664;;-0.78251315;;-0.79053699;;-0.80306401;;-0.82034542;;-0.84429752;;-0.87666157;;-0.91824313;;-0.97076392;;-1.0353328;;-1.1112319;;-1.1972933;;-1.290156;;-1.3826549;;-1.465458;;-1.533398;;-1.5849855;;-1.620983;;-1.6468884;;-1.670935;;-1.6991522;;-1.7323396;;-1.7674102;;-1.8014411;;-1.8337628;;-1.8646388;;-1.893626;;-1.9199303;;-1.943877;;-1.9666536;;-1.9888806;;-2.0102029;;-2.0297226;;-2.0472456;;-2.0644027;;-2.084639;;-2.110572;;-2.1406154;;-2.1688746;;-2.1899134;;-2.2029977;;-2.211212;;-2.2177389;;-2.2233929;;-2.227703;;-2.2312148;;-2.2360946;;-2.2453461;;-2.2613295;;-2.2848959;;-2.284896
-0.54445732;;-0.82849722;;-0.82669263;;-0.82534983;;-0.82533841;;-0.82531537;;-0.82237818;;-0.81641396;;-0.80971307;;-0.80318861;;-0.79675166;;-0.79070648;;-0.78610733;;-0.78309995;;-0.78212094;;-0.78428116;;-0.79130509;;-0.80375526;;-0.82278832;;-0.84949311;;-0.8845487;;-0.92891857;;-0.98447947;;-1.0517208;;-1.1300117;;-1.2179918;;-1.311351;;-1.4011529;;-1.4769276;;-1.5359183;;-1.5793755;;-1.6091777;;-1.6308768;;-1.6533215;;-1.683229;;-1.7198855;;-1.7573011;;-1.7912729;;-1.8222473;;-1.8521212;;-1.8810509;;-1.9077423;;-1.9314274;;-1.9526217;;-1.9724618;;-1.9920533;;-2.0116662;;-2.031114;;-2.050835;;-2.0725881;;-2.0979822;;-2.1259009;;-2.1523439;;-2.1736555;;-2.1893203;;-2.2010819;;-2.210616;;-2.2182905;;-2.2239657;;-2.2282436;;-2.2328364;;-2.2407387;;-2.2552296;;-2.2778933;;-2.2778934
-0.5427014;;-0.82801158;;-0.8270548;;-0.82620251;;-0.82638702;;-0.82642567;;-0.82333147;;-0.81698996;;-0.80951191;;-0.80263501;;-0.7964429;;-0.79105118;;-0.78691934;;-0.78445895;;-0.78372746;;-0.78535576;;-0.79191893;;-0.80579223;;-0.8274667;;-0.85698769;;-0.8949334;;-0.94248402;;-1.0009872;;-1.0706535;;-1.1510611;;-1.2401344;;-1.332539;;-1.4180808;;-1.4871487;;-1.5393971;;-1.5781134;;-1.6054392;;-1.6263529;;-1.6488469;;-1.6791118;;-1.7156876;;-1.7521025;;-1.7843146;;-1.8135798;;-1.8426441;;-1.87181;;-1.8991657;;-1.9227193;;-1.9423282;;-1.959835;;-1.9777063;;-1.9972102;;-2.0180068;;-2.039445;;-2.0618705;;-2.0862589;;-2.1122438;;-2.1375454;;-2.1597072;;-2.1778216;;-2.1921853;;-2.2033711;;-2.211878;;-2.2182893;;-2.2234669;;-2.2287487;;-2.2367661;;-2.2509907;;-2.273289;;-2.2732891
-0.54113616;;-0.82799178;;-0.82752562;;-0.82685855;;-0.8271471;;-0.82708976;;-0.82404359;;-0.81740699;;-0.80931213;;-0.80195968;;-0.79596863;;-0.79110719;;-0.78732113;;-0.7852306;;-0.78473955;;-0.78652367;;-0.79416493;;-0.81118401;;-0.83594033;;-0.86848234;;-0.90973214;;-0.96075497;;-1.0221087;;-1.0941176;;-1.1760213;;-1.2649206;;-1.3543132;;-1.4338897;;-1.4970443;;-1.5454425;;-1.582414;;-1.6103731;;-1.633226;;-1.6570701;;-1.6863458;;-1.7197022;;-1.7522251;;-1.7812419;;-1.8084198;;-1.8364155;;-1.8654545;;-1.8931847;;-1.9166772;;-1.9352861;;-1.9513224;;-1.9678485;;-1.9864218;;-2.0067204;;-2.027922;;-2.0500696;;-2.073984;;-2.0996729;;-2.125539;;-2.1492302;;-2.1690248;;-2.184398;;-2.1958207;;-2.2043229;;-2.2111149;;-2.2172434;;-2.2238317;;-2.2328622;;-2.2474467;;-2.2697691;;-2.2697692
-0.53973777;;-0.82786991;;-0.82809023;;-0.82704735;;-0.82701694;;-0.82665313;;-0.82381942;;-0.81748733;;-0.80941809;;-0.80175595;;-0.79578444;;-0.79118246;;-0.78779303;;-0.78601872;;-0.78583208;;-0.78836625;;-0.8001245;;-0.82089461;;-0.84919265;;-0.88556244;;-0.93102642;;-0.98590618;;-1.0508323;;-1.1255481;;-1.2083775;;-1.294862;;-1.3776796;;-1.449124;;-1.5067183;;-1.5526609;;-1.5894703;;-1.6190538;;-1.6443161;;-1.6697602;;-1.6978749;;-1.7275286;;-1.7555162;;-1.781187;;-1.8057776;;-1.8318546;;-1.8597253;;-1.8870195;;-1.9103811;;-1.9288662;;-1.9447181;;-1.9606279;;-1.9777222;;-1.9960373;;-2.0156134;;-2.037081;;-2.0612844;;-2.0880241;;-2.115404;;-2.1405315;;-2.1610168;;-2.1762665;;-2.1873215;;-2.1957282;;-2.2030067;;-2.2103074;;-2.2183436;;-2.2282743;;-2.2428393;;-2.2648813;;-2.2648814
-0.53853838;;-0.82748512;;-0.82866888;;-0.82696219;;-0.82636337;;-0.82594782;;-0.82345385;;-0.81774306;;-0.81013275;;-0.80252757;;-0.7963138;;-0.79184712;;-0.78880776;;-0.78713959;;-0.7873139;;-0.79294663;;-0.80980641;;-0.8344086;;-0.86673095;;-0.90782543;;-0.95808405;;-1.0178731;;-1.087463;;-1.1656577;;-1.2486586;;-1.3295295;;-1.4014658;;-1.4626925;;-1.5143513;;-1.5581185;;-1.5950751;;-1.6262551;;-1.6536766;;-1.6804902;;-1.7079652;;-1.7349466;;-1.7597626;;-1.782269;;-1.8039873;;-1.8272601;;-1.8527101;;-1.8784656;;-1.9013923;;-1.9203919;;-1.9370488;;-1.9531246;;-1.9691866;;-1.9857117;;-2.0038461;;-2.0249416;;-2.0497205;;-2.0774377;;-2.1056605;;-2.1312442;;-2.1517741;;-2.1668869;;-2.177952;;-2.1867589;;-2.1949114;;-2.2035022;;-2.2127407;;-2.2229405;;-2.2367125;;-2.2579012;;-2.2579013
-0.53732324;;-0.82628602;;-0.82769823;;-0.82651903;;-0.82627003;;-0.82606657;;-0.82380294;;-0.81869166;;-0.81163723;;-0.80421531;;-0.79779196;;-0.79336265;;-0.7905278;;-0.78921391;;-0.78989624;;-0.80056064;;-0.82138174;;-0.84967596;;-0.88607274;;-0.93192479;;-0.98715747;;-1.0523207;;-1.1271613;;-1.2091164;;-1.2916359;;-1.3640492;;-1.4230842;;-1.4737096;;-1.5193005;;-1.5609486;;-1.5983182;;-1.6312006;;-1.6605796;;-1.6883425;;-1.7151978;;-1.7405058;;-1.7629549;;-1.7830823;;-1.8020909;;-1.8222323;;-1.8443543;;-1.8675623;;-1.889539;;-1.9090518;;-1.9266996;;-1.9434942;;-1.9597958;;-1.9762919;;-1.9945507;;-2.0160893;;-2.0411796;;-2.0686492;;-2.0961441;;-2.1210952;;-2.1415859;;-2.1572776;;-2.1692746;;-2.179098;;-2.1880879;;-2.1973239;;-2.2069238;;-2.2167284;;-2.2294411;;-2.2498583;;-2.2498583
-0.53541839;;-0.53541839;;-0.82642356;;-0.82706151;;-0.82728733;;-0.82711824;;-0.82489562;;-0.82021762;;-0.81368513;;-0.80652324;;-0.80010802;;-0.79550359;;-0.79297662;;-0.7920588;;-0.79378412;;-0.80840847;;-0.83210599;;-0.86328156;;-0.90302883;;-0.9526233;;-1.0119788;;-1.0816321;;-1.1608824;;-1.2457875;;-1.3271844;;-1.3916032;;-1.4405102;;-1.4830358;;-1.5238647;;-1.5639163;;-1.6019589;;-1.6366049;;-1.6674515;;-1.6952766;;-1.7208424;;-1.7440686;;-1.7646934;;-1.7830684;;-1.8001013;;-1.8171883;;-1.8356076;;-1.8556805;;-1.8761465;;-1.8956419;;-1.9139448;;-1.9317896;;-1.9496864;;-1.9683062;;-1.9886284;;-2.0114043;;-2.036305;;-2.062291;;-2.0879327;;-2.1117335;;-2.1324506;;-2.1495239;;-2.1632107;;-2.1741026;;-2.1830853;;-2.1914093;;-2.2000188;;-2.2090805;;-2.2212001;;-2.2413498;;-2.2413499
-0.53245036;;-0.53245036;;-0.82540946;;-0.82754208;;-0.82846731;;-0.82822793;;-0.82615871;;-0.82184723;;-0.81590949;;-0.80919277;;-0.80310953;;-0.79840472;;-0.79594639;;-0.79505839;;-0.79768447;;-0.81383543;;-0.838918;;-0.87168185;;-0.91316361;;-0.96458282;;-1.0260274;;-1.0979551;;-1.1793098;;-1.2654509;;-1.3459163;;-1.407007;;-1.4522672;;-1.4914992;;-1.530083;;-1.5693698;;-1.6079159;;-1.6436761;;-1.6750565;;-1.7020332;;-1.7254088;;-1.7462481;;-1.7649609;;-1.7819195;;-1.7970727;;-1.8111838;;-1.825924;;-1.8428619;;-1.8615505;;-1.8805504;;-1.8993314;;-1.918652;;-1.9393348;;-1.9616167;;-1.9851876;;-2.0095344;;-2.0340183;;-2.0581844;;-2.0819007;;-2.1047008;;-2.1258682;;-2.1445396;;-2.159923;;-2.1713892;;-2.1792346;;-2.1853376;;-2.192029;;-2.2002625;;-2.2122546;;-2.2325145;;-2.2325146
-0.5290702;;-0.5290702;;-0.82383217;;-0.82712974;;-0.82893094;;-0.82848234;;-0.82695699;;-0.82354908;;-0.81820491;;-0.81212996;;-0.8064545;;-0.80185137;;-0.79913055;;-0.79757131;;-0.79956088;;-0.81559226;;-0.84059581;;-0.87334077;;-0.91470931;;-0.96577152;;-1.0268642;;-1.0983185;;-1.1789823;;-1.2644564;;-1.3449915;;-1.4086333;;-1.456951;;-1.4978355;;-1.5368792;;-1.576153;;-1.614696;;-1.650425;;-1.6813667;;-1.7070101;;-1.7284081;;-1.7469918;;-1.763675;;-1.778169;;-1.7900911;;-1.8003682;;-1.8116919;;-1.8263354;;-1.8438506;;-1.8626448;;-1.8824971;;-1.9043677;;-1.9288804;;-1.955358;;-1.9822759;;-2.008175;;-2.0325041;;-2.0555495;;-2.0780524;;-2.1002583;;-2.1216687;;-2.1412603;;-2.1575093;;-2.1690282;;-2.1757593;;-2.1799612;;-2.1848639;;-2.1919622;;-2.2034395;;-2.2236671;;-2.2236671
-0.52646263;;-0.52646263;;-0.82240855;;-0.82633545;;-0.82832902;;-0.82860069;;-0.82783153;;-0.82531683;;-0.82064172;;-0.81510603;;-0.80990745;;-0.80544626;;-0.80188936;;-0.79915528;;-0.79969615;;-0.81473087;;-0.83850544;;-0.87005045;;-0.90999725;;-0.95921342;;-1.0181004;;-1.0869675;;-1.1648629;;-1.2481355;;-1.3289729;;-1.3978397;;-1.4530766;;-1.499096;;-1.5407519;;-1.5807456;;-1.6189762;;-1.6538934;;-1.6839307;;-1.7087369;;-1.7291193;;-1.7461897;;-1.7600596;;-1.7698415;;-1.7755491;;-1.7802234;;-1.7886817;;-1.8029834;;-1.8211665;;-1.8411858;;-1.8634915;;-1.8892501;;-1.9181943;;-1.9485789;;-1.9782272;;-2.0055918;;-2.0304177;;-2.0534207;;-2.0755393;;-2.0972271;;-2.1181381;;-2.1373079;;-2.1534289;;-2.1651474;;-2.1721108;;-2.1760312;;-2.179912;;-2.1855002;;-2.1954527;;-2.2149748;;-2.2149748
-0.52522856;;-0.52522856;;-0.52932957;;-0.82622054;;-0.82830119;;-0.82922867;;-0.82884844;;-0.82683585;;-0.82271328;;-0.81771876;;-0.81295297;;-0.80856167;;-0.8045728;;-0.80077437;;-0.79977126;;-0.81305468;;-0.83504124;;-0.8648138;;-0.90270593;;-0.94943558;;-1.0051452;;-1.070316;;-1.1442705;;-1.2242104;;-1.3042998;;-1.3773244;;-1.4395738;;-1.491954;;-1.537592;;-1.5791844;;-1.6175131;;-1.6520304;;-1.6820762;;-1.7074024;;-1.7281858;;-1.7443789;;-1.7548345;;-1.7577789;;-1.7545559;;-1.7521727;;-1.7585155;;-1.7746537;;-1.7957627;;-1.8186184;;-1.8443274;;-1.8742968;;-1.9073239;;-1.940763;;-1.972461;;-2.0013843;;-2.0274367;;-2.0510847;;-2.0730118;;-2.0936735;;-2.1129243;;-2.1304188;;-2.1457823;;-2.1583408;;-2.1670856;;-2.1723741;;-2.1760538;;-2.1800271;;-2.1878725;;-2.2062964;;-2.2062964
-0.52469135;;-0.52469135;;-0.52909019;;-0.82688886;;-0.82879992;;-0.82954342;;-0.82956865;;-0.82749797;;-0.82371197;;-0.81922773;;-0.81499589;;-0.81123183;;-0.80755819;;-0.803746;;-0.80192493;;-0.81223505;;-0.83204686;;-0.85952963;;-0.89493481;;-0.93885604;;-0.99105911;;-1.0520187;;-1.1213484;;-1.1970178;;-1.2746879;;-1.3490334;;-1.4158717;;-1.4737765;;-1.5237926;;-1.5679246;;-1.6075469;;-1.6432826;;-1.6752346;;-1.7030053;;-1.7257989;;-1.7423896;;-1.7502901;;-1.7471012;;-1.7358081;;-1.7273445;;-1.732368;;-1.7508278;;-1.7749845;;-1.8002685;;-1.828277;;-1.8609045;;-1.8965321;;-1.932061;;-1.9656365;;-1.9965852;;-2.0244033;;-2.0488762;;-2.0702594;;-2.0889619;;-2.1052001;;-2.1198842;;-2.1342419;;-2.1481414;;-2.1596068;;-2.1669644;;-2.1709957;;-2.1739656;;-2.1802767;;-2.1978153;;-2.1978153
-0.5237369;;-0.5237369;;-0.52835679;;-0.82686108;;-0.82880768;;-0.82932641;;-0.82938416;;-0.82689402;;-0.82322134;;-0.81954979;;-0.81627044;;-0.81370308;;-0.81116715;;-0.80860584;;-0.80762501;;-0.81397788;;-0.83068428;;-0.85518182;;-0.88743712;;-0.92793331;;-0.97633985;;-1.0326548;;-1.0968858;;-1.1676189;;-1.2416299;;-1.3148674;;-1.383473;;-1.4449927;;-1.4988965;;-1.5461343;;-1.5882641;;-1.6267818;;-1.6623529;;-1.6943046;;-1.7210257;;-1.7402112;;-1.7485839;;-1.7438245;;-1.7300766;;-1.7198145;;-1.7242211;;-1.7425479;;-1.7662182;;-1.7906004;;-1.817823;;-1.8502661;;-1.8865591;;-1.9235871;;-1.9593648;;-1.9928649;;-2.0228576;;-2.0482338;;-2.0687167;;-2.0845552;;-2.096726;;-2.1078843;;-2.1210866;;-2.136324;;-2.1501669;;-2.1593458;;-2.1641046;;-2.1670568;;-2.1728451;;-2.1899617;;-2.1899617
-0.52219612;;-0.52219612;;-0.52690012;;-0.82591413;;-0.8281165;;-0.82896418;;-0.82811464;;-0.8254232;;-0.82206065;;-0.81941756;;-0.81745923;;-0.8161458;;-0.81522965;;-0.81468734;;-0.81558526;;-0.82051233;;-0.83303857;;-0.85336192;;-0.8813723;;-0.91730492;;-0.96120073;;-1.0126512;;-1.0716941;;-1.1375614;;-1.2078233;;-1.2790898;;-1.3479467;;-1.4115897;;-1.4685418;;-1.518799;;-1.5637458;;-1.6053177;;-1.6446253;;-1.6811132;;-1.7128227;;-1.7366736;;-1.7490886;;-1.7484824;;-1.7394016;;-1.7327028;;-1.7371653;;-1.751848;;-1.7703279;;-1.7899063;;-1.813351;;-1.8433551;;-1.879012;;-1.9172466;;-1.9554139;;-1.9915096;;-2.0234941;;-2.0495484;;-2.0688291;;-2.0816138;;-2.0899228;;-2.0981569;;-2.1101988;;-2.1256299;;-2.1401224;;-2.1500823;;-2.1556372;;-2.1594147;;-2.1655671;;-2.1827373;;-2.1827372
-0.52063946;;-0.52063946;;-0.52529859;;-0.82507518;;-0.82764753;;-0.82827144;;-0.82692951;;-0.82424842;;-0.82150037;;-0.81973845;;-0.81884864;;-0.81863201;;-0.81919162;;-0.82055709;;-0.82341519;;-0.82905887;;-0.83943779;;-0.85551246;;-0.87854066;;-0.90913429;;-0.94742546;;-0.99401168;;-1.0486923;;-1.1108831;;-1.1787918;;-1.2492551;;-1.3187784;;-1.3842923;;-1.4436956;;-1.4963151;;-1.5432025;;-1.5864466;;-1.6277221;;-1.6671799;;-1.7030579;;-1.7318665;;-1.7500127;;-1.7567266;;-1.7561642;;-1.7557529;;-1.7606294;;-1.7702141;;-1.7817278;;-1.7952943;;-1.8142518;;-1.841323;;-1.8758914;;-1.9148138;;-1.9545457;;-1.9920922;;-2.0247447;;-2.0504225;;-2.0681167;;-2.0787243;;-2.0852514;;-2.0923712;;-2.1033046;;-2.1170105;;-2.1298305;;-2.1390953;;-2.1452761;;-2.1504832;;-2.1577374;;-2.1755642;;-2.1755641
-0.51959438;;-0.51959438;;-0.52419619;;-0.82508469;;-0.82799272;;-0.82855256;;-0.82709255;;-0.824485;;-0.82220293;;-0.82091725;;-0.82057568;;-0.82105153;;-0.82231665;;-0.82501117;;-0.82933766;;-0.83598909;;-0.84608736;;-0.85977961;;-0.87828332;;-0.90363118;;-0.93709786;;-0.97945851;;-1.0314115;;-1.0922368;;-1.1604032;;-1.2326155;;-1.3047192;;-1.3728309;;-1.4342108;;-1.4879474;;-1.5351177;;-1.577938;;-1.6186516;;-1.6583756;;-1.6959821;;-1.728032;;-1.7511045;;-1.7647307;;-1.7719766;;-1.7770621;;-1.7824534;;-1.7883848;;-1.7950848;;-1.8046385;;-1.8205393;;-1.8453292;;-1.8784453;;-1.9166931;;-1.9559808;;-1.9927116;;-2.0239632;;-2.0477601;;-2.0638579;;-2.0738094;;-2.0808006;;-2.0883866;;-2.0982812;;-2.1091165;;-2.1186715;;-2.1262372;;-2.1328938;;-2.1399016;;-2.1490126;;-2.1682692;;-2.1682691
-0.51921824;;-0.51921824;;-0.52382292;;-0.82594024;;-0.82858341;;-0.82996045;;-0.82866047;;-0.82613843;;-0.82391217;;-0.82253686;;-0.82217735;;-0.82276566;;-0.82439996;;-0.82762514;;-0.83282153;;-0.8404035;;-0.85057608;;-0.86306501;;-0.87840934;;-0.89979542;;-0.93011583;;-0.97041716;;-1.0216021;;-1.0837121;;-1.1546981;;-1.2310785;;-1.3078239;;-1.3794086;;-1.4420994;;-1.4953145;;-1.5408723;;-1.5814507;;-1.6198091;;-1.6577474;;-1.6947056;;-1.7276788;;-1.7536748;;-1.7720927;;-1.7844989;;-1.7929387;;-1.7990278;;-1.8040509;;-1.8096409;;-1.8182853;;-1.8330169;;-1.8559823;;-1.8867417;;-1.9222761;;-1.9585559;;-1.9920692;;-2.0201514;;-2.0415584;;-2.0565063;;-2.066801;;-2.0749645;;-2.0832883;;-2.092025;;-2.0999212;;-2.1064746;;-2.1126516;;-2.1198708;;-2.1286913;;-2.1399025;;-2.1608923;;-2.1608921
-0.51917379;;-0.51917379;;-0.52381222;;-0.53028006;;-0.82917029;;-0.83163165;;-0.83069721;;-0.82816368;;-0.82582198;;-0.82408635;;-0.82325709;;-0.82358839;;-0.82530348;;-0.82875536;;-0.83448089;;-0.84252027;;-0.8526726;;-0.86416751;;-0.87744631;;-0.89648932;;-0.92564148;;-0.96586611;;-1.0181606;;-1.0828826;;-1.1576757;;-1.2390534;;-1.3213008;;-1.3970791;;-1.4610349;;-1.5128117;;-1.5554063;;-1.5925771;;-1.6276961;;-1.6628904;;-1.6978866;;-1.730339;;-1.7579791;;-1.7796762;;-1.7953576;;-1.8059346;;-1.8133777;;-1.8199211;;-1.8273623;;-1.8373839;;-1.851996;;-1.8730622;;-1.9002376;;-1.9311415;;-1.9623572;;-1.9911141;;-2.0155718;;-2.0347485;;-2.0489574;;-2.0595006;;-2.0681925;;-2.0760999;;-2.083222;;-2.0890564;;-2.0940414;;-2.0998823;;-2.1078722;;-2.118094;;-2.1309163;;-2.1534546;;-2.1534544
-0.51879761;;-0.51879761;;-0.52341062;;-0.5298594;;-0.82938461;;-0.83233465;;-0.83213954;;-0.82954259;;-0.82701857;;-0.82497442;;-0.82366611;;-0.82376144;;-0.82550271;;-0.82917657;;-0.83493666;;-0.84303281;;-0.85284785;;-0.86342998;;-0.87495306;;-0.89319143;;-0.92248261;;-0.96341709;;-1.0172806;;-1.0844709;;-1.1627041;;-1.24857;;-1.3361173;;-1.4166098;;-1.4826596;;-1.533497;;-1.5731181;;-1.6064805;;-1.6379319;;-1.6698061;;-1.7023093;;-1.7340797;;-1.7631943;;-1.7875568;;-1.8057537;;-1.8183807;;-1.8281329;;-1.8378296;;-1.8487321;;-1.8611872;;-1.8760954;;-1.8948828;;-1.9176951;;-1.942963;;-1.9684846;;-1.9922337;;-2.0130342;;-2.0301665;;-2.0435435;;-2.0536653;;-2.0613777;;-2.0675949;;-2.0728793;;-2.0774404;;-2.0821473;;-2.0884525;;-2.097148;;-2.1080576;;-2.1218907;;-2.1458991;;-2.1458989
-0.51774844;;-0.51774844;;-0.52223218;;-0.52852556;;-0.82866787;;-0.8317553;;-0.83196916;;-0.83003634;;-0.82737372;;-0.82513322;;-0.82364016;;-0.8235704;;-0.82540778;;-0.82920013;;-0.8348869;;-0.84265437;;-0.85185904;;-0.86123092;;-0.87143617;;-0.88989487;;-0.91949135;;-0.96098333;;-1.0158623;;-1.0846359;;-1.1651888;;-1.2542917;;-1.3460799;;-1.4312173;;-1.5004721;;-1.5518419;;-1.5895671;;-1.6197204;;-1.647338;;-1.6756533;;-1.7058198;;-1.737294;;-1.7679158;;-1.7945647;;-1.8151235;;-1.8303271;;-1.843286;;-1.8567979;;-1.8713969;;-1.8862646;;-1.9013134;;-1.917793;;-1.9364487;;-1.9566897;;-1.9770793;;-1.9963822;;-2.0138375;;-2.0288972;;-2.040899;;-2.0494323;;-2.0550369;;-2.0589773;;-2.0624661;;-2.0663774;;-2.0713545;;-2.0779926;;-2.0867762;;-2.0977647;;-2.1124711;;-2.1379803;;-2.1379801
-0.51638303;;-0.51638303;;-0.52068965;;-0.52676409;;-0.8276356;;-0.83066062;;-0.83119607;;-0.82989035;;-0.82742969;;-0.82512808;;-0.82378435;;-0.82381937;;-0.82570069;;-0.8293868;;-0.8348626;;-0.84175854;;-0.84982693;;-0.85795998;;-0.8676196;;-0.88651495;;-0.91609342;;-0.9575576;;-1.0127129;;-1.0819565;;-1.1634381;;-1.2541199;;-1.3484185;;-1.4371838;;-1.5101828;;-1.5638708;;-1.6019236;;-1.6305133;;-1.6554345;;-1.6808772;;-1.7090959;;-1.7401752;;-1.7716603;;-1.7999592;;-1.8229404;;-1.8413652;;-1.8579168;;-1.8748003;;-1.8919857;;-1.9081176;;-1.9228894;;-1.9376155;;-1.9535142;;-1.9702167;;-1.9867351;;-2.0025428;;-2.017321;;-2.0302417;;-2.0401678;;-2.0464371;;-2.0496016;;-2.0515436;;-2.0538991;;-2.0574809;;-2.0622601;;-2.0683509;;-2.0764717;;-2.0873404;;-2.1029066;;-2.130087;;-2.1300868
-0.51525069;;-0.51525069;;-0.5194093;;-0.52529882;;-0.82667898;;-0.83011628;;-0.83073592;;-0.82977929;;-0.82778655;;-0.82565873;;-0.82471375;;-0.82519839;;-0.82695684;;-0.83049607;;-0.83513417;;-0.8407879;;-0.84720904;;-0.85407812;;-0.86373417;;-0.88296994;;-0.91203204;;-0.95293569;;-1.0076358;;-1.0761908;;-1.1569934;;-1.2472709;;-1.341761;;-1.432188;;-1.5088256;;-1.5668763;;-1.6083146;;-1.6384161;;-1.6630163;;-1.6870606;;-1.7138553;;-1.7440105;;-1.7752085;;-1.8043522;;-1.8298232;;-1.8518412;;-1.87176;;-1.8906925;;-1.9084716;;-1.9243021;;-1.9385161;;-1.952545;;-1.9671791;;-1.9818744;;-1.9957887;;-2.0090951;;-2.0217265;;-2.0325472;;-2.0403016;;-2.0444338;;-2.0460511;;-2.0470339;;-2.0489836;;-2.0518734;;-2.0555112;;-2.0601939;;-2.0672589;;-2.0777666;;-2.0942714;;-2.1234033;;-2.1234031
-0.51437074;;-0.51437074;;-0.51840258;;-0.52413003;;-0.82601685;;-0.82978269;;-0.83068659;;-0.83007312;;-0.82833973;;-0.82699822;;-0.82662225;;-0.82757254;;-0.82937287;;-0.83210734;;-0.83560104;;-0.83988307;;-0.84480808;;-0.85031191;;-0.86011467;;-0.87909729;;-0.90735345;;-0.94735878;;-1.0010302;;-1.0678757;;-1.1465807;;-1.2343837;;-1.3265575;;-1.4164118;;-1.4961422;;-1.56043;;-1.6085161;;-1.6434538;;-1.6704029;;-1.6948523;;-1.720885;;-1.7496702;;-1.7797555;;-1.8092537;;-1.8370958;;-1.8624607;;-1.8847833;;-1.9041332;;-1.9208903;;-1.9356404;;-1.9494974;;-1.9635852;;-1.9778534;;-1.991392;;-2.0036415;;-2.0149867;;-2.0256393;;-2.0345461;;-2.0405465;;-2.0436489;;-2.0451999;;-2.0465605;;-2.0481594;;-2.0497577;;-2.0514309;;-2.054301;;-2.0600195;;-2.0702785;;-2.0878838;;-2.1189543;;-2.1189541
-0.5132529;;-0.5132529;;-0.5171071;;-0.52259784;;-0.52934577;;-0.82866989;;-0.83053742;;-0.83045102;;-0.8292907;;-0.82852177;;-0.82888847;;-0.83011013;;-0.83171467;;-0.83371811;;-0.8361125;;-0.83922016;;-0.84298397;;-0.84713676;;-0.85661742;;-0.87494255;;-0.90238774;;-0.94146627;;-0.99394635;;-1.058944;;-1.1349531;;-1.2191102;;-1.3074357;;-1.3952505;;-1.4771906;;-1.5480312;;-1.6043492;;-1.6462527;;-1.6775239;;-1.7037306;;-1.7295145;;-1.7569425;;-1.7859173;;-1.8157687;;-1.8455067;;-1.8731636;;-1.8965899;;-1.9152663;;-1.9305647;;-1.9444659;;-1.9584473;;-1.9728788;;-1.9869794;;-1.999576;;-2.010506;;-2.0203548;;-2.0292704;;-2.0364194;;-2.0411921;;-2.0441613;;-2.0465719;;-2.0488192;;-2.0502073;;-2.0502021;;-2.0495309;;-2.0503206;;-2.0549055;;-2.065311;;-2.0841618;;-2.1168412;;-2.1168409
-0.51168833;;-0.51168833;;-0.51528795;;-0.52043531;;-0.52680752;;-0.82661617;;-0.82935315;;-0.83038576;;-0.83025539;;-0.82990738;;-0.83027221;;-0.83134115;;-0.83275017;;-0.83448445;;-0.83629584;;-0.83887381;;-0.84161228;;-0.844378;;-0.85307901;;-0.87058477;;-0.89737788;;-0.93601812;;-0.98790741;;-1.0518946;;-1.1261957;;-1.2076534;;-1.2928274;;-1.3786077;;-1.4615572;;-1.5370035;;-1.6001367;;-1.6486591;;-1.6846027;;-1.7129434;;-1.7387644;;-1.7653256;;-1.7937758;;-1.8240107;;-1.8545807;;-1.8829797;;-1.9065188;;-1.9245931;;-1.9392103;;-1.9530141;;-1.9674045;;-1.9819934;;-1.9956879;;-2.0075249;;-2.0176057;;-2.0265398;;-2.034186;;-2.039758;;-2.0430908;;-2.0453366;;-2.0479962;;-2.0509481;;-2.0523347;;-2.0509799;;-2.0483828;;-2.0477632;;-2.0519191;;-2.0627059;;-2.0828153;;-2.1167834;;-2.1167831
-0.51000488;;-0.51000488;;-0.51332742;;-0.51809753;;-0.52404603;;-0.82393502;;-0.82681447;;-0.82952482;;-0.83021069;;-0.82994127;;-0.82981705;;-0.83045321;;-0.83177748;;-0.83371301;;-0.83588542;;-0.83815085;;-0.84005131;;-0.84154024;;-0.84964227;;-0.86640845;;-0.89301687;;-0.93201768;;-0.9843633;;-1.0488691;;-1.1236411;;-1.2053098;;-1.2901901;;-1.3752631;;-1.4579304;;-1.5345869;;-1.6006792;;-1.6530608;;-1.6922581;;-1.7222685;;-1.7484876;;-1.7750056;;-1.8035206;;-1.8337182;;-1.8637406;;-1.8914424;;-1.9148205;;-1.9332875;;-1.9485206;;-1.9629129;;-1.9774225;;-1.9916573;;-2.0048113;;-2.016433;;-2.0264889;;-2.0353318;;-2.0424085;;-2.0464285;;-2.0472391;;-2.0468787;;-2.0479909;;-2.0506448;;-2.0518951;;-2.0500267;;-2.0469213;;-2.0462649;;-2.0505827;;-2.0618454;;-2.0829346;;-2.1177248;;-2.1177245
-0.50861457;;-0.50861457;;-0.51169767;;-0.5161351;;-0.52169246;;-0.82179879;;-0.82472015;;-0.82773947;;-0.82923275;;-0.82856477;;-0.82765331;;-0.82774038;;-0.82914371;;-0.83174474;;-0.83441732;;-0.83675734;;-0.83793721;;-0.83853082;;-0.84658994;;-0.86334279;;-0.8905094;;-0.93070249;;-0.98467848;;-1.0511931;;-1.1285816;;-1.2132545;;-1.3008417;;-1.3867647;;-1.4680443;;-1.5425799;;-1.6075292;;-1.6602543;;-1.7006119;;-1.7319615;;-1.7593889;;-1.7868147;;-1.8156491;;-1.8451259;;-1.8734508;;-1.8996695;;-1.9229428;;-1.9426741;;-1.959438;;-1.9746001;;-1.9889548;;-2.0025853;;-2.0154349;;-2.0274322;;-2.0385797;;-2.0482915;;-2.055345;;-2.0578583;;-2.055408;;-2.0507881;;-2.0484191;;-2.0490382;;-2.0495668;;-2.0477266;;-2.04521;;-2.045198;;-2.049813;;-2.0610235;;-2.0823836;;-2.1175822;;-2.117582
-0.50763837;;-0.50763837;;-0.51053069;;-0.51469457;;-0.51991054;;-0.82053111;;-0.82352567;;-0.82598469;;-0.8271672;;-0.82609689;;-0.82455014;;-0.82437037;;-0.82618225;;-0.82912045;;-0.83227541;;-0.83474652;;-0.83533965;;-0.83577161;;-0.84446324;;-0.86190082;;-0.89024526;;-0.93232568;;-0.98862866;;-1.0582056;;-1.1392691;;-1.2281196;;-1.3197243;;-1.4070852;;-1.4860266;;-1.5563405;;-1.6176161;;-1.6683858;;-1.708877;;-1.7419992;;-1.7717066;;-1.8008545;;-1.8300786;;-1.8582221;;-1.8845427;;-1.9093661;;-1.9326472;;-1.9536618;;-1.9718467;;-1.9877351;;-2.002111;;-2.0156136;;-2.0286845;;-2.0416315;;-2.0542736;;-2.0653109;;-2.0726254;;-2.0739751;;-2.0686822;;-2.0600543;;-2.0533121;;-2.0505812;;-2.0491873;;-2.0466961;;-2.0441412;;-2.044046;;-2.0480602;;-2.0583433;;-2.079407;;-2.114967;;-2.1149668
-0.5068571;;-0.5068571;;-0.50957657;;-0.51348841;;-0.51838055;;-0.81953625;;-0.82274816;;-0.82411651;;-0.82429936;;-0.82304942;;-0.82159652;;-0.82181747;;-0.82370233;;-0.82678232;;-0.83005601;;-0.83242617;;-0.83247163;;-0.83375036;;-0.84300395;;-0.86116105;;-0.89085829;;-0.93476755;;-0.99349563;;-1.0660933;;-1.1505747;;-1.2431615;;-1.3383219;;-1.4265602;;-1.5023949;;-1.568119;;-1.6255149;;-1.6744334;;-1.7156802;;-1.7514522;;-1.7842081;;-1.8152518;;-1.8447075;;-1.871783;;-1.8968306;;-1.921017;;-1.9444946;;-1.9662328;;-1.9853732;;-2.0020136;;-2.0169787;;-2.0310945;;-2.0450857;;-2.0591488;;-2.0727343;;-2.0842738;;-2.0913672;;-2.0917857;;-2.0850176;;-2.0740325;;-2.0640334;;-2.0576217;;-2.0531093;;-2.048335;;-2.0441247;;-2.0424359;;-2.0449122;;-2.053999;;-2.0747866;;-2.1108047;;-2.1108045
-0.50598323;;-0.50598323;;-0.50850858;;-0.51214217;;-0.51668657;;-0.52190849;;-0.8213352;;-0.82210873;;-0.82168428;;-0.8203155;;-0.81980266;;-0.82029658;;-0.82229225;;-0.82525683;;-0.82821919;;-0.83011277;;-0.82966818;;-0.83164125;;-0.84082119;;-0.85918128;;-0.88953674;;-0.93474445;;-0.99502322;;-1.0694313;;-1.1559083;;-1.2507352;;-1.3480309;;-1.4362926;;-1.5092403;;-1.571696;;-1.6271832;;-1.6764334;;-1.7200688;;-1.7592115;;-1.7948783;;-1.8275473;;-1.8571199;;-1.8838956;;-1.908978;;-1.9334644;;-1.9573108;;-1.9795682;;-1.9995129;;-2.0171882;;-2.0332049;;-2.0485238;;-2.063715;;-2.0784597;;-2.0916029;;-2.101813;;-2.1074119;;-2.1064687;;-2.0987849;;-2.0870554;;-2.075721;;-2.0668389;;-2.0591721;;-2.0513833;;-2.0444428;;-2.0404115;;-2.0412245;;-2.0496565;;-2.0709804;;-2.1076202;;-2.10762
-0.50500119;;-0.50500119;;-0.50730251;;-0.5106273;;-0.51480581;;-0.51965729;;-0.8196623;;-0.8203218;;-0.82029663;;-0.81962637;;-0.81936007;;-0.82026846;;-0.82205833;;-0.82453516;;-0.82696845;;-0.82821581;;-0.82707334;;-0.82855678;;-0.83694112;;-0.85450485;;-0.88466346;;-0.92989387;;-0.99023579;;-1.06458;;-1.151016;;-1.2461861;;-1.3440696;;-1.4323873;;-1.5040862;;-1.5658779;;-1.6224707;;-1.674808;;-1.72252;;-1.7654048;;-1.8035355;;-1.8371292;;-1.8670006;;-1.8942896;;-1.9202065;;-1.9453857;;-1.9697016;;-1.9925977;;-2.013661;;-2.0327661;;-2.0502215;;-2.0667506;;-2.0826947;;-2.0971215;;-2.1086652;;-2.1160927;;-2.1185282;;-2.1147048;;-2.1047685;;-2.092244;;-2.0812663;;-2.0725233;;-2.0638054;;-2.0540566;;-2.0447116;;-2.0385191;;-2.0381831;;-2.046891;;-2.0693528;;-2.1067222;;-2.1067221
-0.50417907;;-0.50417907;;-0.50623594;;-0.50926048;;-0.51311291;;-0.51768676;;-0.81814916;;-0.81955968;;-0.82054986;;-0.82070769;;-0.82065524;;-0.82127566;;-0.82274627;;-0.82462637;;-0.82637281;;-0.82689644;;-0.82476506;;-0.82457753;;-0.83128235;;-0.8475201;;-0.87643443;;-0.92033697;;-0.97930485;;-1.0519261;;-1.1366531;;-1.2305303;;-1.3280862;;-1.4175282;;-1.4906977;;-1.5544656;;-1.6146065;;-1.6718737;;-1.7247062;;-1.7715565;;-1.8118444;;-1.8463315;;-1.8766742;;-1.9046642;;-1.9313635;;-1.9570574;;-1.9816352;;-2.0051061;;-2.0273038;;-2.0479558;;-2.0668878;;-2.0843574;;-2.1003223;;-2.1138536;;-2.1234855;;-2.1280485;;-2.1262978;;-2.1171697;;-2.1022576;;-2.0874484;;-2.0779531;;-2.0726854;;-2.0664176;;-2.0566874;;-2.0458206;;-2.0378918;;-2.0368136;;-2.0460768;;-2.0697456;;-2.1076107;;-2.1076106
-0.50375199;;-0.50375199;;-0.50556343;;-0.50836075;;-0.51199358;;-0.51640791;;-0.81754412;;-0.81983492;;-0.821489;;-0.8224115;;-0.82240489;;-0.82252084;;-0.82346435;;-0.82495016;;-0.82620694;;-0.82611471;;-0.82309145;;-0.82021321;;-0.82478669;;-0.83906678;;-0.86592617;;-0.90747529;;-0.96398936;;-1.033971;;-1.115879;;-1.2074674;;-1.3042837;;-1.3963379;;-1.4740171;;-1.5421922;;-1.6072058;;-1.6699077;;-1.7280382;;-1.778971;;-1.8217427;;-1.8573824;;-1.8884488;;-1.9170403;;-1.9442237;;-1.9700973;;-1.9945664;;-2.0179325;;-2.0405461;;-2.0620891;;-2.0820214;;-2.1000242;;-2.1159216;;-2.1288903;;-2.1374728;;-2.1400556;;-2.1342928;;-2.1185785;;-2.0967074;;-2.0783497;;-2.0709033;;-2.0710174;;-2.0692796;;-2.0609123;;-2.0490214;;-2.0396181;;-2.0376888;;-2.0473404;;-2.0719699;;-2.1102808;;-2.1102807
-0.50360677;;-0.50360677;;-0.50525804;;-0.50793987;;-0.51146563;;-0.51578786;;-0.8176884;;-0.82081889;;-0.82240544;;-0.8233505;;-0.82312882;;-0.82303255;;-0.8237823;;-0.82521958;;-0.82635524;;-0.82588974;;-0.82222094;;-0.81668178;;-0.8183574;;-0.82997953;;-0.85410526;;-0.89250273;;-0.9459053;;-1.0125651;;-1.0910785;;-1.1797586;;-1.2755384;;-1.3709047;;-1.455862;;-1.5308023;;-1.6015585;;-1.6696288;;-1.7328311;;-1.7880104;;-1.8336037;;-1.8709503;;-1.9030991;;-1.9325959;;-1.9604526;;-1.9864674;;-2.0103328;;-2.0326571;;-2.0543152;;-2.0754036;;-2.0952259;;-2.113411;;-2.1296392;;-2.1429696;;-2.1517721;;-2.153765;;-2.1456224;;-2.1252132;;-2.0977981;;-2.0763918;;-2.0700624;;-2.0738209;;-2.0751073;;-2.0674843;;-2.0545482;;-2.0437336;;-2.0410616;;-2.0509799;;-2.0765452;;-2.1156284;;-2.1156283
-0.50352931;;-0.50352931;;-0.50502831;;-0.50760475;;-0.51102633;;-0.51523356;;-0.5200162;;-0.82150889;;-0.82316612;;-0.82337272;;-0.82297063;;-0.82306511;;-0.82425866;;-0.8258978;;-0.82698124;;-0.82614407;;-0.82242229;;-0.81541483;;-0.81286494;;-0.82113896;;-0.84182142;;-0.87680688;;-0.92640261;;-0.9892793;;-1.0639504;;-1.1493141;;-1.2434342;;-1.3415011;;-1.4349022;;-1.5187957;;-1.5963415;;-1.6699415;;-1.7382223;;-1.7979534;;-1.8470594;;-1.8868268;;-1.9208711;;-1.9520901;;-1.9811609;;-2.0072765;;-2.0300094;;-2.0503307;;-2.0697717;;-2.0888824;;-2.107434;;-2.1252843;;-2.1420557;;-2.1564007;;-2.1662753;;-2.1690994;;-2.1614186;;-2.1411073;;-2.1131676;;-2.0906319;;-2.0830203;;-2.0852913;;-2.0850584;;-2.075983;;-2.061617;;-2.0496902;;-2.0466962;;-2.0571727;;-2.0837812;;-2.1235752;;-2.1235751
-0.50344391;;-0.50344391;;-0.50451432;;-0.50681906;;-0.50997694;;-0.51390596;;-0.51843484;;-0.82073757;;-0.82320054;;-0.82311159;;-0.82244621;;-0.82337742;;-0.82522106;;-0.82706973;;-0.82773547;;-0.82694462;;-0.82369628;;-0.81684817;;-0.80993495;;-0.81390823;;-0.83076588;;-0.86194262;;-0.90755268;;-0.96650113;;-1.0373024;;-1.1191038;;-1.2109447;;-1.3099908;;-1.4101621;;-1.5035707;;-1.5887531;;-1.6683141;;-1.7422281;;-1.8075125;;-1.8615258;;-1.9051394;;-1.942215;;-1.9758081;;-2.0060957;;-2.031827;;-2.052763;;-2.0704558;;-2.0869187;;-2.10321;;-2.1196414;;-2.1366057;;-2.1537189;;-2.1691971;;-2.1804612;;-2.185113;;-2.1804318;;-2.1646746;;-2.1413126;;-2.1199747;;-2.1086891;;-2.1046143;;-2.0985072;;-2.0857905;;-2.0696869;;-2.0569674;;-2.0540676;;-2.0652146;;-2.0928664;;-2.1331804;;-2.1331803
-0.50340843;;-0.50340843;;-0.5037897;;-0.50556446;;-0.50824743;;-0.51169984;;-0.51582764;;-0.81850325;;-0.8220801;;-0.82284975;;-0.82252873;;-0.82359855;;-0.82583303;;-0.82698602;;-0.82695519;;-0.82646071;;-0.82496824;;-0.81988925;;-0.81140425;;-0.8102857;;-0.82279906;;-0.84992432;;-0.89172061;;-0.94694927;;-1.0142879;;-1.0926761;;-1.1816806;;-1.2798263;;-1.3831997;;-1.4840039;;-1.5766246;;-1.6624099;;-1.742701;;-1.8151036;;-1.8761926;;-1.9256187;;-1.9665811;;-2.0021129;;-2.0325371;;-2.0569351;;-2.0757033;;-2.0907717;;-2.1043508;;-2.1178064;;-2.1319833;;-2.1477523;;-2.1648773;;-2.1812054;;-2.1938273;;-2.200545;;-2.1996802;;-2.1899056;;-2.1728127;;-2.1540075;;-2.1387955;;-2.1268466;;-2.1135086;;-2.0964554;;-2.0786282;;-2.0656818;;-2.0629291;;-2.0743278;;-2.1023979;;-2.1429604;;-2.1429603
-0.50339824;;-0.50339824;;-0.50347993;;-0.50432663;;-0.50640146;;-0.50930892;;-0.51294457;;-0.51715472;;-0.81990438;;-0.82260162;;-0.82330067;;-0.82386128;;-0.82471126;;-0.82482553;;-0.82393906;;-0.82421518;;-0.82528837;;-0.82355224;;-0.81653432;;-0.81132744;;-0.8193136;;-0.84218473;;-0.88041015;;-0.93241649;;-0.99704041;;-1.072412;;-1.1585042;;-1.2545168;;-1.3581063;;-1.4630253;;-1.5617893;;-1.653474;;-1.7402587;;-1.8206675;;-1.8903137;;-1.9466416;;-1.9911885;;-2.027115;;-2.0560659;;-2.0785655;;-2.0956348;;-2.1090425;;-2.1205816;;-2.1318674;;-2.1442748;;-2.1589897;;-2.1757255;;-2.1922109;;-2.2055454;;-2.2137707;;-2.2156938;;-2.2103596;;-2.1981008;;-2.1815596;;-2.1640361;;-2.1464728;;-2.1276797;;-2.1072957;;-2.0883517;;-2.0755484;;-2.0727847;;-2.0838522;;-2.1117336;;-2.1520696;;-2.1520695
-0.50339362;;-0.50339362;;-0.50341905;;-0.50361759;;-0.50490115;;-0.50726024;;-0.51041742;;-0.51428885;;-0.51868018;;-0.82168517;;-0.82430704;;-0.82438654;;-0.82296616;;-0.82126331;;-0.82104708;;-0.82270497;;-0.82643896;;-0.82831869;;-0.82339052;;-0.81672043;;-0.82051112;;-0.83932862;;-0.8743013;;-0.92376046;;-0.98643251;;-1.0599825;;-1.1439153;;-1.2380321;;-1.3409192;;-1.4479961;;-1.5514704;;-1.6479998;;-1.7398715;;-1.8267831;;-1.9036546;;-1.9654471;;-2.0119217;;-2.0466946;;-2.0734834;;-2.0946061;;-2.1113465;;-2.1245532;;-2.1352999;;-2.1453343;;-2.1567176;;-2.1705819;;-2.1863241;;-2.201804;;-2.2146711;;-2.2231917;;-2.2261761;;-2.2226695;;-2.2124001;;-2.1967957;;-2.1785261;;-2.1591254;;-2.1386298;;-2.1175284;;-2.0985966;;-2.0859585;;-2.0831623;;-2.0937998;;-2.1213141;;-2.1613469;;-2.1613468
-0.50339194;;-0.50339194;;-0.50339816;;-0.50344199;;-0.50388085;;-0.50567771;;-0.50837601;;-0.51182536;;-0.51588361;;-0.52025708;;-0.8234332;;-0.82437477;;-0.82130979;;-0.81852962;;-0.81927142;;-0.82397032;;-0.83074194;;-0.83644423;;-0.83214827;;-0.82414715;;-0.82532407;;-0.84108911;;-0.87371358;;-0.92151044;;-0.98344136;;-1.0568881;;-1.1406727;;-1.2345555;;-1.3378173;;-1.4469154;;-1.553992;;-1.6535143;;-1.7473639;;-1.8364901;;-1.915984;;-1.9795291;;-2.025942;;-2.0594114;;-2.0850162;;-2.1060484;;-2.1236887;;-2.1378973;;-2.1489806;;-2.158706;;-2.1693971;;-2.1821684;;-2.1961368;;-2.2096227;;-2.2208976;;-2.2285436;;-2.2311377;;-2.2272222;;-2.2160892;;-2.1993264;;-2.1805486;;-2.1624842;;-2.1447881;;-2.1265201;;-2.1091501;;-2.096832;;-2.0938029;;-2.1039499;;-2.1310428;;-2.1706474;;-2.1706473
-0.50339156;;-0.50339156;;-0.50339249;;-0.50340062;;-0.50347255;;-0.50437677;;-0.50647355;;-0.50935005;;-0.51286011;;-0.51671378;;-0.52042642;;-0.82157109;;-0.81954777;;-0.81766243;;-0.82065425;;-0.82788393;;-0.83792937;;-0.8469403;;-0.84195981;;-0.83281318;;-0.83247555;;-0.84633939;;-0.87762349;;-0.92522334;;-0.98775517;;-1.0630512;;-1.1491519;;-1.245343;;-1.3508682;;-1.4625925;;-1.5720803;;-1.6718599;;-1.7635439;;-1.849419;;-1.925945;;-1.9875467;;-2.0331345;;-2.066746;;-2.0931153;;-2.1152427;;-2.1342355;;-2.1498346;;-2.1619304;;-2.1718545;;-2.1817628;;-2.1927826;;-2.2044845;;-2.2156658;;-2.2250514;;-2.2312877;;-2.23265;;-2.2270148;;-2.2131437;;-2.1931711;;-2.1730572;;-2.1577885;;-2.14629;;-2.1339941;;-2.1197845;;-2.1079201;;-2.1043094;;-2.1134625;;-2.1396304;;-2.1785495;;-2.1785493
-0.50339152;;-0.50339152;;-0.50339159;;-0.50339261;;-0.5034081;;-0.50358482;;-0.50480553;;-0.5069832;;-0.50982437;;-0.51306181;;-0.51622396;;-0.5181718;;-0.81639009;;-0.81603282;;-0.8210187;;-0.52742715;;-0.53665165;;-0.54855265;;-0.84588549;;-0.84119509;;-0.84068864;;-0.85303228;;-0.88359048;;-0.93181603;;-0.99627545;;-1.0742288;;-1.1641613;;-1.2644265;;-1.3736839;;-1.4885469;;-1.5993255;;-1.6965882;;-1.782403;;-1.8607163;;-1.9305245;;-1.9886184;;-2.034282;;-2.0701484;;-2.0992612;;-2.1235961;;-2.1441775;;-2.1611185;;-2.1742413;;-2.1842705;;-2.192988;;-2.2018765;;-2.2112368;;-2.2204336;;-2.2282061;;-2.2330269;;-2.232875;;-2.2254361;;-2.2089541;;-2.1856723;;-2.1638161;;-2.151064;;-2.1457435;;-2.1398314;;-2.129383;;-2.1184276;;-2.1138054;;-2.1212254;;-2.1454135;;-2.1829346;;-2.1829344
-0.50339152;;-0.50339152;;-0.50339152;;-0.50339162;;-0.50339552;;-0.50343634;;-0.50373629;;-0.50503211;;-0.50711878;;-0.50968138;;-0.51227074;;-0.51390738;;-0.51293504;;-0.51280086;;-0.51707635;;-0.52369533;;-0.53268278;;-0.54449541;;-0.84654802;;-0.8480694;;-0.84822429;;-0.85921977;;-0.88834829;;-0.93684828;;-1.0026655;;-1.083118;;-1.1763836;;-1.2807388;;-1.3939219;;-1.5121579;;-1.6240934;;-1.7173254;;-1.7951581;;-1.8641571;;-1.9265393;;-1.9816474;;-2.0288972;;-2.06892;;-2.1025527;;-2.1303834;;-2.1532196;;-2.1715508;;-2.1853451;;-2.1949979;;-2.2021778;;-2.2088804;;-2.2161519;;-2.2236403;;-2.2299791;;-2.2333697;;-2.23203;;-2.2238759;;-2.2069478;;-2.1830718;;-2.1608802;;-2.149172;;-2.1466213;;-2.1441747;;-2.1364992;;-2.126732;;-2.1214852;;-2.1265034;;-2.1474076;;-2.1826052;;-2.1826051
-0.50339152;;-0.50339152;;-0.50339152;;-0.50339153;;-0.50339227;;-0.50340158;;-0.50346391;;-0.50380183;;-0.50500901;;-0.50684868;;-0.50883418;;-0.51010501;;-0.50933822;;-0.51010189;;-0.51430674;;-0.52066479;;-0.52933352;;-0.54082118;;-0.84640285;;-0.85256738;;-0.8532137;;-0.86223711;;-0.88920639;;-0.93570346;;-1.0009244;;-1.0819465;;-1.1766887;;-1.2831682;;-1.3989298;;-1.5200386;;-1.6344591;;-1.7248796;;-1.7954272;;-1.8564908;;-1.9131282;;-1.9665796;;-2.0163847;;-2.061513;;-2.100716;;-2.1331101;;-2.1588794;;-2.1787116;;-2.192895;;-2.2019444;;-2.2076413;;-2.212377;;-2.2176859;;-2.2234245;;-2.2281864;;-2.2302606;;-2.2284274;;-2.2210871;;-2.2063664;;-2.1855752;;-2.1655907;;-2.1538324;;-2.1501738;;-2.1474753;;-2.1408475;;-2.1323485;;-2.1272156;;-2.1300929;;-2.1463636;;-2.1776705;;-2.1776703
-0.50339152;;-0.50339152;;-0.50339152;;-0.50339152;;-0.50339159;;-0.50339287;;-0.5034044;;-0.50346574;;-0.50373391;;-0.50471184;;-0.50608324;;-0.50700218;;-0.50644295;;-0.50785167;;-0.51183335;;-0.51774302;;-0.52581599;;-0.53656594;;-0.55071006;;-0.8512729;;-0.85423292;;-0.8605111;;-0.88411404;;-0.92711634;;-0.98888476;;-1.0676722;;-1.1607409;;-1.2661962;;-1.3814078;;-1.5032696;;-1.6213064;;-1.7139234;;-1.781836;;-1.8390169;;-1.8924813;;-1.9450229;;-1.9971308;;-2.0471579;;-2.0918936;;-2.1289255;;-2.1577479;;-2.1791551;;-2.1938065;;-2.2025625;;-2.2073137;;-2.2105481;;-2.2140117;;-2.2178546;;-2.2209581;;-2.2221975;;-2.220612;;-2.2149687;;-2.2039588;;-2.1881758;;-2.1721142;;-2.1607568;;-2.1547649;;-2.150145;;-2.1433183;;-2.1359404;;-2.1314756;;-2.1327182;;-2.1448985;;-2.1703659;;-2.1703657
-0.50339152;;-0.50339152;;-0.50339152;;-0.50339152;;-0.50339152;;-0.50339159;;-0.50339293;;-0.50340214;;-0.50343713;;-0.50355925;;-0.50412467;;-0.50468958;;-0.50434749;;-0.50586462;;-0.50944954;;-0.51473925;;-0.52198859;;-0.53168344;;-0.54449253;;-0.84681418;;-0.85062018;;-0.85462875;;-0.87390956;;-0.91188831;;-0.96864653;;-1.042207;;-1.130546;;-1.2313989;;-1.3422259;;-1.4612789;;-1.5815924;;-1.682384;;-1.7548395;;-1.8134095;;-1.8663606;;-1.918179;;-1.9714769;;-2.0251402;;-2.074518;;-2.1158549;;-2.1479608;;-2.1714656;;-2.1872347;;-2.1963788;;-2.2008762;;-2.2031747;;-2.2051079;;-2.2070861;;-2.2088014;;-2.2096061;;-2.2086311;;-2.2048191;;-2.1973185;;-2.1864776;;-2.1745814;;-2.1647935;;-2.1576882;;-2.151098;;-2.1440144;;-2.1373652;;-2.1335763;;-2.1348551;;-2.1446705;;-2.1653293;;-2.1653291
-0.50339152;;-0.50339152;;-0.50339152;;-0.50339152;;-0.50339152;;-0.50339152;;-0.5033916;;-0.50339232;;-0.50339528;;-0.50340262;;-0.50342073;;-0.50346836;;-0.50343861;;-0.50430287;;-0.50729778;;-0.51184909;;-0.51815795;;-0.52665167;;-0.53792609;;-0.55275153;;-0.8424912;;-0.84602163;;-0.86142401;;-0.89372764;;-0.9441947;;-1.0111434;;-1.0923781;;-1.1857378;;-1.2887041;;-1.4011576;;-1.5198559;;-1.6296123;;-1.7124115;;-1.7768187;;-1.8322938;;-1.8847746;;-1.939117;;-1.9952076;;-2.0481817;;-2.0937298;;-2.1300742;;-2.1570117;;-2.1749656;;-2.1851963;;-2.1898781;;-2.191654;;-2.1924858;;-2.1930763;;-2.1936325;;-2.1940928;;-2.1936352;;-2.1912966;;-2.1865244;;-2.179522;;-2.1714626;;-2.1635788;;-2.1561197;;-2.1485275;;-2.1410046;;-2.1349911;;-2.1324879;;-2.135151;;-2.1444719;;-2.1618438;;-2.1618436
-0.50339152;;-0.50339152;;-0.50339152;;-0.50339152;;-0.50339152;;-0.50339152;;-0.50339152;;-0.50339152;;-0.50339155;;-0.50339161;;-0.50339171;;-0.50339187;;-0.50339183;;-0.50347718;;-0.50555068;;-0.50926893;;-0.51461749;;-0.52191265;;-0.53165627;;-0.54451963;;-0.83304224;;-0.83735864;;-0.84921074;;-0.87584847;;-0.91952119;;-0.97928296;;-1.0527937;;-1.1371672;;-1.2302805;;-1.3335446;;-1.4466289;;-1.5601155;;-1.6543757;;-1.7270632;;-1.7881124;;-1.8441886;;-1.9009696;;-1.9591233;;-2.0150424;;-2.0649645;;-2.10655;;-2.138089;;-2.1590077;;-2.1706588;;-2.1757264;;-2.1772897;;-2.1775557;;-2.1773965;;-2.1772024;;-2.1772223;;-2.1771404;;-2.1759514;;-2.1731303;;-2.1689555;;-2.1634846;;-2.1566471;;-2.1485195;;-2.1400179;;-2.1323061;;-2.1271444;;-2.1265194;;-2.1308548;;-2.1401052;;-2.153748;;-2.1537478
-0.50339152;;-0.50339152;;-0.50339152;;-0.50339152;;-0.50339152;;-0.50339152;;-0.50339152;;-0.50339152;;-0.50339152;;-0.50339152;;-0.50339152;;-0.50339152;;-0.50339152;;-0.50339341;;-0.5041713;;-0.50710983;;-0.5115937;;-0.51781416;;-0.52618694;;-0.53729169;;-0.82588582;;-0.83145352;;-0.84056776;;-0.86198274;;-0.89879793;;-0.95148643;;-1.0173631;;-1.0926085;;-1.1756906;;-1.2692898;;-1.3748596;;-1.4868659;;-1.5897856;;-1.6714941;;-1.7394697;;-1.8007777;;-1.8606928;;-1.9207071;;-1.9793545;;-2.0337983;;-2.0807878;;-2.1168879;;-2.1406438;;-2.1535947;;-2.1591519;;-2.1608869;;-2.1611836;;-2.1609518;;-2.1605699;;-2.1604685;;-2.1605497;;-2.1602483;;-2.1589431;;-2.156364;;-2.151802;;-2.1444198;;-2.1351159;;-2.1255172;;-2.117795;;-2.1139806;;-2.1152057;;-2.1209587;;-2.1290137;;-2.1381575;;-2.1381573
-0.50339152;;-0.50339152;;-0.50339152;;-0.50339152;;-0.50339152;;-0.50339152;;-0.50339152;;-0.50339152;;-0.50339152;;-0.50339152;;-0.50339152;;-0.50339152;;-0.50339152;;-0.50339161;;-0.5034701;;-0.50550727;;-0.50920356;;-0.51452654;;-0.52178376;;-0.53146798;;-0.82135405;;-0.82898279;;-0.83722793;;-0.85513161;;-0.88558085;;-0.93148971;;-0.99037722;;-1.0574082;;-1.1317251;;-1.216967;;-1.3155325;;-1.4243076;;-1.5322601;;-1.6224785;;-1.6960759;;-1.7609951;;-1.822674;;-1.8841199;;-1.9456122;;-2.0046559;;-2.0565166;;-2.0962309;;-2.1220385;;-2.1359985;;-2.1421176;;-2.1442073;;-2.1446676;;-2.1445147;;-2.1442249;;-2.144172;;-2.1444297;;-2.1446368;;-2.1443489;;-2.1422757;;-2.1368198;;-2.1282032;;-2.1176727;;-2.1073323;;-2.0996878;;-2.097067;;-2.100049;;-2.1065798;;-2.1124551;;-2.1167945;;-2.1167943
-0.50339152;;-0.50339152;;-0.50339152;;-0.50339152;;-0.50339152;;-0.50339152;;-0.50339152;;-0.50339152;;-0.50339152;;-0.50339152;;-0.50339152;;-0.50339152;;-0.50339152;;-0.50339153;;-0.50339617;;-0.50437565;;-0.50745629;;-0.51210975;;-0.51854658;;-0.52719838;;-0.5386611;;-0.82740024;;-0.83896067;;-0.85650489;;-0.8817098;;-0.92101916;;-0.9734857;;-1.0332251;;-1.1001089;;-1.1785289;;-1.2716834;;-1.3778048;;-1.4884033;;-1.5857371;;-1.6626397;;-1.7282868;;-1.7901343;;-1.8529517;;-1.917747;;-1.9813036;;-2.0371654;;-2.0794577;;-2.1065421;;-2.1211597;;-2.1276105;;-2.1295021;;-2.1293064;;-2.1284533;;-2.1277055;;-2.1273455;;-2.1273488;;-2.1277377;;-2.1275946;;-2.1249189;;-2.1182063;;-2.1083369;;-2.0974003;;-2.0872527;;-2.079964;;-2.0779761;;-2.0814058;;-2.0875028;;-2.0896894;;-2.0880419;;-2.0880417
-0.50339152;;-0.50339152;;-0.50339152;;-0.50339152;;-0.50339152;;-0.50339152;;-0.50339152;;-0.50339152;;-0.50339152;;-0.50339152;;-0.50339152;;-0.50339152;;-0.50339152;;-0.50339152;;-0.50339224;;-0.50370912;;-0.50630398;;-0.51046143;;-0.51632462;;-0.52427467;;-0.5348589;;-0.82580945;;-0.84225696;;-0.86298792;;-0.8853581;;-0.91847028;;-0.9642862;;-1.0169325;;-1.0773586;;-1.1504873;;-1.2398856;;-1.3442341;;-1.4563706;;-1.5595134;;-1.6389765;;-1.7044355;;-1.7666582;;-1.8315644;;-1.8997177;;-1.966722;;-2.0250577;;-2.0686197;;-2.0961554;;-2.1107255;;-2.1165635;;-2.1170543;;-2.1148338;;-2.1120362;;-2.1097518;;-2.1081709;;-2.1073193;;-2.1071066;;-2.1062078;;-2.1022424;;-2.0944732;;-2.0841279;;-2.0734597;;-2.0642469;;-2.0574799;;-2.0550366;;-2.0547753;;-2.0545812;;-2.0480364;;-2.0377751;;-2.0377748
-0.50339152;;-0.50339152;;-0.50339152;;-0.50339152;;-0.50339152;;-0.50339152;;-0.50339152;;-0.50339152;;-0.50339152;;-0.50339152;;-0.50339152;;-0.50339152;;-0.50339152;;-0.50339152;;-0.50339166;;-0.5034663;;-0.5055425;;-0.50931835;;-0.5147776;;-0.52224398;;-0.5322278;;-0.54540917;;-0.56265048;;-0.5850177;;-0.8881179;;-0.92042644;;-0.9592799;;-1.0045014;;-1.0596067;;-1.1294655;;-1.2170334;;-1.3208416;;-1.4345802;;-1.5431604;;-1.6266972;;-1.6934042;;-1.7572551;;-1.8242846;;-1.894169;;-1.9619496;;-2.0201358;;-2.0630561;;-2.0897091;;-2.1030086;;-2.1068737;;-2.1046879;;-2.0994999;;-2.0938761;;-2.0891916;;-2.0856893;;-2.0834266;;-2.081857;;-2.079349;;-2.074125;;-2.0655453;;-2.0549695;;-2.0444417;;-2.0354335;;-2.0285702;;-2.0223655;;-2.0118583;;-1.9949461;;-1.9691341;;-1.9452556;;-1.9452553
-0.50339152;;-0.50339152;;-0.50339152;;-0.50339152;;-0.50339152;;-0.50339152;;-0.50339152;;-0.50339152;;-0.50339152;;-0.50339152;;-0.50339152;;-0.50339152;;-0.50339152;;-0.50339152;;-0.50339154;;-0.50341117;;-0.50503112;;-0.50854588;;-0.51373679;;-0.52088621;;-0.53048277;;-0.5431863;;-0.55983693;;-0.58147654;;-0.60937186;;-0.92185942;;-0.95618102;;-0.99471665;;-1.0464445;;-1.1154129;;-1.2031207;;-1.3078776;;-1.4240258;;-1.5381594;;-1.6280051;;-1.6980154;;-1.763762;;-1.831084;;-1.8993534;;-1.964237;;-2.0193814;;-2.0597652;;-2.0841075;;-2.0948372;;-2.0956769;;-2.090182;;-2.0817326;;-2.0731823;;-2.0659226;;-2.0604383;;-2.0565554;;-2.0531248;;-2.0488309;;-2.0423223;;-2.0331174;;-2.0217645;;-2.0097826;;-1.9990367;;-1.9895719;;-1.9764225;;-1.9499716;;-1.907584;;-1.8542891;;-1.8130222;;-1.8130219
-0.50339152;;-0.50339152;;-0.50339152;;-0.50339152;;-0.50339152;;-0.50339152;;-0.50339152;;-0.50339152;;-0.50339152;;-0.50339152;;-0.50339152;;-0.50339152;;-0.50339152;;-0.50339152;;-0.50339152;;-0.50339852;;-0.50468943;;-0.50803028;;-0.51304058;;-0.51997859;;-0.52932097;;-0.54171561;;-0.55798952;;-0.83889673;;-0.60651362;;-0.64151506;;-0.95268033;;-0.98716618;;-1.037235;;-1.1067395;;-1.1956226;;-1.3020775;;-1.421127;;-1.5408007;;-1.6385286;;-1.7132603;;-1.7802225;;-1.8452704;;-1.9086533;;-1.9677558;;-2.0180563;;-2.0549454;;-2.0763422;;-2.0839274;;-2.0814372;;-2.0727714;;-2.061391;;-2.0501835;;-2.0409207;;-2.0339136;;-2.0283411;;-2.0230254;;-2.0170008;;-2.0091841;;-1.9989727;;-1.9860383;;-1.9708158;;-1.9560927;;-1.9422275;;-1.9219967;;-1.8811114;;-1.8154215;;-1.7384512;;-1.6828737;;-1.6828734
-0.50339152;;-0.50339152;;-0.50339152;;-0.50339152;;-0.50339152;;-0.50339152;;-0.50339152;;-0.50339152;;-0.50339152;;-0.50339152;;-0.50339152;;-0.50339152;;-0.50339152;;-0.50339152;;-0.50339152;;-0.50339412;;-0.50438365;;-0.50755591;;-0.51238041;;-0.51909436;;-0.52816127;;-0.54021465;;-0.81676713;;-0.83835562;;-0.86531119;;-0.63766438;;-0.94549814;;-0.97753499;;-1.0278266;;-1.098255;;-1.1881079;;-1.2958438;;-1.4172355;;-1.5417695;;-1.6476279;;-1.7276778;;-1.7954314;;-1.8569525;;-1.9139208;;-1.9663531;;-2.0118178;;-2.045642;;-2.0645396;;-2.0694085;;-2.0641352;;-2.0529064;;-2.0392776;;-2.0261565;;-2.0154421;;-2.0072491;;-1.9999271;;-1.9927491;;-1.9848924;;-1.9756935;;-1.9640609;;-1.9487856;;-1.9302868;;-1.9110469;;-1.8932862;;-1.870601;;-1.8264368;;-1.7548297;;-1.6724688;;-1.6140628;;-1.6140624
-0.50339152;;-0.50339152;;-0.50339152;;-0.50339152;;-0.50339152;;-0.50339152;;-0.50339152;;-0.50339152;;-0.50339152;;-0.50339152;;-0.50339152;;-0.50339152;;-0.50339152;;-0.50339152;;-0.50339152;;-0.50339222;;-0.50402088;;-0.50696096;;-0.51152294;;-0.51791707;;-0.5265844;;-0.53813381;;-0.81474658;;-0.83588722;;-0.86099314;;-0.89092864;;-0.92413339;;-0.96153945;;-1.0151464;;-1.0864132;;-1.1763199;;-1.2842374;;-1.4066353;;-1.5343666;;-1.6472833;;-1.7321909;;-1.8001403;;-1.8577817;;-1.9087263;;-1.9557773;;-1.9980444;;-2.0303038;;-2.047899;;-2.0510841;;-2.0440493;;-2.0312375;;-2.0161588;;-2.0018894;;-1.9899888;;-1.9798423;;-1.970362;;-1.9609057;;-1.9513934;;-1.9408639;;-1.927826;;-1.9109797;;-1.8903128;;-1.8687412;;-1.85014;;-1.8308127;;-1.7969191;;-1.7413004;;-1.6769579;;-1.6321152;;-1.6321149
-0.50339152;;-0.50339152;;-0.50339152;;-0.50339152;;-0.50339152;;-0.50339152;;-0.50339152;;-0.50339152;;-0.50339152;;-0.50339152;;-0.50339152;;-0.50339152;;-0.50339152;;-0.50339152;;-0.50339152;;-0.50339165;;-0.50366122;;-0.50625631;;-0.51046664;;-0.51644774;;-0.5245999;;-0.53549535;;-0.54988122;;-0.56869904;;-0.85322208;;-0.87495298;;-0.90486788;;-0.9460315;;-1.0007501;;-1.0714698;;-1.1602212;;-1.2668417;;-1.3884536;;-1.5173867;;-1.635721;;-1.7242048;;-1.7906805;;-1.8439687;;-1.8903612;;-1.934631;;-1.976075;;-2.0084512;;-2.0259719;;-2.0286882;;-2.0210447;;-2.0077438;;-1.9923498;;-1.9773262;;-1.9633797;;-1.9494372;;-1.9355848;;-1.9228611;;-1.9122349;;-1.9018902;;-1.888985;;-1.8725087;;-1.8522972;;-1.8315721;;-1.8150084;;-1.8016137;;-1.7826014;;-1.751599;;-1.7150048;;-1.6902048;;-1.6902045
-0.50339152;;-0.50339152;;-0.50339152;;-0.50339152;;-0.50339152;;-0.50339152;;-0.50339152;;-0.50339152;;-0.50339152;;-0.50339152;;-0.50339152;;-0.50339152;;-0.50339152;;-0.50339152;;-0.50339152;;-0.50339154;;-0.50345333;;-0.50549636;;-0.50928245;;-0.51478608;;-0.52234058;;-0.53247207;;-0.54588229;;-0.56346234;;-0.84573706;;-0.86361024;;-0.89172995;;-0.93116468;;-0.98430354;;-1.0532882;;-1.1395549;;-1.2432367;;-1.3622308;;-1.4905374;;-1.6127037;;-1.7044156;;-1.7681479;;-1.8170032;;-1.8605555;;-1.9042906;;-1.9466524;;-1.9801775;;-1.9986011;;-2.0019832;;-1.9949259;;-1.9822787;;-1.9675123;;-1.95178;;-1.9338459;;-1.9131087;;-1.8914393;;-1.8739358;;-1.8630794;;-1.8556497;;-1.8464564;;-1.8326686;;-1.815321;;-1.7980173;;-1.7845596;;-1.7755146;;-1.7666386;;-1.7542391;;-1.7400582;;-1.7324037;;-1.7324034
-0.50339152;;-0.50339152;;-0.50339152;;-0.50339152;;-0.50339152;;-0.50339152;;-0.50339152;;-0.50339152;;-0.50339152;;-0.50339152;;-0.50339152;;-0.50339152;;-0.50339152;;-0.50339152;;-0.50339152;;-0.50339152;;-0.50339877;;-0.50468653;;-0.5080061;;-0.51297862;;-0.51986022;;-0.52912641;;-0.54142548;;-0.82178123;;-0.83643968;;-0.85242492;;-0.87795449;;-0.91466703;;-0.96497963;;-1.0309823;;-1.1134847;;-1.2125446;;-1.327171;;-1.4529593;;-1.5770775;;-1.6738109;;-1.7365243;;-1.7826805;;-1.8248829;;-1.8688083;;-1.9120746;;-1.9467483;;-1.9667156;;-1.9718901;;-1.9665719;;-1.9556674;;-1.941812;;-1.9246543;;-1.9017144;;-1.8721123;;-1.8406627;;-1.8170946;;-1.8064774;;-1.8040157;;-1.8009431;;-1.7921522;;-1.7790822;;-1.7656443;;-1.7546714;;-1.7470388;;-1.7413469;;-1.7366124;;-1.7338169;;-1.7355463;;-1.7355461
-0.50339152;;-0.50339152;;-0.50339152;;-0.50339152;;-0.50339152;;-0.50339152;;-0.50339152;;-0.50339152;;-0.50339152;;-0.50339152;;-0.50339152;;-0.50339152;;-0.50339152;;-0.50339152;;-0.50339152;;-0.50339152;;-0.50339205;;-0.50390998;;-0.50672265;;-0.51111467;;-0.51727266;;-0.52561476;;-0.53672621;;-0.81568601;;-0.82781044;;-0.8419975;;-0.86531435;;-0.89847619;;-0.94427315;;-1.0054477;;-1.0829896;;-1.1766271;;-1.2856158;;-1.4073479;;-1.5315672;;-1.6356529;;-1.7027128;;-1.7496971;;-1.7914848;;-1.8343767;;-1.8764436;;-1.9109394;;-1.9324116;;-1.9402068;;-1.9377698;;-1.9292031;;-1.9162183;;-1.8972047;;-1.8699197;;-1.8335323;;-1.7948343;;-1.7662301;;-1.7550113;;-1.7560916;;-1.757976;;-1.7539999;;-1.744993;;-1.734189;;-1.7242086;;-1.7159802;;-1.7094673;;-1.7056053;;-1.7061586;;-1.7113596;;-1.7113593
-0.50339152;;-0.50339152;;-0.50339152;;-0.50339152;;-0.50339152;;-0.50339152;;-0.50339152;;-0.50339152;;-0.50339152;;-0.50339152;;-0.50339152;;-0.50339152;;-0.50339152;;-0.50339152;;-0.50339152;;-0.50339152;;-0.50339158;;-0.50347857;;-0.50558575;;-0.5093678;;-0.51482401;;-0.52228383;;-0.53226366;;-0.81126683;;-0.82150195;;-0.83316844;;-0.85342617;;-0.88269759;;-0.92397466;;-0.97997391;;-1.0521952;;-1.1405548;;-1.2444258;;-1.3621573;;-1.4857092;;-1.5975152;;-1.6753279;;-1.7265775;;-1.7678817;;-1.8071388;;-1.8446645;;-1.8762461;;-1.8973573;;-1.9068674;;-1.907523;;-1.9021167;;-1.8907311;;-1.8717551;;-1.8432447;;-1.8059832;;-1.766659;;-1.7367881;;-1.7237051;;-1.7235023;;-1.7256842;;-1.7234551;;-1.715858;;-1.7053138;;-1.6946115;;-1.6849598;;-1.6769546;;-1.6725376;;-1.6733544;;-1.6795105;;-1.6795103
-0.50339152;;-0.50339152;;-0.50339152;;-0.50339152;;-0.50339152;;-0.50339152;;-0.50339152;;-0.50339152;;-0.50339152;;-0.50339152;;-0.50339152;;-0.50339152;;-0.50339152;;-0.50339152;;-0.50339152;;-0.50339152;;-0.50339155;;-0.50340272;;-0.50466365;;-0.50792336;;-0.51279559;;-0.5195254;;-0.52857623;;-0.54058267;;-0.81580686;;-0.82623169;;-0.84396608;;-0.86995223;;-0.90720991;;-0.95886207;;-1.0267694;;-1.1110227;;-1.211506;;-1.3267721;;-1.450104;;-1.567999;;-1.6596311;;-1.7169722;;-1.7568133;;-1.7901468;;-1.8203019;;-1.8451609;;-1.8609716;;-1.8677602;;-1.8697774;;-1.8694864;;-1.8640197;;-1.8497071;;-1.8249883;;-1.7926505;;-1.7591149;;-1.7321745;;-1.7170703;;-1.7115975;;-1.7091835;;-1.7042736;;-1.6943565;;-1.6812828;;-1.6682013;;-1.6568124;;-1.6478855;;-1.6430576;;-1.6438227;;-1.6501115;;-1.6501113
-0.50339152;;-0.50339152;;-0.50339152;;-0.50339152;;-0.50339152;;-0.50339152;;-0.50339152;;-0.50339152;;-0.50339152;;-0.50339152;;-0.50339152;;-0.50339152;;-0.50339152;;-0.50339152;;-0.50339152;;-0.50339152;;-0.50339153;;-0.50339458;;-0.50402554;;-0.50689277;;-0.51132903;;-0.51753043;;-0.52592511;;-0.53711138;;-0.81151811;;-0.8211817;;-0.83720106;;-0.86106647;;-0.89549784;;-0.94418229;;-1.0092772;;-1.0911129;;-1.1899611;;-1.3041387;;-1.4277252;;-1.5499973;;-1.6533175;;-1.7170607;;-1.754781;;-1.7820583;;-1.8041106;;-1.8186038;;-1.822084;;-1.8187916;;-1.8191444;;-1.8268652;;-1.8342711;;-1.8309413;;-1.8144591;;-1.7899016;;-1.7640134;;-1.7418431;;-1.7256041;;-1.7146915;;-1.7063353;;-1.6959205;;-1.6812158;;-1.6639023;;-1.6473675;;-1.6337312;;-1.6243242;;-1.6190269;;-1.6198318;;-1.625448;;-1.6254478
-0.50339152;;-0.50339152;;-0.50339152;;-0.50339152;;-0.50339152;;-0.50339152;;-0.50339152;;-0.50339152;;-0.50339152;;-0.50339152;;-0.50339152;;-0.50339152;;-0.50339152;;-0.50339152;;-0.50339152;;-0.50339152;;-0.50339152;;-0.50339255;;-0.50366817;;-0.50619615;;-0.51030325;;-0.51613122;;-0.52407449;;-0.53470495;;-0.80772813;;-0.81686856;;-0.83213584;;-0.85481401;;-0.88759824;;-0.9342888;;-0.99740709;;-1.0777061;;-1.1754095;;-1.2885511;;-1.411883;;-1.5368321;;-1.6478397;;-1.7179608;;-1.7545998;;-1.7781023;;-1.7938525;;-1.7971325;;-1.7843397;;-1.7661926;;-1.7627368;;-1.780269;;-1.8042707;;-1.8152117;;-1.8079492;;-1.7904224;;-1.7706812;;-1.7525922;;-1.7364643;;-1.7225578;;-1.7095645;;-1.6939416;;-1.6745934;;-1.6532983;;-1.6333855;;-1.6174868;;-1.6068686;;-1.6009263;;-1.6015484;;-1.6059671;;-1.6059669
-0.50339152;;-0.50339152;;-0.50339152;;-0.50339152;;-0.50339152;;-0.50339152;;-0.50339152;;-0.50339152;;-0.50339152;;-0.50339152;;-0.50339152;;-0.50339152;;-0.50339152;;-0.50339152;;-0.50339152;;-0.50339153;;-0.50339158;;-0.50339194;;-0.50349264;;-0.5056308;;-0.50943616;;-0.51493231;;-0.52247094;;-0.79099296;;-0.80101725;;-0.81154052;;-0.82706758;;-0.84889461;;-0.88028196;;-0.9251523;;-0.98636227;;-1.0648353;;-1.1605546;;-1.2714997;;-1.393146;;-1.5184774;;-1.6331155;;-1.7096823;;-1.7478971;;-1.7712624;;-1.7849739;;-1.7817945;;-1.7576494;;-1.7285645;;-1.7220729;;-1.7467302;;-1.7822205;;-1.8028932;;-1.8014271;;-1.7876213;;-1.771936;;-1.7570036;;-1.7424398;;-1.728242;;-1.7126458;;-1.693919;;-1.6719307;;-1.6482521;;-1.6259154;;-1.6081496;;-1.5958529;;-1.5887744;;-1.5886229;;-1.5911614;;-1.5911612
-0.50339152;;-0.50339152;;-0.50339152;;-0.50339152;;-0.50339152;;-0.50339152;;-0.50339152;;-0.50339152;;-0.50339152;;-0.50339152;;-0.50339152;;-0.50339152;;-0.50339152;;-0.50339157;;-0.50339195;;-0.50339347;;-0.50339709;;-0.50340276;;-0.50343696;;-0.50506258;;-0.50853201;;-0.51365038;;-0.52071456;;-0.78798015;;-0.79588042;;-0.80649448;;-0.82140839;;-0.84193252;;-0.87123847;;-0.91362899;;-0.97218912;;-1.0479156;;-1.1401748;;-1.2470564;;-1.364835;;-1.487333;;-1.6010958;;-1.6826406;;-1.7247226;;-1.7516949;;-1.7700291;;-1.7710509;;-1.7493135;;-1.7210983;;-1.7149688;;-1.739736;;-1.774705;;-1.7942446;;-1.7916248;;-1.7777782;;-1.7644161;;-1.7536125;;-1.7431804;;-1.7306987;;-1.7146253;;-1.6950601;;-1.6724425;;-1.6479578;;-1.6244251;;-1.6048787;;-1.5906086;;-1.5820643;;-1.580155;;-1.5805867;;-1.5805865
-0.50339152;;-0.50339152;;-0.50339152;;-0.50339152;;-0.50339152;;-0.50339152;;-0.50339152;;-0.50339152;;-0.50339152;;-0.50339152;;-0.50339152;;-0.50339152;;-0.50339155;;-0.50339219;;-0.50339674;;-0.50341374;;-0.50345303;;-0.50351806;;-0.50364134;;-0.50457392;;-0.50762002;;-0.51226894;;-0.51874939;;-0.78506863;;-0.79218959;;-0.80180762;;-0.81526152;;-0.8339206;;-0.86036455;;-0.89922605;;-0.95404486;;-1.0257503;;-1.1131803;;-1.2140553;;-1.3252191;;-1.4406668;;-1.548839;;-1.6312859;;-1.676499;;-1.7094602;;-1.7402333;;-1.7583167;;-1.7538702;;-1.7378441;;-1.7350065;;-1.7538658;;-1.7789356;;-1.789514;;-1.7807054;;-1.7643203;;-1.7522263;;-1.7469787;;-1.7429798;;-1.7338059;;-1.7186804;;-1.6996339;;-1.6772526;;-1.6524622;;-1.6282373;;-1.6069264;;-1.5903412;;-1.5794119;;-1.5748259;;-1.5734649;;-1.5734648
-0.50339152;;-0.50339152;;-0.50339152;;-0.50339152;;-0.50339152;;-0.50339152;;-0.50339152;;-0.50339152;;-0.50339152;;-0.50339152;;-0.50339152;;-0.50339152;;-0.50339179;;-0.50339595;;-0.50342226;;-0.50351538;;-0.5037366;;-0.50421707;;-0.50495055;;-0.50551454;;-0.50724677;;-0.51111953;;-0.77179372;;-0.77934479;;-0.78712598;;-0.79656408;;-0.80913969;;-0.82563743;;-0.8488159;;-0.88376433;;-0.93418977;;-1.0010083;;-1.0826196;;-1.1763653;;-1.2790818;;-1.3841975;;-1.4827293;;-1.561357;;-1.6067472;;-1.6458399;;-1.6941959;;-1.7378808;;-1.7587657;;-1.7592509;;-1.759674;;-1.771328;;-1.7863711;;-1.7900505;;-1.777714;;-1.7594875;;-1.7482222;;-1.7474464;;-1.7484462;;-1.7421369;;-1.7280637;;-1.7093303;;-1.6870517;;-1.6621654;;-1.6369475;;-1.6134692;;-1.5940917;;-1.5800158;;-1.5722372;;-1.5689016;;-1.5689015
-0.50339152;;-0.50339152;;-0.50339152;;-0.50339152;;-0.50339152;;-0.50339152;;-0.50339152;;-0.50339152;;-0.50339152;;-0.50339152;;-0.50339154;;-0.5033917;;-0.50339358;;-0.50341161;;-0.5035104;;-0.50384675;;-0.50464272;;-0.50590072;;-0.50718412;;-0.50795922;;-0.50867473;;-0.76324449;;-0.76852597;;-0.77499031;;-0.78270029;;-0.79183174;;-0.80370978;;-0.81842136;;-0.8387552;;-0.87006704;;-0.91638764;;-0.97841621;;-1.0541901;;-1.1408081;;-1.2348093;;-1.3293124;;-1.4174348;;-1.4909067;;-1.5362899;;-1.5809693;;-1.6458635;;-1.7139479;;-1.7584528;;-1.7727151;;-1.7744571;;-1.7810094;;-1.7925486;;-1.7981388;;-1.7908578;;-1.7753013;;-1.7648507;;-1.7643955;;-1.7650149;;-1.7580989;;-1.7433826;;-1.7238295;;-1.7010053;;-1.6760492;;-1.649859;;-1.6241718;;-1.6017009;;-1.5842864;;-1.5740565;;-1.5691104;;-1.5691103
-0.50339152;;-0.50339152;;-0.50339152;;-0.50339152;;-0.50339152;;-0.50339152;;-0.50339152;;-0.50339152;;-0.50339152;;-0.50339152;;-0.50339171;;-0.50339346;;-0.50340424;;-0.50346668;;-0.50375932;;-0.50468902;;-0.50628889;;-0.50825058;;-0.51008358;;-0.7605758;;-0.76171588;;-0.7644308;;-0.76809802;;-0.77331;;-0.77972857;;-0.78820326;;-0.7995112;;-0.81326652;;-0.83194579;;-0.86072352;;-0.90381157;;-0.96188762;;-1.0329663;;-1.1137249;;-1.1997555;;-1.2852297;;-1.3658884;;-1.4378418;;-1.4895541;;-1.5403301;;-1.6152216;;-1.6973691;;-1.7566235;;-1.7797624;;-1.7824034;;-1.786947;;-1.8004977;;-1.8143209;;-1.8174742;;-1.8089091;;-1.7997578;;-1.7957558;;-1.7912199;;-1.7804498;;-1.7632177;;-1.7418944;;-1.7182905;;-1.6931023;;-1.6661883;;-1.6390407;;-1.6139192;;-1.5936952;;-1.5813494;;-1.5751429;;-1.5751428
-0.50339152;;-0.50339152;;-0.50339152;;-0.50339152;;-0.50339152;;-0.50339152;;-0.50339152;;-0.50339152;;-0.50339152;;-0.50339153;;-0.50339256;;-0.50340181;;-0.50344764;;-0.50364137;;-0.50445397;;-0.5061677;;-0.50847503;;-0.5110864;;-0.76258077;;-0.76434138;;-0.76533012;;-0.76729352;;-0.77082601;;-0.77484053;;-0.778597;;-0.78595356;;-0.79689109;;-0.81042664;;-0.82851931;;-0.85589653;;-0.89666;;-0.95172007;;-1.0191506;;-1.0950633;;-1.1741046;;-1.2519678;;-1.3284305;;-1.4035685;;-1.4700163;;-1.529157;;-1.6064165;;-1.6907966;;-1.7555184;;-1.7854809;;-1.7926202;;-1.7987649;;-1.8149824;;-1.8357579;;-1.8469705;;-1.8452317;;-1.8379984;;-1.8299547;;-1.8197537;;-1.8050611;;-1.7856255;;-1.763005;;-1.7389916;;-1.7136409;;-1.686172;;-1.6578783;;-1.6307628;;-1.6082856;;-1.5933176;;-1.5859363;;-1.5859363
-0.50339152;;-0.50339152;;-0.50339152;;-0.50339152;;-0.50339152;;-0.50339152;;-0.50339152;;-0.50339152;;-0.50339152;;-0.50339155;;-0.50339499;;-0.5034262;;-0.503571;;-0.50415034;;-0.50572508;;-0.50807025;;-0.51097926;;-0.7624705;;-0.76603742;;-0.76789972;;-0.76903519;;-0.77117363;;-0.77423051;;-0.77686427;;-0.77898784;;-0.78420211;;-0.79473234;;-0.80861229;;-0.82671618;;-0.85311925;;-0.89179086;;-0.94361528;;-1.0065382;;-1.0763137;;-1.1476956;;-1.2182523;;-1.2911308;;-1.3699902;;-1.4513219;;-1.523246;;-1.599259;;-1.6800209;;-1.7466572;;-1.7856965;;-1.8032729;;-1.8158007;;-1.8343542;;-1.8567117;;-1.8703359;;-1.8722667;;-1.8669582;;-1.8574343;;-1.8449411;;-1.8291683;;-1.8097625;;-1.7877353;;-1.7642995;;-1.7387863;;-1.7105955;;-1.6805076;;-1.6506248;;-1.625037;;-1.6065908;;-1.5985091;;-1.5985091
-0.50339152;;-0.50339152;;-0.50339152;;-0.50339152;;-0.50339152;;-0.50339152;;-0.50339152;;-0.50339152;;-0.50339152;;-0.50339163;;-0.50340016;;-0.50347761;;-0.50386386;;-0.50514443;;-0.50730562;;-0.51013564;;-0.76131569;;-0.76551484;;-0.76913995;;-0.77144581;;-0.77269324;;-0.77420301;;-0.77578748;;-0.77692829;;-0.77835541;;-0.78189314;;-0.79159196;;-0.80564015;;-0.82383349;;-0.84909804;;-0.88472726;;-0.93172903;;-0.9879809;;-1.0489351;;-1.1100454;;-1.1711766;;-1.2377583;;-1.3157095;;-1.40412;;-1.4894069;;-1.5664351;;-1.6443281;;-1.7138241;;-1.7651022;;-1.7984641;;-1.8235701;;-1.8488235;;-1.8715833;;-1.8853295;;-1.8894338;;-1.8862534;;-1.8781945;;-1.8670683;;-1.8533248;;-1.8364143;;-1.8168528;;-1.7947355;;-1.7688246;;-1.7389995;;-1.7057172;;-1.672013;;-1.6418785;;-1.6197563;;-1.6109894;;-1.6109893
-0.50339152;;-0.50339152;;-0.50339152;;-0.50339152;;-0.50339152;;-0.50339152;;-0.50339152;;-0.50339152;;-0.50339155;;-0.50339232;;-0.50341183;;-0.5035884;;-0.50455392;;-0.50651173;;-0.50916928;;-0.51238217;;-0.76434301;;-0.76833413;;-0.77137255;;-0.77337519;;-0.77405837;;-0.77432887;;-0.77435512;;-0.77461522;;-0.77575921;;-0.77866772;;-0.78672963;;-0.8000622;;-0.81783104;;-0.84146746;;-0.87303535;;-0.91346606;;-0.96109005;;-1.0112637;;-1.0598398;;-1.1084158;;-1.1641391;;-1.2342275;;-1.3199967;;-1.4116838;;-1.493308;;-1.5707188;;-1.6435244;;-1.7068445;;-1.7591613;;-1.8042869;;-1.8449106;;-1.8756059;;-1.8938257;;-1.9019144;;-1.9022805;;-1.8977518;;-1.8899883;;-1.8795728;;-1.8658662;;-1.8489529;;-1.8280393;;-1.8018524;;-1.7696881;;-1.7325658;;-1.6948166;;-1.6610024;;-1.6372031;;-1.6287323;;-1.6287323
-0.50339152;;-0.50339152;;-0.50339152;;-0.50339152;;-0.50339152;;-0.50339152;;-0.50339152;;-0.50339152;;-0.5033918;;-0.50339618;;-0.50344782;;-0.50398939;;-0.50573105;;-0.50826256;;-0.51141187;;-0.76255299;;-0.76735355;;-0.77069319;;-0.77240677;;-0.77299907;;-0.7725189;;-0.77180939;;-0.77129209;;-0.77130656;;-0.77220956;;-0.77491763;;-0.78097614;;-0.79242462;;-0.80861892;;-0.83011733;;-0.85747482;;-0.89105812;;-0.92971437;;-0.96860127;;-1.0038575;;-1.0383138;;-1.0800789;;-1.1373076;;-1.212901;;-1.3006775;;-1.3852045;;-1.463452;;-1.5388681;;-1.6115399;;-1.6836088;;-1.7551677;;-1.8198507;;-1.8684618;;-1.8987785;;-1.9145139;;-1.9203851;;-1.9200788;;-1.9156141;;-1.9071832;;-1.894946;;-1.8791826;;-1.8592118;;-1.8336648;;-1.8005969;;-1.7614778;;-1.721888;;-1.6874468;;-1.6649928;;-1.6579127;;-1.6579127
-0.50339152;;-0.50339152;;-0.50339152;;-0.50339152;;-0.50339152;;-0.50339152;;-0.50339152;;-0.50339157;;-0.50339296;;-0.50340995;;-0.50359985;;-0.50494206;;-0.50727372;;-0.51033003;;-0.51394676;;-0.76612479;;-0.77064186;;-0.77254604;;-0.77252532;;-0.77136712;;-0.77015026;;-0.76931709;;-0.7688193;;-0.76874968;;-0.76941752;;-0.77189007;;-0.77664101;;-0.78495533;;-0.79848782;;-0.81721241;;-0.84058906;;-0.86821753;;-0.89852564;;-0.92649625;;-0.9488215;;-0.96925243;;-0.9964005;;-1.0390912;;-1.1014891;;-1.1795878;;-1.2620094;;-1.3413017;;-1.4200313;;-1.5023385;;-1.5939481;;-1.6927216;;-1.7847396;;-1.8566305;;-1.90373;;-1.929893;;-1.9423281;;-1.9457339;;-1.9426322;;-1.9333574;;-1.9196992;;-1.9033889;;-1.8849418;;-1.8621509;;-1.8315197;;-1.7941615;;-1.7556938;;-1.723259;;-1.7038856;;-1.6986786;;-1.6986786
-0.50339152;;-0.50339152;;-0.50339152;;-0.50339152;;-0.50339152;;-0.50339158;;-0.50339213;;-0.50339446;;-0.50340403;;-0.50346265;;-0.50415197;;-0.50614679;;-0.50897238;;-0.51249835;;-0.76375085;;-0.76950453;;-0.77378381;;-0.77419767;;-0.77225757;;-0.77014312;;-0.76895491;;-0.76863361;;-0.7684283;;-0.76818987;;-0.76846171;;-0.77044218;;-0.77431087;;-0.7797314;;-0.78983086;;-0.80545509;;-0.82502103;;-0.84738247;;-0.87002573;;-0.88782154;;-0.89827395;;-0.90565656;;-0.91922851;;-0.94809674;;-0.99767138;;-1.0655299;;-1.1441738;;-1.227781;;-1.3158865;;-1.4128339;;-1.5240892;;-1.6445991;;-1.7584111;;-1.8503277;;-1.912842;;-1.9492255;;-1.967225;;-1.9727952;;-1.9691159;;-1.9577985;;-1.9419231;;-1.9251808;;-1.9091923;;-1.8907739;;-1.8647277;;-1.831451;;-1.7957984;;-1.7659359;;-1.7480631;;-1.7436366;;-1.7436366
-0.50339152;;-0.50339152;;-0.50339152;;-0.50339153;;-0.50339165;;-0.50339268;;-0.50339901;;-0.50342299;;-0.50350264;;-0.50377253;;-0.50493448;;-0.5072536;;-0.51038588;;-0.51421604;;-0.76630341;;-0.77209954;;-0.7758871;;-0.77530629;;-0.77249184;;-0.76999872;;-0.7693074;;-0.76967225;;-0.77017107;;-0.77038311;;-0.77043986;;-0.77144588;;-0.77424583;;-0.77826411;;-0.784134;;-0.79632622;;-0.81246081;;-0.83026172;;-0.84614686;;-0.85482385;;-0.85468287;;-0.85086233;;-0.85340431;;-0.87201197;;-0.91215258;;-0.97363626;;-1.052035;;-1.1455608;;-1.251237;;-1.3686922;;-1.4976963;;-1.6303472;;-1.7546233;;-1.8569902;;-1.9286687;;-1.9714804;;-1.99257;;-1.9993195;;-1.995645;;-1.9847076;;-1.9700141;;-1.9551453;;-1.9416685;;-1.9259221;;-1.9029275;;-1.8718594;;-1.8376184;;-1.8086603;;-1.7905912;;-1.7859589;;-1.785959
-0.50339152;;-0.50339152;;-0.50339158;;-0.50339223;;-0.50339565;;-0.50340886;;-0.50345693;;-0.5036922;;-0.50447709;;-0.50525929;;-0.5061438;;-0.50811635;;-0.51110561;;-0.51484295;;-0.76708267;;-0.7727338;;-0.77607254;;-0.77538978;;-0.77290416;;-0.77119528;;-0.77129339;;-0.77241226;;-0.7735341;;-0.77424556;;-0.77451104;;-0.77524548;;-0.77738468;;-0.78017284;;-0.7838614;;-0.7908314;;-0.80357141;;-0.81734746;;-0.82708035;;-0.82747356;;-0.81824176;;-0.80615639;;-0.80202432;;-0.81612971;;-0.85459078;;-0.91878528;;-1.0070735;;-1.1175526;;-1.2428519;;-1.3780503;;-1.5173308;;-1.6510435;;-1.773241;;-1.8747898;;-1.9473963;;-1.9915874;;-2.0139669;;-2.0231971;;-2.0240484;;-2.019473;;-2.0110536;;-2.0002396;;-1.9872759;;-1.9696034;;-1.9445229;;-1.9116263;;-1.8761311;;-1.8460877;;-1.8268631;;-1.8221077;;-1.8221077
-0.50339152;;-0.50339152;;-0.50339209;;-0.50339808;;-0.50342749;;-0.50352608;;-0.50395094;;-0.50517089;;-0.5066474;;-0.50774727;;-0.5084906;;-0.50977156;;-0.51193249;;-0.76099618;;-0.76627758;;-0.77154155;;-0.7745177;;-0.77482602;;-0.77386886;;-0.77345499;;-0.77436168;;-0.77592971;;-0.77737533;;-0.77845094;;-0.77932214;;-0.7802088;;-0.7816101;;-0.78344796;;-0.78611361;;-0.79071613;;-0.80035004;;-0.81055352;;-0.81508159;;-0.80960788;;-0.79598396;;-0.78311313;;-0.78257801;;-0.80388406;;-0.85207979;;-0.92749684;;-1.0285339;;-1.1507481;;-1.2870902;;-1.4311309;;-1.5692171;;-1.6922412;;-1.8018815;;-1.8933609;;-1.9600022;;-2.0024774;;-2.0281022;;-2.044526;;-2.055591;;-2.061951;;-2.0621281;;-2.0551649;;-2.0400107;;-2.0161303;;-1.9840815;;-1.9458038;;-1.9078887;;-1.8767819;;-1.8574974;;-1.8528313;;-1.8528313
-0.50339154;;-0.50339154;;-0.50339421;;-0.50342172;;-0.50355865;;-0.50412363;;-0.50557616;;-0.5075715;;-0.50962811;;-0.5110121;;-0.51164469;;-0.75592119;;-0.51389146;;-0.7619927;;-0.76600378;;-0.77022172;;-0.77329668;;-0.7750119;;-0.77571591;;-0.77648576;;-0.7779152;;-0.77956748;;-0.78110602;;-0.78212703;;-0.78292594;;-0.78367494;;-0.78440376;;-0.78575435;;-0.78830898;;-0.79414986;;-0.8041427;;-0.81184805;;-0.81240494;;-0.80394511;;-0.79093123;;-0.78338654;;-0.79230476;;-0.82601906;;-0.88825834;;-0.97782325;;-1.0928999;;-1.2269265;;-1.3715913;;-1.5157795;;-1.6383365;;-1.738946;;-1.8274547;;-1.9022888;;-1.9601635;;-2.00326;;-2.0375853;;-2.0666656;;-2.0906401;;-2.1072769;;-2.1135081;;-2.1074416;;-2.0884025;;-2.057314;;-2.0168511;;-1.9722827;;-1.932418;;-1.9025636;;-1.8862255;;-1.8826219;;-1.8826219
-0.50339166;;-0.50339166;;-0.50340002;;-0.5034863;;-0.50406161;;-0.50567326;;-0.50796945;;-0.51067626;;-0.51332288;;-0.51495698;;-0.75882702;;-0.75975556;;-0.76104087;;-0.76357444;;-0.76681476;;-0.77048469;;-0.77389796;;-0.77660813;;-0.77835047;;-0.77982129;;-0.78122584;;-0.7826226;;-0.78406072;;-0.78495042;;-0.78543073;;-0.78577101;;-0.78605389;;-0.78702347;;-0.79077314;;-0.80009864;;-0.80866817;;-0.81260788;;-0.80925662;;-0.79993025;;-0.79154565;;-0.79440207;;-0.81821098;;-0.86947256;;-0.94979653;;-1.0570006;;-1.1882221;;-1.334222;;-1.4833337;;-1.614323;;-1.7084501;;-1.7808179;;-1.8444437;;-1.9017735;;-1.9542081;;-2.0037923;;-2.0516508;;-2.0944942;;-2.1281456;;-2.1496863;;-2.1573472;;-2.1498271;;-2.1267223;;-2.0899362;;-2.0432553;;-1.9950356;;-1.9552401;;-1.92865;;-1.9166671;;-1.9151946;;-1.9151946
-0.50339235;;-0.50339235;;-0.5034156;;-0.50379978;;-0.50543327;;-0.50788441;;-0.51095822;;-0.51434256;;-0.51754792;;-0.76307264;;-0.76383688;;-0.76341324;;-0.76343055;;-0.76512719;;-0.7681087;;-0.77194225;;-0.77578032;;-0.77896211;;-0.78119908;;-0.78279583;;-0.78377158;;-0.78463176;;-0.78572785;;-0.78649038;;-0.78731466;;-0.78844641;;-0.79005586;;-0.79175721;;-0.79736922;;-0.80587836;;-0.81114582;;-0.81085586;;-0.805094;;-0.7982711;;-0.79892386;;-0.81659004;;-0.85934599;;-0.931454;;-1.0320667;;-1.158694;;-1.3050081;;-1.4583858;;-1.5993595;;-1.6997234;;-1.7636798;;-1.8117903;;-1.8563075;;-1.9039177;;-1.9584272;;-2.0189168;;-2.078928;;-2.1293494;;-2.1654048;;-2.185996;;-2.1920889;;-2.1829182;;-2.1581841;;-2.1191166;;-2.0702813;;-2.021941;;-1.9842912;;-1.9614647;;-1.9531929;;-1.9527231;;-1.9527232
-0.50339529;;-0.50339529;;-0.5035301;;-0.50492589;;-0.50733487;;-0.51049664;;-0.5142586;;-0.51829733;;-0.76582388;;-0.76884449;;-0.76832751;;-0.76577486;;-0.764359;;-0.76567824;;-0.76923808;;-0.77374435;;-0.77796004;;-0.781233;;-0.78350212;;-0.78513463;;-0.78575261;;-0.78650442;;-0.78818504;;-0.79054842;;-0.79358998;;-0.79653442;;-0.79888358;;-0.80054728;;-0.80411283;;-0.80931622;;-0.81026897;;-0.806622;;-0.80139405;;-0.80143827;;-0.81561191;;-0.8521136;;-0.91680491;;-1.0110394;;-1.13199;;-1.2753639;;-1.4301817;;-1.5771987;;-1.6865477;;-1.7523483;;-1.796008;;-1.8329956;;-1.8732701;;-1.9236291;;-1.9857499;;-2.0542799;;-2.1177438;;-2.166595;;-2.1984402;;-2.2153247;;-2.2196711;;-2.2108779;;-2.1879763;;-2.151013;;-2.1048038;;-2.0599528;;-2.0251461;;-2.0042628;;-1.9957307;;-1.9950412;;-1.9950413
-0.50341158;;-0.50341158;;-0.50422095;;-0.50639289;;-0.50943049;;-0.51322252;;-0.51757414;;-0.76594887;;-0.77156373;;-0.77355829;;-0.77107454;;-0.7672629;;-0.76525179;;-0.7667671;;-0.77095046;;-0.77588829;;-0.78009365;;-0.78300618;;-0.78502038;;-0.78684502;;-0.79019373;;-0.79371785;;-0.79656278;;-0.79958831;;-0.8028544;;-0.80585987;;-0.80770706;;-0.80784915;;-0.80714665;;-0.80787453;;-0.80510752;;-0.80061357;;-0.80004194;;-0.81170035;;-0.84355282;;-0.9018234;;-0.98960007;;-1.105406;;-1.2441596;;-1.3975097;;-1.5468497;;-1.6605669;;-1.7284613;;-1.7739335;;-1.8137479;;-1.8565237;;-1.9069238;;-1.9670204;;-2.0343257;;-2.1014778;;-2.1580809;;-2.1984045;;-2.2235407;;-2.2373015;;-2.2415311;;-2.2355284;;-2.2177502;;-2.1872576;;-2.1480232;;-2.1083206;;-2.0755776;;-2.0537543;;-2.0418602;;-2.0384955;;-2.0384956
-0.50360956;;-0.50360956;;-0.5053223;;-0.50804699;;-0.51160681;;-0.5159272;;-0.52075119;;-0.77075406;;-0.77662;;-0.77635516;;-0.7729918;;-0.76940462;;-0.76784146;;-0.76971746;;-0.77370055;;-0.77840709;;-0.78221262;;-0.78469263;;-0.78841973;;-0.79369793;;-0.79877542;;-0.80291108;;-0.80572903;;-0.80848913;;-0.81127406;;-0.81321885;;-0.81319487;;-0.81009657;;-0.80354796;;-0.7992082;;-0.7950301;;-0.79392133;;-0.80313415;;-0.83116786;;-0.88397473;;-0.96531675;;-1.0754675;;-1.2101843;;-1.3613474;;-1.5122272;;-1.6306622;;-1.6983357;;-1.7430349;;-1.7864158;;-1.8375569;;-1.8965495;;-1.9605721;;-2.0263879;;-2.0898443;;-2.1459729;;-2.1898071;;-2.2200352;;-2.2394304;;-2.251605;;-2.2573536;;-2.2559272;;-2.2455334;;-2.2241986;;-2.1945124;;-2.16113;;-2.1297287;;-2.1052025;;-2.0882899;;-2.0813495;;-2.0813496
-0.50449088;;-0.50449088;;-0.50671744;;-0.50995934;;-0.51407089;;-0.51891621;;-0.76870575;;-0.77665424;;-0.78163903;;-0.7793834;;-0.77544642;;-0.77236119;;-0.77165717;;-0.77393261;;-0.77764168;;-0.78141752;;-0.78479049;;-0.79011007;;-0.79653434;;-0.80322212;;-0.8088427;;-0.81245385;;-0.81387634;;-0.81482042;;-0.81585384;;-0.8158491;;-0.81309158;;-0.8059464;;-0.79372382;;-0.78415481;;-0.78186692;;-0.7892245;;-0.81324865;;-0.86123016;;-0.93634394;;-1.039989;;-1.1697444;;-1.3178443;;-1.4702037;;-1.5983544;;-1.6743866;;-1.719734;;-1.761767;;-1.8158295;;-1.8829494;;-1.9555553;;-2.0252296;;-2.0863483;;-2.1371395;;-2.1774839;;-2.2079991;;-2.2301968;;-2.2462522;;-2.258308;;-2.2663184;;-2.2700112;;-2.2676858;;-2.2566261;;-2.2375866;;-2.2115126;;-2.1829988;;-2.1559997;;-2.134683;;-2.1239634;;-2.1239635
-0.50567513;;-0.50567513;;-0.50821105;;-0.51187791;;-0.51650141;;-0.52189056;;-0.77337984;;-0.78290419;;-0.7869749;;-0.78353344;;-0.77920034;;-0.77647352;;-0.77647648;;-0.77886941;;-0.78211919;;-0.78557068;;-0.7918238;;-0.79946742;;-0.80681372;;-0.81334622;;-0.81809257;;-0.81993202;;-0.81877768;;-0.81709222;;-0.81597488;;-0.81390715;;-0.80836194;;-0.79763507;;-0.78195137;;-0.76921027;;-0.77124902;;-0.79085211;;-0.83267425;;-0.90146335;;-0.99760072;;-1.1200075;;-1.2632452;;-1.4149062;;-1.5528766;;-1.6472903;;-1.7062263;;-1.7534786;;-1.8062222;;-1.872368;;-1.9476861;;-2.0217489;;-2.085208;;-2.133644;;-2.1688188;;-2.1944374;;-2.2143277;;-2.2308526;;-2.2451668;;-2.2577743;;-2.268122;;-2.2767729;;-2.28173;;-2.2809054;;-2.2724573;;-2.2551283;;-2.2319037;;-2.2053353;;-2.181662;;-2.1676056;;-2.1676057
-0.50668238;;-0.50668238;;-0.50944759;;-0.5134424;;-0.5184737;;-0.52432003;;-0.77724098;;-0.78793405;;-0.79186525;;-0.78785294;;-0.78343095;;-0.78107403;;-0.78180221;;-0.78416539;;-0.78730962;;-0.79376508;;-0.80206632;;-0.81046746;;-0.81711317;;-0.8220725;;-0.82512099;;-0.82455411;;-0.82021089;;-0.81565412;;-0.81261139;;-0.80934645;;-0.80261501;;-0.79079862;;-0.77599735;;-0.76521507;;-0.77239585;;-0.80395287;;-0.86234673;;-0.94902452;;-1.0618916;;-1.1966421;;-1.3446509;;-1.4876692;;-1.5995706;;-1.6796888;;-1.7445861;;-1.8069876;;-1.8736376;;-1.9450055;;-2.015739;;-2.0786966;;-2.1283889;;-2.1630546;;-2.1855422;;-2.2005718;;-2.2128013;;-2.2248965;;-2.2384075;;-2.2514804;;-2.263812;;-2.2764346;;-2.2878651;;-2.2959718;;-2.2975905;;-2.2900935;;-2.2748848;;-2.2519696;;-2.2286055;;-2.2120861;;-2.2120862
-0.50747114;;-0.50747114;;-0.51039745;;-0.51462158;;-0.51993468;;-0.52608964;;-0.77990116;;-0.79137776;;-0.79532772;;-0.79131143;;-0.78715976;;-0.78530621;;-0.7866369;;-0.78963565;;-0.79618242;;-0.80488337;;-0.81384405;;-0.82075751;;-0.82582799;;-0.82927979;;-0.830677;;-0.8275873;;-0.82008505;;-0.81330218;;-0.81000202;;-0.80800527;;-0.80307989;;-0.79382882;;-0.7840927;;-0.78142063;;-0.79606044;;-0.83543826;;-0.90328626;;-0.99996065;;-1.1216142;;-1.2592321;;-1.4001162;;-1.5244187;;-1.6237885;;-1.7083135;;-1.787871;;-1.8670369;;-1.9434978;;-2.012243;;-2.0701467;;-2.1169371;;-2.1527455;;-2.1774295;;-2.1921843;;-2.200633;;-2.2071844;;-2.2153674;;-2.2273377;;-2.2407123;;-2.2547755;;-2.270546;;-2.2870484;;-2.3028;;-2.3136771;;-2.3165704;;-2.3104003;;-2.2936563;;-2.2725961;;-2.2549231;;-2.2549231
-0.50820358;;-0.50820358;;-0.51125696;;-0.51565614;;-0.52117142;;-0.52751662;;-0.78203624;;-0.79354912;;-0.79739072;;-0.79402246;;-0.79048053;;-0.78934831;;-0.79180236;;-0.79854868;;-0.80738516;;-0.81674467;;-0.82474888;;-0.82987024;;-0.83345626;;-0.83597988;;-0.83629949;;-0.83194477;;-0.82299833;;-0.81612228;;-0.81510349;;-0.81721519;;-0.81731913;;-0.81412094;;-0.81277354;;-0.82174316;;-0.8475522;;-0.89433191;;-0.96399798;;-1.0582724;;-1.1739856;;-1.2988572;;-1.4218775;;-1.5361325;;-1.6380445;;-1.730501;;-1.821344;;-1.9122184;;-1.994649;;-2.0590077;;-2.1048245;;-2.1383042;;-2.1639819;;-2.1825666;;-2.1931597;;-2.1976651;;-2.2000797;;-2.2049508;;-2.214627;;-2.2274234;;-2.2428387;;-2.2610703;;-2.2814211;;-2.3031316;;-2.3218528;;-2.3345056;;-2.3374438;;-2.3280243;;-2.3111827;;-2.2936684;;-2.2936684
-0.5088933;;-0.5088933;;-0.51205419;;-0.51659681;;-0.52226658;;-0.52872662;;-0.78390034;;-0.79552854;;-0.7991678;;-0.79664683;;-0.79406558;;-0.79432673;;-0.80097432;;-0.80958391;;-0.81930262;;-0.8279493;;-0.83411035;;-0.83806716;;-0.84134025;;-0.84452113;;-0.84611212;;-0.84294429;;-0.83520019;;-0.83049598;;-0.83385493;;-0.84216953;;-0.84957929;;-0.85465602;;-0.86356913;;-0.88511799;;-0.92433069;;-0.98078893;;-1.051924;;-1.135096;;-1.2258908;;-1.3251941;;-1.4356095;;-1.5486665;;-1.6505491;;-1.7400327;;-1.8311208;;-1.9285392;;-2.0182148;;-2.0840219;;-2.124844;;-2.1507093;;-2.1696051;;-2.1834802;;-2.1908891;;-2.192577;;-2.1920182;;-2.1943106;;-2.2017718;;-2.2134601;;-2.2296816;;-2.2496002;;-2.2732453;;-2.2993919;;-2.3243019;;-2.3450846;;-2.3563768;;-2.3544596;;-2.3423465;;-2.3265552;;-2.3265553
-0.50957737;;-0.50957737;;-0.5128472;;-0.51753628;;-0.5233657;;-0.52994832;;-0.78612016;;-0.79839648;;-0.80188103;;-0.80018799;;-0.79857218;;-0.80332537;;-0.81245383;;-0.82174591;;-0.83060994;;-0.83805653;;-0.84323438;;-0.84794319;;-0.85327052;;-0.8594287;;-0.86491148;;-0.86538832;;-0.86049687;;-0.85942102;;-0.86808995;;-0.88323731;;-0.8985755;;-0.9132757;;-0.93356028;;-0.96790077;;-1.0200366;;-1.0868773;;-1.1598849;;-1.2288336;;-1.294643;;-1.3764104;;-1.4797852;;-1.58676;;-1.6741012;;-1.743208;;-1.8218743;;-1.9210299;;-2.0207995;;-2.0952166;;-2.1379482;;-2.1602678;;-2.1736759;;-2.1823214;;-2.1860037;;-2.1854567;;-2.1830594;;-2.1836649;;-2.1892205;;-2.1999314;;-2.2164669;;-2.2377672;;-2.2637009;;-2.2932333;;-2.3227495;;-2.3501323;;-2.3687438;;-2.3741639;;-2.3672084;;-2.3538751;;-2.3538752
-0.51069371;;-0.51069371;;-0.51415548;;-0.51910958;;-0.52524453;;-0.77823596;;-0.79052755;;-0.80317432;;-0.80633362;;-0.80492864;;-0.80568044;;-0.81466815;;-0.82441767;;-0.83334342;;-0.84146372;;-0.84905987;;-0.85555757;;-0.86275223;;-0.87213002;;-0.88388178;;-0.89603783;;-0.90143625;;-0.89966107;;-0.90159018;;-0.91394514;;-0.93409714;;-0.95695486;;-0.98263137;;-1.0164497;;-1.0646464;;-1.1292911;;-1.2045064;;-1.276604;;-1.3336487;;-1.3861851;;-1.4614073;;-1.5620065;;-1.6595092;;-1.7242965;;-1.7644845;;-1.8226229;;-1.9162559;;-2.0211186;;-2.1024528;;-2.147734;;-2.1673614;;-2.1754593;;-2.1786179;;-2.1786448;;-2.1760935;;-2.1728785;;-2.1728528;;-2.1774641;;-2.1879346;;-2.2047454;;-2.2268084;;-2.2544369;;-2.2862412;;-2.3193264;;-2.3515501;;-2.376382;;-2.3885515;;-2.3873859;;-2.3765032;;-2.3765032
-0.51256459;;-0.51256459;;-0.51635296;;-0.52176003;;-0.77363272;;-0.78365643;;-0.79750872;;-0.80970368;;-0.81178385;;-0.8102645;;-0.8162278;;-0.82637809;;-0.83530725;;-0.84440619;;-0.85394476;;-0.86335842;;-0.87297337;;-0.88471319;;-0.89983736;;-0.91943556;;-0.93841459;;-0.94819945;;-0.94847731;;-0.9509725;;-0.96240629;;-0.9831375;;-1.0130156;;-1.0527164;;-1.1035437;;-1.1675481;;-1.2442735;;-1.3250924;;-1.3936977;;-1.4413919;;-1.4872515;;-1.5619111;;-1.6635787;;-1.7561244;;-1.8063701;;-1.8260814;;-1.8634924;;-1.9411805;;-2.0366148;;-2.1130421;;-2.1547667;;-2.1701999;;-2.173624;;-2.172542;;-2.1697729;;-2.1660884;;-2.1631463;;-2.1634282;;-2.1680057;;-2.1787522;;-2.1958309;;-2.218186;;-2.2467007;;-2.2796897;;-2.3151606;;-2.3508178;;-2.3807173;;-2.3991509;;-2.4036954;;-2.3963951;;-2.3963952
-0.51493475;;-0.51493475;;-0.5191283;;-0.52509249;;-0.77812876;;-0.7904688;;-0.80514173;;-0.81572697;;-0.816481;;-0.81694583;;-0.82677738;;-0.83732939;;-0.84654411;;-0.85716681;;-0.86936199;;-0.88218435;;-0.89640948;;-0.91403805;;-0.93634282;;-0.96301361;;-0.9865885;;-0.99779107;;-0.99760788;;-0.99682949;;-1.004265;;-1.025438;;-1.063814;;-1.118674;;-1.1875525;;-1.2686103;;-1.3575963;;-1.4434929;;-1.5097945;;-1.5507293;;-1.5915517;;-1.664968;;-1.7673911;;-1.8598343;;-1.9080899;;-1.9217414;;-1.9445148;;-1.9994027;;-2.0706318;;-2.1286094;;-2.1595757;;-2.1694983;;-2.1695694;;-2.1663965;;-2.1625016;;-2.1587254;;-2.1567434;;-2.1579824;;-2.1631473;;-2.1744481;;-2.1912975;;-2.2134086;;-2.241774;;-2.2748019;;-2.3112946;;-2.348763;;-2.3822142;;-2.4060435;;-2.417112;;-2.4144261;;-2.4144262
-0.51721889;;-0.51721889;;-0.52178246;;-0.52824291;;-0.78242513;;-0.7965898;;-0.81127445;;-0.81915709;;-0.81911833;;-0.82558159;;-0.83708885;;-0.84803489;;-0.85886279;;-0.87292356;;-0.88886427;;-0.90619705;;-0.92525179;;-0.94844269;;-0.97640033;;-1.0070088;;-1.030047;;-1.0391878;;-1.0382821;;-1.0359001;;-1.0424466;;-1.0665307;;-1.1120991;;-1.1779356;;-1.2613762;;-1.3587066;;-1.4623182;;-1.5585066;;-1.6299438;;-1.6721449;;-1.710756;;-1.7776522;;-1.8716586;;-1.9582036;;-2.006632;;-2.0221945;;-2.0366263;;-2.0688595;;-2.1112289;;-2.1457458;;-2.1636748;;-2.1684994;;-2.1672471;;-2.1639733;;-2.1604699;;-2.1575542;;-2.1566815;;-2.1585642;;-2.1643259;;-2.1757231;;-2.1918312;;-2.2131847;;-2.2404514;;-2.2722696;;-2.3083229;;-2.3462145;;-2.3815737;;-2.4097805;;-2.4268954;;-2.4297615;;-2.4297615
-0.51874063;;-0.51874063;;-0.5235235;;-0.53026268;;-0.78507394;;-0.79980929;;-0.81437045;;-0.81976804;;-0.82129135;;-0.83369528;;-0.84740309;;-0.85956484;;-0.87353457;;-0.89180987;;-0.91203067;;-0.933499;;-0.95681521;;-0.98359425;;-1.0134639;;-1.041916;;-1.0616247;;-1.070597;;-1.0720255;;-1.0726381;;-1.0826631;;-1.1095229;;-1.1550514;;-1.2210308;;-1.3105552;;-1.4221474;;-1.5456582;;-1.6622708;;-1.7510163;;-1.805174;;-1.8459865;;-1.9015082;;-1.9746092;;-2.0421329;;-2.0828019;;-2.0988383;;-2.1087507;;-2.1247152;;-2.1447972;;-2.1610708;;-2.1694043;;-2.1714256;;-2.1704691;;-2.1686093;;-2.1663333;;-2.1644007;;-2.1642927;;-2.1664922;;-2.1723557;;-2.1829227;;-2.1977927;;-2.2177701;;-2.2430854;;-2.272717;;-2.3070972;;-2.3436492;;-2.3791955;;-2.410098;;-2.4324181;;-2.4410173;;-2.4410173
-0.51896479;;-0.51896479;;-0.52373753;;-0.53043895;;-0.78516334;;-0.79971037;;-0.81379281;;-0.81843286;;-0.82721041;;-0.84268597;;-0.8588281;;-0.87374423;;-0.89157877;;-0.91393345;;-0.93857305;;-0.96424531;;-0.99084318;;-1.0187076;;-1.0453723;;-1.0678867;;-1.0855198;;-1.0975698;;-1.1050639;;-1.1133925;;-1.1305165;;-1.1582922;;-1.1946949;;-1.2470679;;-1.332983;;-1.4555224;;-1.6017468;;-1.7455155;;-1.8590846;;-1.9297085;;-1.9739778;;-2.0157588;;-2.0623903;;-2.1041583;;-2.1308444;;-2.1435644;;-2.1508598;;-2.1588311;;-2.1676398;;-2.1748411;;-2.1790168;;-2.1808452;;-2.1812357;;-2.1810016;;-2.1802393;;-2.1794942;;-2.1798303;;-2.1817592;;-2.1869092;;-2.1960614;;-2.2093117;;-2.2275429;;-2.2501008;;-2.2768569;;-2.3081506;;-2.3420279;;-2.3759265;;-2.407716;;-2.4334869;;-2.4469454;;-2.4469454
-0.51793152;;-0.51793152;;-0.52247346;;-0.52883656;;-0.78287208;;-0.7968132;;-0.81008467;;-0.81762185;;-0.83377534;;-0.8527022;;-0.87188748;;-0.89052316;;-0.91351877;;-0.94016836;;-0.96986839;;-0.99977807;;-1.0290785;;-1.0550538;;-1.0742064;;-1.0912422;;-1.110168;;-1.1288614;;-1.1466374;;-1.1666968;;-1.1937477;;-1.2233589;;-1.2491492;;-1.2836085;;-1.3612058;;-1.4894942;;-1.650456;;-1.8131994;;-1.9440422;;-2.0242062;;-2.0679155;;-2.0968042;;-2.1218572;;-2.1430777;;-2.1578191;;-2.1668157;;-2.1732082;;-2.1791969;;-2.1850773;;-2.1901958;;-2.194234;;-2.1970669;;-2.1991389;;-2.2005141;;-2.2012162;;-2.2016548;;-2.2024617;;-2.2041645;;-2.2082705;;-2.2156032;;-2.2267135;;-2.2423347;;-2.261686;;-2.2848558;;-2.31196;;-2.3417586;;-2.3727587;;-2.4035899;;-2.4309169;;-2.4480546;;-2.4480546
-0.51610319;;-0.51610319;;-0.52027243;;-0.52610362;;-0.77906979;;-0.79227993;;-0.80672849;;-0.82178853;;-0.84217142;;-0.86401525;;-0.88607085;;-0.90942102;;-0.93780551;;-0.97049481;;-1.0053705;;-1.040015;;-1.0708943;;-1.0920367;;-1.1029197;;-1.1180491;;-1.1428402;;-1.1733043;;-1.2064086;;-1.2424588;;-1.2815927;;-1.3165125;;-1.340673;;-1.3690106;;-1.4380928;;-1.5616203;;-1.7214111;;-1.8829543;;-2.009968;;-2.0847844;;-2.1219309;;-2.1414788;;-2.1550626;;-2.1662814;;-2.1755038;;-2.1832104;;-2.1901971;;-2.1969764;;-2.203503;;-2.2095317;;-2.2148996;;-2.219444;;-2.2230449;;-2.2259325;;-2.2278813;;-2.2294721;;-2.2308833;;-2.2325924;;-2.2358442;;-2.2413311;;-2.2499768;;-2.2622307;;-2.2775812;;-2.2962398;;-2.3182336;;-2.3428456;;-2.369271;;-2.3977781;;-2.425277;;-2.4448507;;-2.4448507
