-14.08088;;-14.08088;;-14.104331;;-15.177965;;-17.374124;;-20.460527;;-24.486449;;-29.585206;;-35.849306;;-43.363297;;-52.360477;;-62.332195;;-72.974357;;-83.134679;;-91.407115;;-101.41876;;-116.30927;;-137.07174;;-164.41667;;-198.93333;;-241.12971;;-290.63426;;-346.45932;;-407.56475;;-472.84376;;-541.34598;;-611.49095;;-680.57272;;-745.2189;;-802.77219;;-852.87355;;-897.42824;;-938.66335;;-977.25408;;-1012.4783;;-1043.8761;;-1071.9666;;-1097.3597;;-1120.1279;;-1140.1831;;-1157.5513;;-1172.2909;;-1184.5859;;-1194.7865;;-1203.2294;;-1210.3589;;-1217.1064;;-1224.7426;;-1234.0687;;-1244.8728;;-1256.2416;;-1267.0522;;-1276.0099;;-1281.8544;;-1284.2258;;-1284.1579;;-1283.1544;;-1282.0079;;-1281.1953;;-1281.6179;;-1283.547;;-1285.6827;;-1286.6499;;-1286.6477;;-1286.6477
-14.080924;;-14.080924;;-14.151712;;-15.515569;;-17.892487;;-21.169907;;-25.426275;;-30.810303;;-37.418257;;-45.35177;;-54.849966;;-65.394945;;-76.658098;;-87.399262;;-95.97988;;-106.99425;;-123.87561;;-146.9919;;-176.69649;;-213.47959;;-257.65778;;-308.36334;;-364.55454;;-424.90554;;-488.51452;;-554.80466;;-622.30148;;-688.49617;;-750.31571;;-805.0932;;-852.3789;;-894.54438;;-934.46553;;-972.97432;;-1009.1879;;-1042.4565;;-1072.8058;;-1099.9828;;-1123.35;;-1142.6364;;-1158.141;;-1170.4717;;-1180.472;;-1189.0308;;-1196.7895;;-1204.3491;;-1212.6032;;-1222.3483;;-1233.5832;;-1245.484;;-1256.9782;;-1267.0787;;-1274.8335;;-1279.5827;;-1281.6391;;-1282.4092;;-1283.3293;;-1284.7594;;-1286.3116;;-1287.7527;;-1288.7735;;-1288.6131;;-1287.1058;;-1285.5642;;-1285.5642
-14.080986;;-14.080986;;-14.202685;;-15.713427;;-18.19408;;-21.582205;;-25.972724;;-31.524138;;-38.337839;;-46.527055;;-56.340977;;-67.268691;;-79.004957;;-90.373538;;-99.992762;;-113.31771;;-133.13504;;-159.4178;;-192.36373;;-232.33218;;-278.8864;;-331.09395;;-387.48666;;-446.42346;;-507.26104;;-569.68308;;-632.46453;;-693.8203;;-751.48268;;-803.02498;;-847.88404;;-888.52594;;-927.96645;;-966.83655;;-1004.067;;-1039.0669;;-1071.6616;;-1100.8438;;-1125.1298;;-1143.8567;;-1157.5439;;-1167.522;;-1175.4958;;-1182.8865;;-1190.4361;;-1198.7117;;-1208.5359;;-1220.3243;;-1233.3282;;-1246.0036;;-1256.9753;;-1265.524;;-1271.5025;;-1275.2345;;-1277.6031;;-1279.8727;;-1282.915;;-1286.5364;;-1289.7945;;-1291.7391;;-1291.4995;;-1288.4415;;-1283.4241;;-1279.4298;;-1279.4298
-14.080969;;-14.080969;;-14.18901;;-15.66644;;-18.12216;;-21.48378;;-25.843289;;-31.358526;;-38.136306;;-46.293286;;-56.094627;;-67.063052;;-78.991585;;-91.016705;;-102.91711;;-119.9857;;-143.45335;;-173.42971;;-210.1544;;-253.2781;;-302.09022;;-355.32871;;-410.96461;;-467.3177;;-524.2025;;-581.4541;;-638.23892;;-693.79336;;-746.91231;;-795.62511;;-839.23275;;-879.77893;;-919.73045;;-959.24316;;-997.16126;;-1033.1625;;-1067.1788;;-1097.788;;-1122.8348;;-1141.2695;;-1153.806;;-1162.4276;;-1169.5326;;-1176.8875;;-1185.1794;;-1194.7473;;-1206.1738;;-1219.5642;;-1233.7079;;-1246.5431;;-1256.4407;;-1263.0665;;-1267.269;;-1270.3095;;-1273.2834;;-1276.9801;;-1281.653;;-1286.7183;;-1290.9696;;-1293.032;;-1291.4035;;-1285.0779;;-1275.6677;;-1268.3715;;-1268.3715
-14.080917;;-14.080917;;-14.142187;;-15.463568;;-17.810586;;-21.056501;;-25.277534;;-30.624379;;-37.210942;;-45.153498;;-54.741522;;-65.56008;;-77.584492;;-90.550942;;-106.08854;;-127.05949;;-154.12227;;-187.68247;;-227.68655;;-273.34631;;-323.67618;;-376.70677;;-429.98314;;-482.49133;;-534.83218;;-587.01505;;-638.51016;;-689.22819;;-738.75065;;-785.71533;;-829.41833;;-871.0225;;-911.86116;;-951.60085;;-989.31696;;-1025.1144;;-1059.1797;;-1090.0684;;-1115.3718;;-1133.8344;;-1146.2888;;-1155.0554;;-1162.783;;-1171.312;;-1181.2552;;-1192.6632;;-1205.6528;;-1219.9591;;-1234.2575;;-1246.5149;;-1255.2446;;-1260.5475;;-1263.8869;;-1266.8194;;-1270.2308;;-1274.5822;;-1279.9889;;-1285.8006;;-1290.6072;;-1292.5823;;-1289.4636;;-1279.5957;;-1265.2302;;-1254.1164;;-1254.1164
-14.080904;;-14.080904;;-14.116109;;-15.277753;;-17.519536;;-20.652123;;-24.736747;;-29.918048;;-36.321007;;-44.256399;;-53.479354;;-64.244974;;-76.628517;;-91.259148;;-109.88879;;-133.70497;;-163.44782;;-199.56316;;-241.49459;;-288.50873;;-338.98283;;-390.26835;;-440.09879;;-488.74822;;-537.5859;;-586.77025;;-635.70699;;-684.14426;;-731.89638;;-778.3003;;-822.84928;;-865.69135;;-906.83509;;-945.64719;;-981.80308;;-1015.9649;;-1048.6276;;-1078.6735;;-1103.8873;;-1122.8991;;-1136.3676;;-1146.5496;;-1156.0216;;-1166.5372;;-1178.6398;;-1192.0759;;-1206.3243;;-1220.6545;;-1233.9613;;-1244.9534;;-1252.8772;;-1258.193;;-1262.1985;;-1265.8712;;-1269.5898;;-1273.8229;;-1279.0488;;-1284.8274;;-1289.5997;;-1291.1085;;-1286.4537;;-1273.5117;;-1255.1166;;-1240.9897;;-1240.9897
-14.080973;;-14.080973;;-14.114122;;-15.21943;;-17.411525;;-20.482276;;-24.487227;;-29.568204;;-35.859788;;-43.684607;;-52.837299;;-63.682922;;-76.575733;;-92.493428;;-112.55162;;-137.67934;;-168.62041;;-205.46228;;-247.69983;;-294.3865;;-343.51653;;-392.39825;;-439.68486;;-486.59115;;-534.71598;;-584.16684;;-633.87919;;-682.78928;;-730.40532;;-776.65384;;-821.49715;;-864.4949;;-904.70233;;-941.39249;;-974.91284;;-1006.4709;;-1036.8938;;-1065.5909;;-1090.7714;;-1110.871;;-1125.9993;;-1138.0735;;-1149.5864;;-1162.2573;;-1176.5293;;-1191.7803;;-1206.8223;;-1220.5243;;-1232.2589;;-1241.9149;;-1249.7731;;-1256.435;;-1262.3915;;-1267.5379;;-1271.6837;;-1275.4411;;-1279.7509;;-1284.5327;;-1288.3461;;-1288.8594;;-1283.1072;;-1269.1389;;-1250.0891;;-1235.7266;;-1235.7266
-14.08134;;-14.08134;;-14.135753;;-15.304833;;-17.492879;;-20.529111;;-24.46909;;-29.447282;;-35.771486;;-43.205146;;-52.111552;;-62.702306;;-75.442716;;-91.286693;;-111.19799;;-136.01327;;-166.41083;;-202.32962;;-243.3246;;-288.45317;;-335.89563;;-383.55175;;-430.82086;;-478.99057;;-529.39351;;-581.88161;;-634.75015;;-685.82427;;-733.87436;;-779.20344;;-822.65763;;-864.10954;;-902.3661;;-936.6237;;-967.5445;;-996.679;;-1025.1507;;-1052.8089;;-1078.1722;;-1099.4123;;-1116.0262;;-1129.572;;-1142.5634;;-1156.8143;;-1172.6809;;-1189.1838;;-1204.6887;;-1217.9842;;-1228.9904;;-1238.497;;-1247.4123;;-1256.1675;;-1264.3712;;-1271.0287;;-1275.5943;;-1278.7604;;-1281.7272;;-1284.7973;;-1286.9537;;-1286.2681;;-1280.4387;;-1268.3627;;-1252.9704;;-1241.7631;;-1241.7631
-14.082847;;-14.082847;;-14.240436;;-15.625755;;-17.869838;;-20.888331;;-24.738332;;-29.526729;;-35.504582;;-42.427429;;-50.57999;;-60.064603;;-71.262148;;-85.371822;;-103.61433;;-126.76137;;-155.40808;;-189.60717;;-228.91307;;-272.63958;;-319.41371;;-367.66488;;-416.97373;;-468.32809;;-522.67774;;-579.49146;;-636.32628;;-689.81039;;-737.79124;;-780.89412;;-821.3392;;-860.2016;;-896.5621;;-929.30239;;-958.82588;;-986.73094;;-1014.3372;;-1041.6389;;-1067.145;;-1088.8339;;-1105.9411;;-1119.8787;;-1133.2018;;-1147.861;;-1164.2442;;-1181.2331;;-1197.1657;;-1211.1467;;-1223.4751;;-1234.982;;-1246.2639;;-1257.262;;-1267.1098;;-1274.5937;;-1279.2092;;-1281.7231;;-1283.4437;;-1284.9793;;-1285.7457;;-1284.3719;;-1279.5451;;-1271.1999;;-1261.627;;-1255.0728;;-1255.0728
-14.091382;;-14.091382;;-14.673722;;-16.386442;;-18.831505;;-21.969635;;-25.826023;;-30.37381;;-35.854157;;-41.952043;;-48.905121;;-56.635268;;-65.220245;;-76.520558;;-92.39235;;-113.22811;;-139.47199;;-171.47985;;-208.93518;;-251.57529;;-298.55498;;-348.54936;;-400.7744;;-455.82578;;-514.38732;;-575.43381;;-635.66489;;-690.61173;;-737.43173;;-777.34875;;-814.27963;;-850.83298;;-886.48483;;-919.47164;;-949.36995;;-977.44467;;-1005.0798;;-1032.2784;;-1057.4176;;-1078.4581;;-1094.7803;;-1107.8799;;-1120.3083;;-1134.1296;;-1149.951;;-1166.8456;;-1183.4363;;-1199.239;;-1214.6283;;-1229.8005;;-1244.3536;;-1257.5298;;-1268.373;;-1276.0235;;-1280.3688;;-1282.386;;-1283.5397;;-1284.6217;;-1285.1891;;-1284.1772;;-1281.0228;;-1276.3223;;-1271.6568;;-1268.7855;;-1268.7855
-14.219021;;-14.219021;;-15.50437;;-17.601044;;-20.375021;;-23.811607;;-27.813587;;-32.477212;;-37.246983;;-42.12546;;-47.497538;;-53.319937;;-59.185164;;-67.429266;;-81.05707;;-99.675102;;-123.54786;;-153.2144;;-188.66907;;-229.99044;;-276.90649;;-328.53264;;-383.80376;;-442.58518;;-505.00313;;-569.34152;;-631.44969;;-686.1285;;-730.53114;;-766.91467;;-800.79717;;-836.12786;;-872.68082;;-907.83286;;-939.84677;;-969.12678;;-996.94205;;-1023.5209;;-1047.4636;;-1067.006;;-1081.8191;;-1093.4517;;-1104.3335;;-1116.6319;;-1131.384;;-1148.1154;;-1165.6942;;-1183.6747;;-1202.237;;-1221.0289;;-1238.826;;-1254.1966;;-1266.0732;;-1273.9832;;-1278.2899;;-1280.3222;;-1281.7997;;-1283.5933;;-1285.16;;-1285.4624;;-1284.2121;;-1282.1056;;-1280.1766;;-1279.1154;;-1279.1154
-14.934571;;-14.934571;;-16.643513;;-19.141783;;-22.327331;;-26.132238;;-30.426015;;-35.153141;;-39.339849;;-42.502561;;-46.147853;;-50.394126;;-54.283492;;-59.720018;;-71.519749;;-88.279077;;-110.11588;;-137.60318;;-171.0753;;-210.81359;;-257.05863;;-309.52872;;-367.4199;;-429.75782;;-495.36831;;-561.57423;;-623.58035;;-676.08574;;-717.03743;;-749.94048;;-781.51572;;-816.6349;;-855.2602;;-893.87472;;-929.14807;;-960.17746;;-987.91844;;-1013.1355;;-1035.2493;;-1053.1791;;-1066.838;;-1077.4849;;-1087.1523;;-1098.0908;;-1111.935;;-1128.7579;;-1147.405;;-1166.979;;-1187.392;;-1208.3734;;-1228.6412;;-1246.3175;;-1259.898;;-1268.8648;;-1273.8541;;-1276.5413;;-1278.8818;;-1281.7984;;-1284.7328;;-1286.6841;;-1287.3;;-1286.9412;;-1286.2402;;-1285.7523;;-1285.7523
-16.009765;;-16.009765;;-17.975934;;-20.819196;;-24.405819;;-28.597091;;-33.224615;;-38.035097;;-41.384569;;-42.761064;;-45.009548;;-48.25161;;-51.086118;;-54.051699;;-64.376445;;-79.640955;;-99.831238;;-125.5277;;-157.33692;;-195.64427;;-241.05924;;-293.74817;;-353.23587;;-418.12005;;-485.82429;;-552.33397;;-612.37188;;-661.33407;;-698.53425;;-728.50856;;-758.61324;;-794.16725;;-835.1487;;-877.23881;;-915.67388;;-948.32736;;-975.82094;;-999.51909;;-1019.944;;-1036.9639;;-1050.6371;;-1061.5442;;-1071.0253;;-1081.348;;-1094.7285;;-1111.6863;;-1130.8994;;-1150.9511;;-1171.6675;;-1193.3584;;-1215.2447;;-1235.2367;;-1251.1827;;-1262.1029;;-1268.5701;;-1272.3814;;-1275.5782;;-1279.2132;;-1283.0459;;-1286.3564;;-1288.6365;;-1289.6983;;-1289.7737;;-1289.5183;;-1289.5183
-17.03509;;-17.03509;;-19.204039;;-22.329248;;-26.248327;;-30.765358;;-35.658131;;-40.478899;;-42.767926;;-42.87726;;-44.238538;;-46.975741;;-49.498199;;-50.748512;;-59.757408;;-73.84564;;-92.821335;;-117.21909;;-147.83529;;-185.09014;;-229.74129;;-282.18101;;-342.11004;;-408.02062;;-476.52294;;-542.16617;;-599.23672;;-644.5455;;-678.90759;;-707.34783;;-737.14272;;-773.4692;;-816.09984;;-860.18342;;-900.2181;;-933.55421;;-960.73361;;-983.51307;;-1003.2161;;-1020.4602;;-1035.2882;;-1047.5031;;-1057.7446;;-1068.2055;;-1081.4031;;-1098.1007;;-1116.9936;;-1136.566;;-1156.7748;;-1178.4393;;-1201.2598;;-1223.1396;;-1241.5016;;-1254.8632;;-1263.3986;;-1268.6148;;-1272.433;;-1276.1456;;-1280.125;;-1284.1968;;-1287.8165;;-1290.2322;;-1291.1657;;-1291.2331;;-1291.2331
-17.858063;;-17.858063;;-20.170235;;-23.491917;;-27.635425;;-32.354703;;-37.369139;;-42.063137;;-43.429644;;-42.979084;;-43.876363;;-46.346289;;-48.925528;;-49.720199;;-57.169686;;-70.279289;;-88.368408;;-111.84503;;-141.51763;;-177.91964;;-221.77088;;-273.58056;;-333.14887;;-398.99273;;-467.42441;;-532.01278;;-586.75051;;-630.01952;;-663.76829;;-692.82988;;-723.59577;;-760.53136;;-803.18754;;-846.78481;;-886.07417;;-918.72836;;-945.48982;;-968.18381;;-988.29744;;-1006.6188;;-1023.008;;-1036.7852;;-1048.1961;;-1059.2167;;-1072.2504;;-1088.2028;;-1106.2044;;-1125.0944;;-1144.8623;;-1166.2897;;-1189.2577;;-1211.994;;-1232.083;;-1247.7851;;-1258.6231;;-1265.4218;;-1269.7901;;-1273.2371;;-1276.789;;-1280.9868;;-1285.5112;;-1289.1646;;-1291.0503;;-1291.5506;;-1291.5506
-18.555851;;-18.555851;;-20.967798;;-24.421133;;-28.702228;;-33.513299;;-38.690927;;-42.874412;;-43.784949;;-43.416432;;-44.150872;;-46.366936;;-49.000283;;-50.199957;;-55.614518;;-67.80076;;-85.090305;;-107.71911;;-136.45766;;-171.94927;;-214.82372;;-265.67078;;-324.38669;;-389.61598;;-457.7659;;-522.19465;;-576.79098;;-620.86749;;-656.81789;;-688.65478;;-721.23306;;-757.9946;;-798.65217;;-839.38654;;-876.05828;;-907.08392;;-933.36655;;-956.46273;;-977.48875;;-996.9397;;-1014.5312;;-1029.59;;-1042.2668;;-1054.0935;;-1067.0342;;-1082.1984;;-1099.4654;;-1118.1179;;-1137.8181;;-1158.8137;;-1181.0642;;-1203.5222;;-1224.4121;;-1241.9034;;-1254.7859;;-1263.1273;;-1268.1564;;-1271.3851;;-1274.2454;;-1278.0102;;-1282.8561;;-1287.3723;;-1290.0705;;-1290.9882;;-1290.9882
-19.29033;;-19.29033;;-21.783341;;-25.33639;;-29.70365;;-34.527825;;-39.562119;;-43.246232;;-44.315672;;-44.533525;;-45.375219;;-47.287124;;-49.692916;;-51.219668;;-54.422943;;-65.637191;;-82.041116;;-103.71315;;-131.37818;;-165.79812;;-207.48044;;-257.08676;;-314.64014;;-379.01631;;-447.02012;;-512.48726;;-569.29827;;-616.68699;;-656.79803;;-692.49585;;-726.90114;;-762.55805;;-799.83872;;-836.5924;;-870.16383;;-899.56637;;-925.51102;;-949.01502;;-970.65166;;-990.63194;;-1008.8428;;-1024.9966;;-1039.186;;-1052.2538;;-1065.5888;;-1080.5232;;-1097.5915;;-1116.2814;;-1135.788;;-1155.9208;;-1176.955;;-1198.7302;;-1220.0416;;-1238.7994;;-1253.1145;;-1262.5979;;-1268.2754;;-1271.4645;;-1273.6271;;-1276.5545;;-1281.0189;;-1285.7107;;-1288.8069;;-1290.0014;;-1290.0014
-20.147874;;-20.147874;;-22.714508;;-26.345732;;-30.742085;;-35.671182;;-40.237459;;-43.505114;;-45.204772;;-46.280372;;-47.444124;;-49.073018;;-50.997122;;-52.465991;;-53.916598;;-63.84551;;-79.202415;;-99.846213;;-126.38757;;-159.68266;;-200.14097;;-248.45963;;-304.81171;;-368.34771;;-436.38357;;-503.50587;;-563.58812;;-614.99956;;-659.21805;;-698.16802;;-733.70031;;-767.72762;;-801.49056;;-834.6287;;-865.84169;;-894.36507;;-920.35796;;-944.15531;;-965.89674;;-985.82821;;-1004.3718;;-1021.7815;;-1037.9914;;-1053.0271;;-1067.6345;;-1083.1445;;-1100.3186;;-1118.6332;;-1137.1497;;-1155.8493;;-1175.6501;;-1197.102;;-1219.1182;;-1239.0014;;-1254.1961;;-1264.1774;;-1270.1143;;-1273.2558;;-1274.8958;;-1276.9307;;-1280.5002;;-1284.6269;;-1287.5591;;-1288.7915;;-1288.7915
-21.163328;;-21.163328;;-23.800613;;-27.494756;;-32.016902;;-36.544267;;-40.661128;;-43.835224;;-46.26459;;-48.161897;;-49.72504;;-51.209186;;-52.738543;;-54.118687;;-55.008357;;-62.742712;;-76.968229;;-96.687931;;-122.2747;;-154.56025;;-194.01958;;-241.28842;;-296.6908;;-359.62374;;-427.85079;;-496.59946;;-559.59455;;-613.91474;;-660.37;;-700.65368;;-736.15169;;-768.43876;;-799.33737;;-829.84058;;-859.7082;;-888.27194;;-915.03079;;-939.5428;;-961.5398;;-981.44649;;-1000.3593;;-1019.1683;;-1037.7643;;-1055.4431;;-1072.1587;;-1088.8075;;-1106.0119;;-1123.3404;;-1140.2414;;-1157.299;;-1176.0383;;-1197.3825;;-1220.1239;;-1240.923;;-1256.5499;;-1266.3271;;-1271.7903;;-1274.5918;;-1276.0484;;-1277.7163;;-1280.5109;;-1283.7116;;-1286.005;;-1286.9954;;-1286.9954
-22.394555;;-22.394555;;-24.995611;;-28.672811;;-33.052645;;-37.229694;;-40.910076;;-44.196386;;-47.149901;;-49.602831;;-51.493903;;-53.018544;;-54.551886;;-56.238968;;-57.495322;;-62.312141;;-75.469594;;-94.394553;;-119.20815;;-150.68065;;-189.41819;;-235.93634;;-290.69251;;-353.27794;;-421.78225;;-491.82751;;-556.70878;;-611.97336;;-658.12797;;-697.50129;;-731.82473;;-762.52859;;-791.45512;;-820.24836;;-849.54541;;-879.00469;;-907.62071;;-934.04744;;-957.35003;;-977.87872;;-997.25297;;-1017.1358;;-1037.8181;;-1058.2167;;-1077.352;;-1095.2758;;-1112.3866;;-1128.7093;;-1144.3964;;-1160.4596;;-1178.4749;;-1199.3354;;-1221.8586;;-1242.5597;;-1257.7664;;-1266.4602;;-1270.538;;-1272.5873;;-1274.3597;;-1276.6936;;-1279.498;;-1281.9535;;-1283.413;;-1283.9643;;-1283.9643
-24.837687;;-24.837687;;-27.047368;;-30.598634;;-34.418059;;-38.030501;;-41.362343;;-44.661474;;-47.771089;;-50.405237;;-52.423494;;-54.056029;;-55.915949;;-58.262904;;-60.133934;;-62.354703;;-74.41281;;-92.535721;;-116.61869;;-147.3471;;-185.44212;;-231.28799;;-285.44491;;-347.65367;;-416.22895;;-486.98952;;-552.59934;;-606.9712;;-650.88522;;-687.97303;;-720.69649;;-750.39117;;-778.48599;;-806.66572;;-836.21666;;-867.34235;;-898.78244;;-928.27887;;-953.9995;;-975.88073;;-995.7651;;-1016.0835;;-1037.9232;;-1060.2924;;-1081.4153;;-1100.4125;;-1117.5468;;-1133.5427;;-1149.2404;;-1165.6156;;-1183.6336;;-1203.712;;-1224.7734;;-1243.7489;;-1257.0722;;-1263.5285;;-1265.3816;;-1266.4012;;-1268.9802;;-1272.9491;;-1276.634;;-1278.8114;;-1279.5935;;-1279.7415;;-1279.7415
-28.503776;;-28.503776;;-30.400317;;-33.537395;;-36.768223;;-39.838721;;-42.855351;;-45.824317;;-48.565721;;-50.872281;;-52.644699;;-54.191966;;-56.306712;;-59.200912;;-61.479666;;-62.232222;;-73.085034;;-90.357681;;-113.64254;;-143.50227;;-180.72121;;-225.61068;;-278.78985;;-340.12012;;-408.09813;;-478.71371;;-544.19662;;-596.98675;;-638.42437;;-673.57107;;-705.52006;;-735.43814;;-764.165;;-793.06441;;-823.7279;;-856.82266;;-891.04148;;-923.52405;;-951.74105;;-975.18436;;-995.6677;;-1016.0711;;-1038.1701;;-1061.3269;;-1083.4574;;-1103.1502;;-1120.6484;;-1137.2231;;-1154.1164;;-1171.9816;;-1190.8954;;-1210.4732;;-1229.5103;;-1245.5374;;-1255.7079;;-1259.176;;-1258.6498;;-1258.7871;;-1262.3435;;-1268.0865;;-1272.8529;;-1275.0857;;-1275.5857;;-1275.6052;;-1275.6052
-33.073712;;-33.073712;;-34.765575;;-37.547884;;-40.452302;;-43.485353;;-46.322832;;-48.552032;;-50.228588;;-51.521115;;-52.508928;;-53.581656;;-55.539793;;-58.437789;;-60.661122;;-60.911995;;-70.804653;;-87.202942;;-109.48521;;-138.13095;;-173.95109;;-217.25566;;-268.69396;;-328.25566;;-394.67737;;-464.34252;;-529.78984;;-582.5105;;-623.61925;;-659.02386;;-692.08873;;-723.67216;;-754.0618;;-784.30264;;-816.11251;;-850.43844;;-886.08346;;-920.11445;;-949.84073;;-974.54206;;-995.83286;;-1016.5111;;-1038.478;;-1061.3988;;-1083.4867;;-1103.4817;;-1121.7225;;-1139.6118;;-1158.3859;;-1178.2727;;-1198.5166;;-1217.8916;;-1234.9309;;-1247.8321;;-1254.9349;;-1256.2159;;-1254.5689;;-1254.5988;;-1258.8066;;-1265.2961;;-1270.3283;;-1272.4675;;-1272.9605;;-1273.1074;;-1273.1074
-38.045786;;-38.239209;;-39.778336;;-42.201829;;-45.250466;;-48.719474;;-51.621194;;-53.005114;;-53.088309;;-52.706057;;-52.387481;;-52.620713;;-54.021013;;-56.413748;;-58.252059;;-58.554609;;-67.597508;;-82.951793;;-103.90506;;-130.88192;;-164.70854;;-205.75477;;-254.68769;;-311.68208;;-375.85178;;-444.32397;;-510.85759;;-566.85506;;-611.46406;;-650.17334;;-686.20455;;-720.07843;;-751.81925;;-782.53066;;-814.20614;;-848.04154;;-883.10762;;-916.88496;;-947.01587;;-972.73296;;-995.20299;;-1016.5937;;-1038.3914;;-1060.4721;;-1081.8089;;-1101.833;;-1121.0559;;-1140.6709;;-1161.5625;;-1183.4165;;-1204.7183;;-1223.6251;;-1238.7367;;-1249.247;;-1254.8936;;-1256.3395;;-1255.8839;;-1256.9017;;-1261.0961;;-1266.6515;;-1270.5069;;-1271.9044;;-1272.2623;;-1272.5366;;-1272.5366
-42.749147;;-42.945593;;-44.268608;;-46.78195;;-50.532161;;-54.806623;;-57.948114;;-58.48104;;-56.803897;;-54.469442;;-52.58586;;-51.779491;;-52.413743;;-54.048555;;-55.435406;;-56.153179;;-64.19861;;-78.326708;;-97.727539;;-122.78116;;-154.30319;;-192.86305;;-239.09142;;-293.40429;;-355.37667;;-423.03258;;-491.70073;;-553.65802;;-605.09925;;-649.50044;;-689.3816;;-725.01235;;-756.74587;;-786.28563;;-816.06931;;-847.56091;;-880.28652;;-912.48478;;-942.40416;;-969.20149;;-993.25603;;-1015.6985;;-1037.3943;;-1058.484;;-1078.8916;;-1098.8985;;-1119.1877;;-1140.5772;;-1163.4108;;-1186.7576;;-1208.4793;;-1226.4995;;-1239.9796;;-1249.3515;;-1255.5078;;-1259.2293;;-1261.569;;-1264.1138;;-1267.6579;;-1271.009;;-1272.5629;;-1272.5998;;-1272.5834;;-1272.9091;;-1272.9091
-45.875921;;-45.875921;;-47.394388;;-50.486734;;-55.231853;;-60.402531;;-63.844672;;-63.606753;;-60.47385;;-56.495537;;-53.203073;;-51.388728;;-51.196627;;-52.018818;;-53.008978;;-54.429077;;-61.693902;;-74.643771;;-92.530585;;-115.73228;;-145.07426;;-181.46406;;-225.46594;;-277.64051;;-337.9338;;-405.08306;;-475.69026;;-543.44694;;-602.76576;;-653.91361;;-697.78351;;-734.47846;;-765.24595;;-792.6859;;-819.57713;;-847.61816;;-876.99466;;-906.91465;;-936.28973;;-964.12076;;-989.83839;;-1013.4508;;-1035.2749;;-1055.7595;;-1075.6513;;-1095.9205;;-1117.33;;-1140.2127;;-1164.2952;;-1188.2419;;-1209.8116;;-1227.1785;;-1240.1255;;-1249.8022;;-1257.454;;-1263.551;;-1268.1619;;-1271.6373;;-1274.1537;;-1275.1321;;-1274.3671;;-1273.1717;;-1273.0051;;-1273.5631;;-1273.5631
-47.40279;;-47.40279;;-49.046214;;-52.623667;;-58.040286;;-63.784233;;-67.43724;;-66.802465;;-62.95587;;-58.136053;;-54.017852;;-51.463091;;-50.511811;;-50.544386;;-51.190221;;-53.482208;;-60.721;;-72.777046;;-89.395413;;-111.04676;;-138.57156;;-173.03138;;-215.28689;;-265.77342;;-324.60535;;-390.95869;;-462.32032;;-533.79874;;-599.86826;;-657.81167;;-705.8692;;-743.70567;;-773.67629;;-799.23576;;-823.27796;;-847.75279;;-873.67929;;-901.21859;;-929.78666;;-958.20341;;-985.14389;;-1009.7928;;-1032.1374;;-1052.8526;;-1073.1177;;-1094.1887;;-1116.6974;;-1140.4029;;-1164.5277;;-1187.9295;;-1209.154;;-1227.0211;;-1241.3044;;-1252.5909;;-1261.5097;;-1268.3011;;-1273.0974;;-1276.1716;;-1277.5283;;-1276.8959;;-1274.9166;;-1273.504;;-1273.8895;;-1275.0162;;-1275.0162
-48.439058;;-48.635814;;-49.769662;;-53.042726;;-58.264807;;-63.853398;;-67.407306;;-66.950929;;-63.389841;;-58.745888;;-54.610278;;-51.797934;;-50.297634;;-49.682449;;-50.119448;;-53.443179;;-61.194173;;-72.729293;;-88.266665;;-108.54331;;-134.51532;;-167.25259;;-207.8821;;-256.86057;;-314.20405;;-379.35553;;-450.43341;;-523.72749;;-594.50721;;-658.15193;;-710.19468;;-749.51985;;-779.31758;;-803.6236;;-825.39394;;-846.96802;;-870.21768;;-895.96113;;-923.77184;;-952.26617;;-979.72578;;-1005.0085;;-1028.0935;;-1049.8237;;-1071.3558;;-1093.6494;;-1116.8681;;-1140.2702;;-1163.0484;;-1185.052;;-1206.3444;;-1226.3516;;-1243.8173;;-1257.5316;;-1267.0346;;-1272.8388;;-1276.0967;;-1277.7832;;-1278.0389;;-1276.77;;-1274.9924;;-1274.5795;;-1276.125;;-1277.9466;;-1277.9466
-49.089047;;-49.286722;;-49.794567;;-52.214409;;-56.683672;;-61.623661;;-64.760328;;-64.593066;;-61.87722;;-58.185756;;-54.7523;;-52.186483;;-50.498361;;-49.597051;;-50.174968;;-54.556518;;-62.944224;;-74.45866;;-89.191449;;-108.13308;;-132.7078;;-164.09913;;-203.3881;;-251.30977;;-307.61124;;-371.83882;;-442.4759;;-516.47022;;-589.52486;;-656.12039;;-710.32419;;-750.44912;;-780.00529;;-803.31456;;-823.53889;;-843.47372;;-865.51416;;-890.63789;;-918.20602;;-946.59568;;-973.99845;;-999.37153;;-1022.9947;;-1045.9241;;-1069.0047;;-1092.4021;;-1115.5329;;-1137.443;;-1157.9735;;-1178.521;;-1200.7227;;-1224.1016;;-1245.6212;;-1261.8846;;-1271.6133;;-1276.1124;;-1277.7859;;-1278.252;;-1277.7753;;-1276.5055;;-1275.6896;;-1276.7785;;-1279.5169;;-1281.8524;;-1281.8524
-48.997274;;-49.195627;;-49.173474;;-50.821969;;-54.51872;;-58.68322;;-61.239139;;-61.233421;;-59.445766;;-56.988194;;-54.591626;;-52.610751;;-51.160163;;-50.481069;;-51.565703;;-56.599597;;-65.40055;;-77.110785;;-91.56468;;-109.61295;;-133.40601;;-164.29256;;-203.25195;;-251.10998;;-307.46331;;-371.77005;;-442.48898;;-516.44796;;-589.04735;;-654.58521;;-707.40123;;-746.08037;;-774.1608;;-796.2281;;-815.88218;;-836.03239;;-858.74798;;-884.52754;;-912.39377;;-940.6717;;-967.73413;;-992.83246;;-1016.5963;;-1040.2688;;-1064.3536;;-1088.1898;;-1110.5272;;-1130.5383;;-1149.0546;;-1168.8739;;-1192.5672;;-1219.2418;;-1244.1914;;-1262.473;;-1272.6078;;-1276.8144;;-1278.3032;;-1278.7734;;-1278.3481;;-1277.3744;;-1277.315;;-1279.3096;;-1282.5858;;-1285.0426;;-1285.0426
-48.118574;;-48.317372;;-48.081707;;-49.359545;;-52.547911;;-56.058629;;-58.080412;;-58.185441;;-57.219638;;-55.883958;;-54.467609;;-53.187038;;-52.311106;;-52.261583;;-53.924396;;-59.055215;;-67.844661;;-79.545998;;-93.965904;;-112.10093;;-136.33879;;-167.95766;;-207.88518;;-256.89947;;-314.48321;;-379.952;;-451.36258;;-524.70239;;-594.34421;;-654.97599;;-702.73685;;-737.20583;;-762.00804;;-782.40981;;-802.74675;;-825.30393;;-850.50996;;-877.70997;;-905.87756;;-933.88227;;-960.59359;;-985.47745;;-1009.1842;;-1032.9038;;-1056.975;;-1080.4437;;-1101.9163;;-1120.8755;;-1138.7771;;-1158.9005;;-1183.8359;;-1212.2293;;-1238.7253;;-1258.0845;;-1269.1271;;-1274.5373;;-1277.5412;;-1279.4091;;-1279.9335;;-1279.4655;;-1279.5272;;-1281.2522;;-1284.0315;;-1286.1116;;-1286.1116
-46.77682;;-46.976017;;-46.814765;;-48.093711;;-51.064462;;-54.160912;;-55.856086;;-56.103191;;-55.757188;;-55.222939;;-54.544335;;-53.929158;;-53.764071;;-54.454361;;-56.564596;;-61.367172;;-69.665181;;-81.057915;;-95.680788;;-115.04019;;-140.8826;;-174.24656;;-216.107;;-267.04867;;-326.54557;;-393.7402;;-466.06019;;-538.22477;;-603.21873;;-656.83288;;-697.73623;;-726.54077;;-747.09689;;-765.78706;;-787.82997;;-814.21491;;-842.74084;;-871.25852;;-899.22094;;-926.71508;;-953.31012;;-978.39414;;-1002.1158;;-1025.2851;;-1048.3546;;-1070.8766;;-1091.9893;;-1111.4242;;-1130.4021;;-1151.5247;;-1176.7318;;-1204.6194;;-1230.5105;;-1250.0753;;-1262.571;;-1270.3329;;-1275.8;;-1279.6582;;-1281.5598;;-1281.8116;;-1281.7477;;-1282.5627;;-1284.2312;;-1285.6309;;-1285.6309
-45.330935;;-45.530472;;-45.61365;;-47.12908;;-50.136683;;-53.115242;;-54.712081;;-55.027639;;-54.939811;;-54.819183;;-54.666993;;-54.65927;;-55.160073;;-56.454898;;-58.836993;;-63.174797;;-70.681024;;-81.804766;;-97.434899;;-118.79849;;-146.81102;;-182.41541;;-226.63475;;-279.647;;-341.13941;;-409.95003;;-482.76956;;-552.97153;;-612.66781;;-659.52934;;-694.41974;;-718.5946;;-735.98229;;-753.72764;;-777.50742;;-807.00836;;-837.78792;;-866.66331;;-893.88517;;-920.86798;;-947.75196;;-973.51066;;-997.38982;;-1019.6362;;-1041.0865;;-1062.3798;;-1083.562;;-1104.3949;;-1125.1863;;-1147.2348;;-1171.6995;;-1197.6078;;-1221.7643;;-1241.2555;;-1255.5422;;-1265.9181;;-1273.6421;;-1279.0448;;-1282.0858;;-1283.2148;;-1283.4771;;-1283.9178;;-1284.8911;;-1285.8094;;-1285.8094
-43.994721;;-44.194746;;-44.536152;;-46.34352;;-49.548286;;-52.677732;;-54.362863;;-54.611745;;-54.414834;;-54.400869;;-54.655954;;-55.207436;;-56.245799;;-57.955475;;-60.497724;;-64.466302;;-71.346935;;-83.152994;;-100.70206;;-124.31764;;-154.69319;;-192.79218;;-239.30233;;-294.2845;;-357.49558;;-427.33407;;-499.69358;;-566.90515;;-621.617;;-663.59955;;-694.96822;;-717.28991;;-734.18211;;-752.3106;;-776.82138;;-806.75857;;-837.18377;;-865.01873;;-891.19683;;-917.86085;;-945.33867;;-972.01343;;-996.13526;;-1017.4267;;-1037.2212;;-1057.2384;;-1078.2754;;-1099.9979;;-1121.8674;;-1144.1345;;-1167.4795;;-1191.5241;;-1214.4161;;-1234.2251;;-1250.1686;;-1262.4137;;-1271.3708;;-1277.438;;-1281.1322;;-1283.2004;;-1284.4924;;-1285.678;;-1286.947;;-1287.8818;;-1287.8818
-42.80361;;-43.004333;;-43.460992;;-45.378051;;-48.703747;;-52.077694;;-54.038907;;-54.333497;;-54.012255;;-54.03038;;-54.605947;;-55.60893;;-57.042887;;-59.033801;;-61.703699;;-65.503299;;-72.893849;;-86.86379;;-106.79942;;-132.93305;;-166.00396;;-206.8073;;-255.56049;;-312.51154;;-377.06416;;-446.99021;;-517.33966;;-580.29446;;-630.7006;;-669.76291;;-699.87247;;-722.72096;;-741.35045;;-760.88148;;-785.05104;;-812.91823;;-840.72369;;-866.46379;;-891.41754;;-917.73362;;-945.64334;;-973.04674;;-997.42454;;-1018.1457;;-1036.873;;-1055.8174;;-1076.0026;;-1097.1221;;-1118.5375;;-1140.2571;;-1162.8413;;-1186.2438;;-1209.1669;;-1229.782;;-1246.758;;-1259.6511;;-1268.7837;;-1274.924;;-1279.0184;;-1282.0484;;-1284.7614;;-1287.3457;;-1289.4772;;-1290.6968;;-1290.6968
-41.739469;;-41.940716;;-42.336135;;-44.071529;;-47.255115;;-50.76318;;-53.147197;;-53.878145;;-53.808504;;-54.001177;;-54.79983;;-56.076075;;-57.772922;;-59.9722;;-62.755638;;-66.827475;;-77.043669;;-93.828953;;-116.62072;;-145.84235;;-182.28631;;-226.15887;;-277.79921;;-337.01107;;-402.42586;;-470.78311;;-536.45897;;-593.44637;;-639.74683;;-676.91786;;-706.81495;;-730.94554;;-751.8117;;-772.96339;;-796.59748;;-821.90267;;-846.67997;;-870.16136;;-893.72421;;-919.22207;;-946.81598;;-974.29052;;-998.81542;;-1019.5721;;-1038.1516;;-1056.4913;;-1075.3512;;-1094.6886;;-1114.5384;;-1135.3665;;-1157.753;;-1181.5242;;-1205.2019;;-1226.5593;;-1243.8304;;-1256.5481;;-1265.4212;;-1271.5928;;-1276.1954;;-1280.2799;;-1284.4216;;-1288.2908;;-1291.0989;;-1292.4676;;-1292.4676
-40.826763;;-41.028243;;-41.334224;;-42.773096;;-45.642256;;-49.137297;;-51.979019;;-53.46258;;-54.02044;;-54.532568;;-55.457245;;-56.854607;;-58.736278;;-61.113987;;-64.005208;;-69.982289;;-83.755707;;-103.63342;;-129.71037;;-162.66927;;-202.99502;;-250.86942;;-306.35424;;-368.4229;;-434.22793;;-498.53037;;-556.10523;;-605.40853;;-647.18482;;-682.64415;;-712.62684;;-737.98984;;-760.65455;;-783.13449;;-806.62093;;-830.3439;;-853.09611;;-874.86457;;-896.97577;;-921.0122;;-947.25379;;-973.86232;;-998.23895;;-1019.452;;-1038.5903;;-1056.8836;;-1074.7061;;-1092.375;;-1110.7671;;-1130.9212;;-1153.3375;;-1177.4201;;-1201.3578;;-1222.7701;;-1239.893;;-1252.442;;-1261.3701;;-1267.9485;;-1273.3356;;-1278.5264;;-1283.8234;;-1288.4694;;-1291.4931;;-1292.7829;;-1292.7829
-39.902069;;-40.103202;;-40.501499;;-41.854901;;-44.507296;;-47.975011;;-51.238313;;-53.506155;;-54.76857;;-55.619776;;-56.626645;;-58.105303;;-60.163734;;-62.701795;;-65.847564;;-75.249206;;-91.852533;;-114.68187;;-144.10861;;-180.94854;;-225.38687;;-277.7169;;-337.52023;;-402.74235;;-468.42256;;-526.4416;;-574.20699;;-615.37459;;-652.43778;;-686.24075;;-716.60749;;-743.39091;;-767.59378;;-790.95999;;-814.34367;;-837.23619;;-858.96166;;-879.72164;;-900.55462;;-922.72358;;-946.76099;;-971.64356;;-995.42531;;-1017.0417;;-1036.8587;;-1055.4943;;-1073.1957;;-1090.5214;;-1108.6721;;-1128.7695;;-1151.0261;;-1174.5288;;-1197.5728;;-1218.2511;;-1235.1891;;-1248.1393;;-1257.8228;;-1265.2397;;-1271.3972;;-1277.2401;;-1283.0192;;-1287.9245;;-1291.0127;;-1292.2849;;-1292.2849
-38.452528;;-38.452528;;-39.451747;;-41.139256;;-43.877063;;-47.438865;;-51.09252;;-54.022502;;-55.895531;;-57.072193;;-58.205874;;-59.808515;;-62.026035;;-64.623281;;-68.349738;;-80.426823;;-99.22413;;-124.45266;;-156.70727;;-196.74314;;-244.69179;;-300.80825;;-364.24891;;-432.00956;;-497.05886;;-549.06057;;-589.04642;;-623.90288;;-657.21456;;-689.79355;;-720.83394;;-749.21579;;-774.77916;;-798.48171;;-821.26494;;-843.28416;;-864.35707;;-884.57399;;-904.38701;;-924.58779;;-946.01086;;-968.6528;;-991.35868;;-1012.9151;;-1033.0803;;-1052.2679;;-1070.9157;;-1089.5587;;-1108.95;;-1129.6113;;-1151.3551;;-1173.3892;;-1194.7218;;-1214.3321;;-1231.3206;;-1245.2628;;-1256.2407;;-1264.5518;;-1270.8255;;-1276.1804;;-1281.4574;;-1286.3329;;-1289.8196;;-1291.4779;;-1291.4779
-36.193932;;-36.193932;;-37.837881;;-40.223662;;-43.355231;;-47.160376;;-51.192156;;-54.687402;;-57.12394;;-58.680391;;-60.028826;;-61.759608;;-63.989148;;-66.361666;;-70.384211;;-83.709747;;-103.72581;;-130.32243;;-164.18108;;-205.95958;;-255.83098;;-313.96947;;-379.28259;;-448.23828;;-512.7554;;-562.26145;;-599.39535;;-631.65643;;-663.24049;;-695.2899;;-726.88838;;-756.37723;;-782.73297;;-806.2808;;-828.126;;-849.11974;;-869.50338;;-889.11218;;-907.7502;;-925.83524;;-944.59026;;-964.9105;;-986.23565;;-1007.2912;;-1027.6124;;-1047.7333;;-1068.2774;;-1089.4139;;-1110.9397;;-1132.4545;;-1153.5191;;-1173.8915;;-1193.5384;;-1212.261;;-1229.5021;;-1244.5891;;-1256.8454;;-1265.662;;-1271.2155;;-1275.0707;;-1279.1614;;-1283.9355;;-1288.1705;;-1290.5454;;-1290.5454
-33.621711;;-33.621711;;-35.967696;;-39.166599;;-42.852273;;-46.981016;;-51.357392;;-55.346696;;-58.341981;;-60.345308;;-61.938918;;-63.684246;;-65.638284;;-67.382771;;-70.874589;;-84.31941;;-104.48278;;-131.21703;;-165.18962;;-206.9887;;-256.80497;;-314.78894;;-379.83502;;-448.49478;;-513.18862;;-564.64419;;-604.1093;;-637.69212;;-669.72823;;-701.89495;;-733.62108;;-763.32994;;-789.83071;;-813.17061;;-834.39159;;-854.52932;;-873.8623;;-891.90907;;-908.20859;;-923.49531;;-939.7263;;-958.24962;;-978.52113;;-999.27166;;-1020.2473;;-1042.147;;-1065.3837;;-1089.4336;;-1113.1583;;-1135.5296;;-1156.1862;;-1175.5013;;-1194.1104;;-1212.2716;;-1229.6339;;-1245.3875;;-1258.3486;;-1267.2953;;-1272.1075;;-1274.658;;-1277.6476;;-1282.1293;;-1286.7895;;-1289.662;;-1289.662
-31.637412;;-31.637412;;-34.579152;;-38.443327;;-42.649083;;-47.070086;;-51.695881;;-56.045626;;-59.508166;;-61.931004;;-63.728863;;-65.355863;;-66.802505;;-67.682391;;-70.106007;;-82.969166;;-102.52706;;-128.50539;;-161.50108;;-202.05224;;-250.33629;;-306.52753;;-369.66918;;-436.81079;;-501.81851;;-557.30537;;-602.09745;;-639.69188;;-673.88245;;-706.80473;;-738.52303;;-768.07098;;-794.66611;;-818.3004;;-839.59778;;-859.12497;;-876.65921;;-891.3;;-903.01383;;-914.16456;;-928.18057;;-946.26674;;-966.85495;;-988.39201;;-1011.0961;;-1035.7588;;-1062.1359;;-1088.8677;;-1114.3488;;-1137.5595;;-1158.4181;;-1177.5683;;-1195.8078;;-1213.5309;;-1230.5162;;-1246.0347;;-1258.9703;;-1268.1366;;-1273.2385;;-1275.7663;;-1278.2298;;-1281.9888;;-1286.1958;;-1288.9574;;-1288.9574
-30.698314;;-30.698314;;-33.819086;;-38.300189;;-42.871622;;-47.4749;;-52.176081;;-56.647502;;-60.352931;;-63.083107;;-65.085955;;-66.651832;;-67.702166;;-67.969608;;-69.317295;;-81.09919;;-99.628171;;-124.39733;;-155.87894;;-194.57555;;-240.59632;;-294.14207;;-354.44682;;-419.156;;-483.66472;;-542.38823;;-592.59124;;-635.14268;;-672.62688;;-707.17038;;-739.49833;;-769.50606;;-796.98446;;-821.8255;;-843.9924;;-863.21505;;-878.3719;;-887.99657;;-893.08886;;-898.92018;;-911.20086;;-930.50872;;-953.14685;;-976.65407;;-1001.7379;;-1029.3608;;-1058.5685;;-1087.3377;;-1114.1277;;-1138.3353;;-1160.0074;;-1179.5889;;-1197.708;;-1214.7445;;-1230.5889;;-1244.9237;;-1257.3831;;-1267.2903;;-1273.9416;;-1277.67;;-1280.1323;;-1282.9445;;-1286.1794;;-1288.4749;;-1288.4749
-30.289513;;-30.289513;;-33.63692;;-38.391504;;-43.225489;;-47.906116;;-52.473719;;-56.781681;;-60.478738;;-63.435709;;-65.781346;;-67.614945;;-68.793833;;-69.204905;;-70.127326;;-79.915785;;-97.00343;;-120.25487;;-149.91337;;-186.49845;;-229.95073;;-280.45018;;-337.39085;;-398.92629;;-461.66207;;-521.46971;;-575.298;;-622.28821;;-663.51861;;-700.59491;;-734.68554;;-766.4835;;-796.21365;;-823.52394;;-847.66926;;-867.51466;;-880.9972;;-886.15577;;-885.18794;;-886.33132;;-897.44368;;-918.34526;;-943.11532;;-968.20992;;-994.743;;-1024.0624;;-1054.9209;;-1085.0162;;-1113.0402;;-1138.651;;-1161.639;;-1181.9227;;-1199.7941;;-1215.5338;;-1229.2806;;-1241.6402;;-1253.5045;;-1264.663;;-1273.5194;;-1278.9309;;-1281.7513;;-1283.9438;;-1286.4408;;-1288.3641;;-1288.3641
-29.563203;;-29.563203;;-33.078822;;-38.059169;;-43.161756;;-47.935833;;-52.246574;;-56.211704;;-59.786753;;-62.999752;;-65.90775;;-68.437125;;-70.407434;;-71.825595;;-73.636867;;-80.642134;;-95.591031;;-116.7772;;-144.1345;;-178.13431;;-218.76163;;-265.92;;-319.14514;;-377.00794;;-437.00763;;-496.08552;;-551.50001;;-601.64583;;-646.36753;;-686.49026;;-723.29923;;-758.04222;;-791.22694;;-822.27545;;-849.85138;;-872.04646;;-886.17236;;-890.29026;;-887.48696;;-887.16304;;-897.62309;;-918.19535;;-942.3272;;-966.38862;;-991.91785;;-1020.7227;;-1051.7606;;-1082.748;;-1112.3181;;-1139.859;;-1164.581;;-1185.7508;;-1203.1814;;-1217.0124;;-1227.94;;-1237.9348;;-1249.1832;;-1261.5544;;-1272.3495;;-1279.256;;-1282.6993;;-1284.8661;;-1287.099;;-1288.8218;;-1288.8218
-28.390707;;-28.390707;;-31.970332;;-37.068009;;-42.395148;;-47.36871;;-51.482718;;-55.131736;;-58.652578;;-62.211942;;-65.811087;;-69.282404;;-72.452596;;-75.393163;;-78.863146;;-85.088675;;-97.068714;;-115.22613;;-139.44094;;-169.96936;;-207.24492;;-250.87106;;-300.35402;;-354.64373;;-411.89768;;-469.72025;;-525.68886;;-577.96601;;-625.63172;;-668.76575;;-708.46834;;-746.25986;;-782.95478;;-818.05657;;-849.91929;;-876.01117;;-893.40605;;-900.75768;;-901.48284;;-903.70184;;-913.90287;;-931.36182;;-951.15817;;-971.13725;;-993.36425;;-1019.941;;-1050.2214;;-1081.9719;;-1113.3246;;-1142.938;;-1169.367;;-1191.3179;;-1208.1677;;-1220.0707;;-1228.5062;;-1236.6301;;-1247.2753;;-1260.0126;;-1271.5027;;-1279.1165;;-1283.2099;;-1285.8107;;-1288.1227;;-1289.7355;;-1289.7355
-27.20612;;-27.20612;;-30.751607;;-35.840068;;-41.276651;;-46.486282;;-50.590749;;-54.082793;;-57.671551;;-61.589803;;-65.796225;;-70.118331;;-74.450285;;-78.911775;;-84.079405;;-91.218566;;-101.77831;;-116.7546;;-137.13937;;-163.67177;;-196.82151;;-236.91468;;-283.30684;;-335.07494;;-390.78664;;-448.34051;;-505.32015;;-559.61594;;-609.80848;;-655.45439;;-697.36268;;-737.11068;;-775.91514;;-813.78381;;-849.17679;;-879.22071;;-901.00988;;-913.87812;;-920.92895;;-927.63803;;-937.7694;;-950.93378;;-964.98557;;-979.95473;;-998.39479;;-1022.4512;;-1051.7467;;-1083.982;;-1116.611;;-1147.4989;;-1174.7208;;-1196.7414;;-1212.8807;;-1223.6411;;-1231.1458;;-1238.8047;;-1248.9887;;-1260.8045;;-1271.2231;;-1278.378;;-1282.8803;;-1286.223;;-1288.9825;;-1290.6826;;-1290.6826
-26.410847;;-26.410847;;-29.912707;;-34.96942;;-40.468;;-45.876202;;-50.123863;;-53.579114;;-57.255967;;-61.395381;;-65.928735;;-70.750243;;-75.87545;;-81.488383;;-88.021959;;-96.198922;;-106.65789;;-119.78325;;-136.64344;;-159.31772;;-189.03541;;-226.19011;;-270.89328;;-322.05742;;-378.32395;;-437.61491;;-497.11675;;-554.02393;;-606.36447;;-653.53674;;-696.34432;;-736.41413;;-775.34387;;-813.79289;;-850.63447;;-883.07692;;-908.45789;;-926.40587;;-939.14057;;-949.65679;;-959.74312;;-969.66101;;-979.59118;;-991.11743;;-1006.9547;;-1029.0995;;-1057.2532;;-1089.0427;;-1121.487;;-1152.0042;;-1178.5351;;-1199.6838;;-1215.1247;;-1225.8749;;-1234.2177;;-1242.7692;;-1252.6466;;-1262.6301;;-1270.8031;;-1276.7376;;-1281.4557;;-1285.7426;;-1289.3036;;-1291.3545;;-1291.3545
-26.124609;;-26.124609;;-29.628658;;-34.706961;;-40.29205;;-45.870564;;-50.280462;;-53.674326;;-57.327162;;-61.483288;;-66.042674;;-70.988139;;-76.481634;;-82.77494;;-90.190451;;-99.096201;;-109.65929;;-121.81592;;-136.26338;;-156.07513;;-183.85237;;-220.00837;;-264.63724;;-317.26283;;-376.09717;;-439.02495;;-502.59838;;-562.76182;;-616.73686;;-664.15693;;-706.36249;;-745.2903;;-782.82933;;-820.06051;;-856.29619;;-889.23498;;-916.68098;;-938.10187;;-954.46728;;-967.13352;;-977.27397;;-985.97862;;-994.58468;;-1005.0405;;-1019.7519;;-1040.4306;;-1066.7992;;-1096.6276;;-1127.0105;;-1155.4467;;-1180.1022;;-1199.9295;;-1214.9907;;-1226.5316;;-1236.4395;;-1246.144;;-1255.6283;;-1263.7474;;-1269.8672;;-1274.8131;;-1279.8117;;-1284.9794;;-1289.3071;;-1291.7326;;-1291.7326
-26.090786;;-26.090786;;-29.620517;;-34.542386;;-40.42275;;-46.137981;;-50.666111;;-53.91548;;-57.424455;;-61.47371;;-65.91115;;-70.768852;;-76.337245;;-82.928145;;-90.768251;;-99.983704;;-110.46547;;-121.88;;-134.80328;;-153.25027;;-180.85272;;-217.67567;;-263.72673;;-318.78138;;-380.97088;;-448.1851;;-516.47755;;-580.43217;;-636.01178;;-682.98604;;-723.54307;;-760.31202;;-795.57481;;-830.643;;-865.19954;;-897.62588;;-926.20895;;-949.90463;;-968.38601;;-982.18647;;-992.81517;;-1002.1369;;-1011.6644;;-1022.7933;;-1037.2305;;-1056.3361;;-1079.9775;;-1106.4091;;-1133.2682;;-1158.5362;;-1180.8343;;-1199.4634;;-1214.546;;-1226.9747;;-1237.8913;;-1247.9055;;-1256.6834;;-1263.5622;;-1268.765;;-1273.5771;;-1279.0037;;-1284.6651;;-1289.2753;;-1291.7922;;-1291.7922
-25.80452;;-25.80452;;-29.314905;;-34.222273;;-40.13172;;-45.939584;;-50.656088;;-53.831968;;-57.195541;;-61.135175;;-65.45844;;-70.191913;;-75.692956;;-82.311134;;-90.206021;;-99.353466;;-109.4823;;-120.16459;;-132.14942;;-150.651;;-179.18487;;-217.33154;;-265.15245;;-322.50035;;-387.70624;;-458.80137;;-531.63674;;-599.75068;;-657.5391;;-704.35013;;-743.04299;;-777.14325;;-809.57758;;-842.03786;;-874.70751;;-906.6201;;-936.20827;;-961.64957;;-981.60526;;-996.41877;;-1008.2548;;-1019.4738;;-1031.206;;-1043.8622;;-1058.278;;-1075.5321;;-1095.8521;;-1118.2151;;-1140.9935;;-1162.7865;;-1182.7222;;-1200.3304;;-1215.4322;;-1228.1626;;-1238.9439;;-1248.2164;;-1256.0777;;-1262.457;;-1267.8089;;-1273.1327;;-1278.9386;;-1284.5958;;-1288.9513;;-1291.2493;;-1291.2493
-25.006126;;-25.006126;;-28.418142;;-33.20725;;-39.053365;;-44.913775;;-49.984776;;-53.367292;;-56.697115;;-60.575972;;-64.84639;;-69.504293;;-74.88194;;-81.322293;;-88.964446;;-97.732945;;-107.29274;;-117.25139;;-128.82337;;-148.29793;;-177.94518;;-217.23761;;-266.39831;;-325.31129;;-392.62896;;-466.59265;;-543.13092;;-615.29484;;-676.03726;;-723.67626;;-761.23419;;-792.9643;;-822.53314;;-852.30725;;-883.23315;;-914.8667;;-945.39049;;-972.18789;;-993.41668;;-1009.5963;;-1023.3275;;-1037.021;;-1051.2219;;-1065.4118;;-1079.7267;;-1095.1583;;-1112.3773;;-1131.0057;;-1150.0582;;-1168.721;;-1186.5439;;-1203.0767;;-1217.6602;;-1229.7609;;-1239.4825;;-1247.5521;;-1254.6644;;-1261.0786;;-1267.0047;;-1272.8504;;-1278.7011;;-1283.9645;;-1287.8295;;-1289.831;;-1289.831
-23.967086;;-23.967086;;-27.244318;;-31.866819;;-37.604991;;-43.488775;;-48.943814;;-52.790055;;-56.212398;;-60.085684;;-64.370496;;-69.028476;;-74.266002;;-80.346214;;-87.425857;;-95.493796;;-104.29854;;-113.60574;;-125.35661;;-146.09305;;-176.59413;;-216.55737;;-266.38628;;-325.96462;;-394.28257;;-469.79505;;-548.67969;;-624.05874;;-688.09805;;-737.87745;;-775.91749;;-806.6354;;-834.21668;;-861.81301;;-891.22075;;-922.37816;;-953.19628;;-980.72159;;-1003.182;;-1021.2331;;-1037.2355;;-1053.1149;;-1068.9592;;-1083.8781;;-1097.822;;-1111.874;;-1126.9292;;-1142.8647;;-1159.1013;;-1175.3475;;-1191.441;;-1206.7503;;-1220.1946;;-1231.0182;;-1239.477;;-1246.6464;;-1253.4752;;-1260.1557;;-1266.4832;;-1272.3966;;-1277.8528;;-1282.5361;;-1285.9844;;-1287.8264;;-1287.8264
-23.105404;;-23.105404;;-26.270003;;-30.751786;;-36.392218;;-42.271303;;-47.969901;;-52.295922;;-55.900395;;-59.84512;;-64.225011;;-68.955184;;-74.047322;;-79.621807;;-85.869111;;-92.94915;;-100.83042;;-109.5786;;-122.03627;;-143.89003;;-174.90315;;-215.04717;;-264.86087;;-324.15008;;-392.21454;;-467.68802;;-547.11518;;-624.23525;;-691.50075;;-744.97457;;-785.83798;;-817.80408;;-845.15071;;-871.68173;;-899.86894;;-929.96001;;-960.02898;;-987.56683;;-1011.2888;;-1031.5912;;-1049.7679;;-1066.8515;;-1082.8792;;-1097.4017;;-1110.7285;;-1124.0099;;-1137.9542;;-1152.2778;;-1166.6001;;-1181.0653;;-1195.703;;-1209.7093;;-1221.8633;;-1231.5903;;-1239.4325;;-1246.5041;;-1253.5216;;-1260.3694;;-1266.5966;;-1272.0631;;-1276.8832;;-1281.033;;-1284.235;;-1286.0452;;-1286.0452
-22.435778;;-22.435778;;-25.503913;;-29.862365;;-35.391759;;-41.21572;;-47.01498;;-51.725211;;-55.599889;;-59.710497;;-64.245705;;-69.070362;;-74.008461;;-79.029588;;-84.363388;;-90.379825;;-97.317331;;-105.5971;;-118.99564;;-141.64437;;-172.87577;;-212.82662;;-262.07905;;-320.23166;;-386.85695;;-460.70179;;-538.77833;;-615.95468;;-686.01533;;-744.5576;;-790.65091;;-826.34776;;-855.4888;;-882.23642;;-909.5262;;-938.04964;;-966.6392;;-993.81108;;-1018.7975;;-1041.2691;;-1060.9914;;-1078.0952;;-1093.0728;;-1106.5142;;-1119.2607;;-1132.2436;;-1145.6512;;-1158.9155;;-1171.8098;;-1184.7965;;-1198.043;;-1210.7802;;-1222.0012;;-1231.4757;;-1239.8185;;-1247.7146;;-1255.2412;;-1261.9416;;-1267.513;;-1272.2189;;-1276.4765;;-1280.3154;;-1283.3752;;-1285.1344;;-1285.1344
-21.585135;;-21.585135;;-24.518082;;-28.696405;;-33.831414;;-39.721678;;-45.546396;;-50.650487;;-54.894029;;-59.18973;;-63.824497;;-68.672002;;-73.457959;;-78.047546;;-82.685536;;-87.897184;;-94.108445;;-102.03779;;-116.25847;;-139.39491;;-170.68951;;-210.35685;;-258.86915;;-315.61945;;-380.30484;;-451.6907;;-527.28228;;-603.35421;;-675.44297;;-739.17875;;-791.61853;;-832.63248;;-865.00796;;-892.84637;;-919.48332;;-946.38775;;-973.52622;;-1000.4114;;-1026.4337;;-1050.3657;;-1070.6845;;-1087.0046;;-1100.5355;;-1112.9398;;-1125.3572;;-1138.1903;;-1151.0502;;-1163.2732;;-1174.8826;;-1186.5403;;-1198.4682;;-1210.053;;-1220.6882;;-1230.5435;;-1240.1783;;-1249.5575;;-1257.8298;;-1264.199;;-1268.8625;;-1272.8391;;-1276.8469;;-1280.6807;;-1283.6842;;-1285.3367;;-1285.3367
-20.394531;;-20.394531;;-23.133756;;-27.050773;;-31.899865;;-37.56479;;-43.343862;;-48.805411;;-53.402724;;-57.712135;;-62.201218;;-66.903018;;-71.578393;;-76.025152;;-80.430137;;-85.340011;;-91.213043;;-98.923086;;-113.71315;;-137.15664;;-168.54336;;-208.14637;;-256.23959;;-312.23708;;-375.75956;;-445.46815;;-519.09898;;-593.97179;;-667.02686;;-734.34664;;-791.96479;;-837.95978;;-873.70643;;-902.81086;;-928.98863;;-954.70209;;-980.95595;;-1007.7125;;-1034.1151;;-1058.3791;;-1078.5106;;-1094.042;;-1106.6146;;-1118.4145;;-1130.566;;-1142.9846;;-1154.9897;;-1166.1008;;-1176.6239;;-1187.2548;;-1198.1072;;-1208.5988;;-1218.4363;;-1228.2994;;-1238.9879;;-1249.9123;;-1259.1879;;-1265.5741;;-1269.7998;;-1273.6103;;-1277.865;;-1282.0039;;-1285.0845;;-1286.6636;;-1286.6636
-19.113468;;-19.113468;;-21.641841;;-25.271778;;-29.798441;;-35.181248;;-40.803091;;-46.37195;;-51.078031;;-55.041755;;-59.018299;;-63.366024;;-67.990298;;-72.630517;;-77.314582;;-82.440388;;-88.349607;;-96.023114;;-111.41222;;-135.24063;;-166.94424;;-206.89332;;-255.31864;;-311.769;;-375.84607;;-446.05864;;-519.83407;;-594.39755;;-667.29669;;-735.48221;;-795.26718;;-844.0269;;-881.97137;;-912.01378;;-938.06551;;-963.32085;;-989.27442;;-1015.7386;;-1041.5441;;-1065.0534;;-1084.6852;;-1100.0605;;-1112.5623;;-1124.1234;;-1135.7056;;-1147.1671;;-1158.0445;;-1168.2388;;-1178.184;;-1188.3376;;-1198.4767;;-1207.7955;;-1216.0833;;-1224.6539;;-1235.1278;;-1246.9587;;-1257.4293;;-1264.6838;;-1269.6029;;-1274.1942;;-1279.1763;;-1283.7312;;-1286.892;;-1288.4111;;-1288.4111
-18.055477;;-18.055477;;-20.40164;;-23.778415;;-28.00743;;-33.088825;;-38.43676;;-43.795896;;-48.205386;;-51.444039;;-54.649657;;-58.528969;;-63.126058;;-68.152553;;-73.44258;;-79.117585;;-85.29661;;-93.29453;;-109.72408;;-134.28714;;-166.73021;;-207.59985;;-257.19048;;-315.26793;;-381.5059;;-454.28879;;-530.37212;;-605.69235;;-677.4688;;-743.88756;;-802.60597;;-851.39088;;-889.97949;;-920.71462;;-947.30171;;-972.92483;;-998.87824;;-1024.6061;;-1048.9707;;-1071.0885;;-1090.2116;;-1105.9664;;-1118.9556;;-1130.3814;;-1141.0558;;-1151.203;;-1160.96;;-1170.6673;;-1180.6874;;-1190.9863;;-1200.8087;;-1208.9494;;-1215.0998;;-1221.1952;;-1230.0282;;-1241.718;;-1253.1868;;-1261.9105;;-1268.3874;;-1274.2912;;-1279.9827;;-1284.6194;;-1287.5598;;-1288.8896;;-1288.8896
-17.312614;;-17.312614;;-19.513601;;-22.682206;;-26.651432;;-31.430363;;-36.430784;;-41.370323;;-45.122617;;-47.446645;;-49.88794;;-53.357224;;-57.946205;;-63.352884;;-69.282491;;-75.578595;;-82.123583;;-91.120762;;-109.00058;;-134.66166;;-168.23132;;-210.47768;;-261.76188;;-322.10054;;-391.23314;;-467.41168;;-546.64896;;-623.03477;;-692.85048;;-755.83949;;-811.51255;;-858.63184;;-897.09148;;-928.83724;;-956.85557;;-983.51249;;-1009.4999;;-1034.1567;;-1056.845;;-1077.5596;;-1096.2013;;-1112.278;;-1125.647;;-1136.8483;;-1146.6365;;-1155.6927;;-1164.7144;;-1174.3329;;-1184.7486;;-1195.4439;;-1205.1751;;-1212.4099;;-1216.7372;;-1220.4344;;-1227.1414;;-1237.7791;;-1249.452;;-1259.2305;;-1266.9622;;-1273.6748;;-1279.3974;;-1283.5053;;-1285.8672;;-1286.8869;;-1286.8869
-16.718084;;-16.718084;;-18.787539;;-21.764352;;-25.487151;;-29.964002;;-34.59573;;-39.059473;;-42.07739;;-43.648414;;-45.591998;;-48.837884;;-53.433429;;-59.062174;;-65.402255;;-72.147599;;-79.072296;;-89.700398;;-108.88868;;-135.6151;;-170.29146;;-213.87008;;-266.74942;;-329.16805;;-400.89072;;-480.02434;;-561.91112;;-638.78787;;-706.00903;;-765.23571;;-817.76137;;-863.31618;;-902.0866;;-935.56621;;-965.64486;;-993.54301;;-1019.4936;;-1043.207;;-1064.7399;;-1084.5903;;-1102.8328;;-1118.8639;;-1132.2173;;-1143.144;;-1152.4306;;-1161.0446;;-1169.884;;-1179.5216;;-1189.9542;;-1200.4865;;-1209.8073;;-1216.4185;;-1219.9347;;-1222.5483;;-1227.8834;;-1237.2115;;-1248.1519;;-1257.8622;;-1265.7193;;-1272.2165;;-1277.2678;;-1280.5728;;-1282.3925;;-1283.2141;;-1283.2141
-16.053092;;-16.053092;;-17.974823;;-20.739895;;-24.198069;;-28.171826;;-32.66335;;-36.765032;;-39.406923;;-40.674093;;-42.457729;;-45.637097;;-50.179234;;-55.781129;;-62.181402;;-69.076264;;-76.306737;;-88.311612;;-108.21839;;-135.48191;;-170.70025;;-214.9374;;-268.62389;;-332.14279;;-405.27816;;-486.05207;;-569.36628;;-646.0084;;-710.73267;;-767.24643;;-818.19638;;-863.79236;;-904.11531;;-939.9312;;-972.03201;;-1000.8648;;-1026.7544;;-1050.0831;;-1071.3723;;-1091.0762;;-1109.1199;;-1124.9571;;-1138.2074;;-1149.0816;;-1158.3541;;-1167.0563;;-1175.9791;;-1185.3349;;-1194.8637;;-1204.0435;;-1212.021;;-1217.7173;;-1220.9485;;-1223.6852;;-1228.9619;;-1237.727;;-1247.8806;;-1256.9124;;-1264.1319;;-1269.8926;;-1274.2424;;-1277.1337;;-1278.8979;;-1279.8201;;-1279.8201
-15.305781;;-15.305781;;-17.057034;;-19.587113;;-22.766857;;-26.458718;;-30.685833;;-34.636235;;-37.477826;;-38.990839;;-40.899115;;-44.006685;;-48.299009;;-53.586756;;-59.728655;;-66.492347;;-73.791778;;-86.174282;;-106.00915;;-133.01393;;-167.87035;;-211.68619;;-264.9485;;-328.10266;;-401.00061;;-481.74251;;-565.21233;;-641.58827;;-705.08038;;-760.90813;;-812.57159;;-860.26439;;-903.44392;;-941.89119;;-975.60224;;-1004.9432;;-1030.8384;;-1054.3143;;-1075.972;;-1095.9107;;-1113.9054;;-1129.6838;;-1143.1393;;-1154.4186;;-1164.065;;-1172.9594;;-1181.7256;;-1190.2527;;-1198.0759;;-1204.9307;;-1210.4738;;-1214.0599;;-1215.9945;;-1218.7334;;-1225.1195;;-1235.1761;;-1246.0341;;-1255.0634;;-1261.8213;;-1267.0349;;-1271.1415;;-1274.2401;;-1276.4455;;-1277.695;;-1277.695
-14.680173;;-14.680173;;-16.245397;;-18.546997;;-21.478603;;-24.959193;;-29.024346;;-32.98887;;-36.348665;;-38.472136;;-40.579318;;-43.496674;;-47.375829;;-52.211784;;-57.970943;;-64.467563;;-71.530116;;-83.191722;;-102.17613;;-128.14943;;-161.76829;;-204.12699;;-255.81384;;-317.26482;;-388.4697;;-467.79299;;-550.58529;;-627.49293;;-691.84503;;-749.05695;;-803.218;;-854.38223;;-901.19589;;-942.41913;;-977.55883;;-1007.3077;;-1033.3058;;-1057.0485;;-1079.0693;;-1099.1522;;-1117.0455;;-1132.8317;;-1146.6954;;-1158.6565;;-1168.8481;;-1177.8207;;-1186.0866;;-1193.5023;;-1199.5738;;-1204.0316;;-1206.434;;-1206.162;;-1204.5544;;-1206.0429;;-1214.3833;;-1228.134;;-1242.0935;;-1252.5588;;-1259.481;;-1264.4626;;-1268.5986;;-1272.1403;;-1274.9056;;-1276.4948;;-1276.4948
-14.355175;;-14.355175;;-15.733634;;-17.862326;;-20.626822;;-23.986017;;-27.973934;;-31.987095;;-35.701901;;-38.305365;;-40.48969;;-43.18895;;-46.741171;;-51.268453;;-56.759667;;-63.013724;;-69.719545;;-79.729725;;-97.185256;;-121.49536;;-153.19705;;-193.3186;;-242.60755;;-301.42664;;-369.96453;;-447.00843;;-528.75827;;-607.23789;;-674.77305;;-735.13187;;-792.74048;;-847.77312;;-898.34032;;-942.41167;;-979.15533;;-1009.553;;-1035.7753;;-1059.696;;-1081.8908;;-1101.9561;;-1119.5866;;-1135.118;;-1149.0316;;-1161.3569;;-1171.9276;;-1180.9539;;-1188.8419;;-1195.5645;;-1200.6672;;-1203.503;;-1202.8223;;-1197.6672;;-1190.9075;;-1190.0686;;-1200.6322;;-1219.3962;;-1237.8733;;-1250.6481;;-1258.0903;;-1262.9337;;-1267.0555;;-1270.9086;;-1274.0898;;-1275.9319;;-1275.9319
-14.24466;;-14.24466;;-15.501241;;-17.542047;;-20.225063;;-23.514178;;-27.446189;;-31.433986;;-35.186394;;-37.820462;;-39.903959;;-42.504259;;-46.027266;;-50.544238;;-55.957089;;-62.040459;;-68.447828;;-76.385089;;-91.569556;;-113.65994;;-142.91931;;-180.22198;;-226.52002;;-282.07916;;-347.29066;;-421.46583;;-501.86786;;-582.39878;;-655.11831;;-720.30121;;-782.00205;;-840.88215;;-895.0306;;-941.97916;;-980.60639;;-1012.0165;;-1038.7619;;-1063.0863;;-1085.6443;;-1105.7847;;-1122.9949;;-1137.7618;;-1150.9375;;-1162.8141;;-1173.2549;;-1182.3567;;-1190.4113;;-1197.3392;;-1202.5572;;-1204.9253;;-1202.3572;;-1193.5786;;-1182.7246;;-1179.7694;;-1191.6243;;-1213.863;;-1235.571;;-1249.994;;-1257.782;;-1262.5302;;-1266.6906;;-1270.8475;;-1274.4312;;-1276.5403;;-1276.5403
-14.185718;;-14.185718;;-15.326422;;-17.287028;;-19.890766;;-23.092368;;-26.731838;;-30.811476;;-34.435874;;-36.880321;;-38.853353;;-41.55116;;-45.309193;;-50.017646;;-55.44727;;-61.353158;;-67.50046;;-74.024023;;-85.888186;;-105.27514;;-131.72116;;-165.82063;;-208.60462;;-260.48622;;-321.88711;;-392.67512;;-471.18787;;-553.22756;;-631.86494;;-703.37726;;-769.91111;;-832.76707;;-890.53866;;-940.61723;;-981.56756;;-1014.5339;;-1042.4495;;-1067.845;;-1091.2431;;-1111.5894;;-1128.159;;-1141.6604;;-1153.3928;;-1164.0362;;-1173.748;;-1182.8226;;-1191.5002;;-1199.3814;;-1205.5251;;-1208.5578;;-1206.281;;-1197.4215;;-1186.1555;;-1182.4961;;-1193.5141;;-1215.043;;-1236.2892;;-1250.4214;;-1258.0455;;-1262.8423;;-1267.3386;;-1272.0585;;-1276.2401;;-1278.7367;;-1278.7367
-14.120733;;-14.120733;;-14.935287;;-16.68914;;-19.092209;;-22.082092;;-25.528461;;-29.438807;;-32.9869;;-35.528717;;-37.622918;;-40.516789;;-44.483079;;-49.302596;;-54.671634;;-60.408681;;-66.418282;;-72.606064;;-81.040855;;-97.341051;;-120.73144;;-151.49269;;-190.50888;;-238.59211;;-296.00778;;-363.08327;;-439.05104;;-521.26459;;-604.43617;;-682.54687;;-754.38893;;-821.47027;;-883.2961;;-937.33264;;-981.66751;;-1017.2484;;-1047.2476;;-1074.2973;;-1098.642;;-1118.9466;;-1134.5601;;-1146.551;;-1156.5957;;-1165.6888;;-1174.3644;;-1183.2961;;-1192.7575;;-1201.9227;;-1209.4125;;-1213.9523;;-1213.9866;;-1208.5326;;-1200.5708;;-1197.7452;;-1205.9625;;-1222.682;;-1239.7556;;-1251.6355;;-1258.6053;;-1263.5993;;-1268.6696;;-1274.0881;;-1278.9008;;-1281.778;;-1281.778
-14.093729;;-14.093729;;-14.383869;;-15.734415;;-17.776094;;-20.403289;;-23.544446;;-27.214485;;-30.741116;;-33.760325;;-36.21433;;-39.07432;;-42.730562;;-47.039936;;-52.011857;;-57.822273;;-64.256154;;-70.98241;;-78.236733;;-90.985928;;-111.32519;;-138.9184;;-174.38166;;-218.74758;;-272.38807;;-335.71626;;-408.59658;;-489.45296;;-574.43748;;-657.39921;;-734.14659;;-805.42244;;-871.77115;;-930.99536;;-980.44434;;-1020.1549;;-1052.9374;;-1081.4317;;-1106.0122;;-1125.6776;;-1140.2213;;-1150.9723;;-1159.6786;;-1167.5069;;-1175.3719;;-1184.2954;;-1194.5669;;-1205.0332;;-1214.0004;;-1220.3848;;-1223.4201;;-1222.5269;;-1219.1865;;-1217.9279;;-1222.8975;;-1233.3889;;-1244.778;;-1253.5102;;-1259.5903;;-1264.8262;;-1270.4367;;-1276.3095;;-1281.3862;;-1284.3687;;-1284.3687
-14.085981;;-14.085981;;-14.148142;;-14.792462;;-16.371351;;-18.583858;;-21.350501;;-24.554325;;-28.222429;;-31.654174;;-34.553341;;-36.952041;;-39.496464;;-42.511295;;-46.755226;;-52.59327;;-59.821933;;-67.893797;;-76.231313;;-86.734464;;-104.3982;;-129.21991;;-161.65209;;-202.63198;;-252.95311;;-312.82741;;-382.48089;;-461.00401;;-545.57494;;-630.87045;;-711.32369;;-786.2197;;-856.88835;;-921.83557;;-977.57774;;-1022.3439;;-1057.7491;;-1086.6053;;-1110.3387;;-1129.059;;-1143.075;;-1153.5083;;-1161.7581;;-1169.1003;;-1176.8458;;-1186.1599;;-1197.1809;;-1208.6229;;-1218.779;;-1226.7021;;-1232.0414;;-1234.5054;;-1234.6342;;-1234.7134;;-1237.384;;-1243.0525;;-1249.7761;;-1255.7739;;-1261.0285;;-1266.4434;;-1272.4177;;-1278.412;;-1283.3311;;-1286.1123;;-1286.1123
-14.082459;;-14.082459;;-14.101816;;-14.252897;;-15.229652;;-17.024868;;-19.427399;;-22.373465;;-25.715161;;-29.434377;;-32.617373;;-34.493281;;-35.54498;;-37.238572;;-40.837314;;-46.467947;;-53.911177;;-62.910055;;-72.872552;;-83.959105;;-99.950685;;-122.75771;;-152.90788;;-191.27906;;-238.95796;;-296.17105;;-363.20511;;-439.57439;;-523.14968;;-609.42258;;-692.4277;;-769.85849;;-843.39005;;-912.56504;;-973.41424;;-1022.1935;;-1059.0247;;-1087.14;;-1109.6232;;-1127.941;;-1142.5935;;-1153.9906;;-1162.916;;-1170.751;;-1179.1572;;-1189.2043;;-1200.7097;;-1212.4363;;-1223.0108;;-1231.6574;;-1238.0344;;-1241.8332;;-1243.2166;;-1243.5755;;-1244.9771;;-1248.3974;;-1253.0634;;-1257.8572;;-1262.6965;;-1268.1596;;-1274.3178;;-1280.3456;;-1285.0629;;-1287.6118;;-1287.6118
-14.081186;;-14.081186;;-14.085915;;-14.11927;;-14.453233;;-15.820602;;-17.87394;;-20.498812;;-23.587036;;-26.915144;;-30.252122;;-31.962845;;-31.663809;;-32.152366;;-35.326464;;-40.775172;;-48.160858;;-57.380008;;-68.236053;;-80.877462;;-97.215004;;-119.34747;;-148.37368;;-185.36893;;-231.54554;;-287.46581;;-353.34263;;-428.92648;;-512.47241;;-599.86623;;-684.73315;;-763.19182;;-836.93719;;-906.69574;;-968.78125;;-1018.5387;;-1055.2424;;-1082.4844;;-1104.4776;;-1123.4616;;-1139.8134;;-1153.2092;;-1163.8304;;-1173.0051;;-1182.5155;;-1193.2534;;-1204.809;;-1216.15;;-1226.3777;;-1234.919;;-1241.2379;;-1244.6853;;-1245.1324;;-1244.0272;;-1244.1968;;-1247.5545;;-1253.2822;;-1259.2086;;-1264.48;;-1269.865;;-1275.927;;-1281.9447;;-1286.6052;;-1289.0619;;-1289.0619
-14.080895;;-14.080895;;-14.081604;;-14.087786;;-14.142525;;-14.830613;;-16.426215;;-18.615162;;-21.28623;;-24.218776;;-27.044008;;-28.911106;;-28.096738;;-27.6918;;-30.816774;;-36.145456;;-43.369338;;-52.532898;;-63.799869;;-77.635066;;-95.27888;;-118.09414;;-147.38846;;-184.48327;;-230.77146;;-287.01856;;-353.55478;;-430.20391;;-515.29103;;-604.56071;;-690.71492;;-768.31017;;-839.13492;;-905.15931;;-963.9018;;-1011.4267;;-1047.1306;;-1074.3841;;-1097.182;;-1117.6713;;-1136.1424;;-1151.9929;;-1164.9538;;-1175.9533;;-1186.5571;;-1197.6225;;-1208.9008;;-1219.6894;;-1229.3791;;-1237.4264;;-1243.0553;;-1245.1673;;-1243.1855;;-1238.9621;;-1237.1261;;-1241.3864;;-1250.4178;;-1259.5753;;-1266.247;;-1271.5015;;-1277.0303;;-1282.6796;;-1287.1319;;-1289.4754;;-1289.4754
-14.080862;;-14.080862;;-14.080915;;-14.081691;;-14.093483;;-14.227963;;-15.156891;;-16.814041;;-18.976106;;-21.43972;;-23.846038;;-25.328298;;-24.677241;;-24.129593;;-27.368179;;-32.371389;;-39.391009;;-48.447379;;-60.186665;;-74.871586;;-93.635554;;-117.59122;;-148.01126;;-186.32382;;-233.89846;;-291.58695;;-359.97536;;-438.90902;;-526.60173;;-618.3138;;-705.27862;;-780.29922;;-845.68211;;-904.88618;;-957.44009;;-1001.2603;;-1036.2105;;-1064.6828;;-1089.399;;-1111.9034;;-1132.5564;;-1150.8793;;-1166.3004;;-1179.1384;;-1190.5827;;-1201.6773;;-1212.6771;;-1223.2106;;-1232.628;;-1240.1802;;-1244.9652;;-1245.6714;;-1241.2881;;-1233.8407;;-1229.6402;;-1234.3826;;-1246.522;;-1259.029;;-1267.3195;;-1272.4494;;-1277.1126;;-1281.8742;;-1285.674;;-1287.6798;;-1287.6798
-14.080862;;-14.080862;;-14.080863;;-14.080939;;-14.083907;;-14.11497;;-14.343222;;-15.329315;;-16.917214;;-18.867295;;-20.83773;;-22.083176;;-21.343247;;-21.241144;;-24.494682;;-29.531567;;-36.370798;;-45.359921;;-57.242361;;-72.310476;;-91.663357;;-116.38914;;-147.77592;;-187.23604;;-235.96348;;-295.04449;;-365.23982;;-446.4592;;-536.85718;;-631.25262;;-719.19009;;-790.87984;;-849.57764;;-900.95038;;-947.03483;;-987.65408;;-1022.8275;;-1053.5755;;-1081.0932;;-1106.1689;;-1129.1476;;-1149.741;;-1167.2611;;-1181.5825;;-1193.6353;;-1204.7399;;-1215.6533;;-1226.1979;;-1235.5243;;-1242.6856;;-1246.9057;;-1247.079;;-1242.0229;;-1233.4304;;-1227.8833;;-1231.9522;;-1244.5309;;-1258.0293;;-1266.966;;-1271.9505;;-1275.7711;;-1279.3829;;-1282.1905;;-1283.6632;;-1283.6632
-14.080862;;-14.080862;;-14.080862;;-14.080869;;-14.081437;;-14.088517;;-14.135948;;-14.393096;;-15.311732;;-16.711679;;-18.222595;;-19.189668;;-18.606153;;-19.187294;;-22.387082;;-27.225398;;-33.822088;;-42.56392;;-54.215321;;-69.077337;;-88.250489;;-112.83271;;-144.12632;;-183.48971;;-232.15387;;-291.34928;;-361.98766;;-444.15352;;-536.19119;;-632.97331;;-723.07813;;-792.75233;;-845.65985;;-890.47072;;-931.54235;;-970.17755;;-1006.4208;;-1040.1413;;-1071.149;;-1099.3047;;-1124.6753;;-1147.1474;;-1166.2035;;-1181.6321;;-1194.2541;;-1205.5339;;-1216.4774;;-1226.9945;;-1236.1908;;-1243.1732;;-1247.4576;;-1248.3612;;-1244.8453;;-1237.9586;;-1232.97;;-1235.6785;;-1245.8221;;-1257.405;;-1265.5866;;-1270.2989;;-1273.4754;;-1276.0066;;-1277.8154;;-1278.7601;;-1278.7601
-14.080862;;-14.080862;;-14.080862;;-14.080862;;-14.080918;;-14.081888;;-14.090664;;-14.13734;;-14.341416;;-15.085595;;-16.129198;;-16.828485;;-16.402931;;-17.474926;;-20.50489;;-25.002;;-31.145333;;-39.325782;;-50.089118;;-64.337909;;-82.526517;;-105.92897;;-135.82489;;-173.58967;;-220.47744;;-277.79812;;-346.61949;;-427.30185;;-518.66786;;-616.37342;;-709.85614;;-781.6885;;-832.68807;;-874.19216;;-912.28458;;-949.579;;-986.80912;;-1023.4416;;-1058.0704;;-1089.3827;;-1116.9659;;-1140.9299;;-1161.1717;;-1177.6278;;-1191.0215;;-1202.725;;-1213.7501;;-1224.1217;;-1233.2078;;-1240.4248;;-1245.5086;;-1248.0439;;-1247.284;;-1243.7486;;-1240.8211;;-1242.5896;;-1249.4675;;-1257.8898;;-1264.4886;;-1268.6799;;-1271.3462;;-1273.1382;;-1274.3328;;-1274.9948;;-1274.9948
-14.080862;;-14.080862;;-14.080862;;-14.080862;;-14.080862;;-14.08092;;-14.081939;;-14.088943;;-14.115568;;-14.208502;;-14.638774;;-15.068658;;-14.808336;;-15.962833;;-18.690866;;-22.716208;;-28.23278;;-35.610322;;-45.357729;;-58.331393;;-74.927855;;-96.352523;;-123.81392;;-158.68628;;-202.22497;;-255.75103;;-320.46385;;-397.02536;;-484.88574;;-580.96031;;-676.99756;;-755.84834;;-810.69375;;-853.1219;;-890.337;;-926.44239;;-963.8696;;-1002.5691;;-1040.261;;-1074.5136;;-1104.3747;;-1130.028;;-1151.6788;;-1169.4187;;-1183.8778;;-1196.2598;;-1207.504;;-1217.7952;;-1226.9465;;-1234.8053;;-1241.1793;;-1245.6309;;-1247.6574;;-1247.5785;;-1247.2801;;-1249.1283;;-1253.7003;;-1259.3532;;-1264.2037;;-1267.6751;;-1270.1039;;-1271.8824;;-1273.1973;;-1273.9736;;-1273.9736
-14.080862;;-14.080862;;-14.080862;;-14.080862;;-14.080862;;-14.080863;;-14.080924;;-14.081469;;-14.083727;;-14.089311;;-14.103092;;-14.139339;;-14.116695;;-14.774381;;-17.05343;;-20.516864;;-25.317753;;-31.781267;;-40.360825;;-51.642627;;-66.556196;;-85.606223;;-110.09853;;-141.33118;;-180.57239;;-229.08357;;-288.13399;;-358.63091;;-440.60382;;-532.21659;;-627.79281;;-714.32189;;-777.74547;;-824.78574;;-863.53851;;-899.5295;;-937.06124;;-977.02671;;-1017.0019;;-1054.1005;;-1086.9315;;-1115.2621;;-1139.0719;;-1158.4589;;-1174.1287;;-1187.3282;;-1199.011;;-1209.4831;;-1218.9322;;-1227.6058;;-1235.3565;;-1241.6326;;-1246.0719;;-1248.9543;;-1251.1743;;-1253.7358;;-1257.0043;;-1260.5196;;-1263.7159;;-1266.5877;;-1269.4105;;-1272.1207;;-1274.2778;;-1275.4609;;-1275.4609
-14.080862;;-14.080862;;-14.080862;;-14.080862;;-14.080862;;-14.080862;;-14.080862;;-14.080866;;-14.080884;;-14.080928;;-14.081006;;-14.081127;;-14.081102;;-14.146052;;-15.723933;;-18.553426;;-22.623554;;-28.174992;;-35.589648;;-45.37835;;-58.384516;;-75.017062;;-96.463508;;-123.90402;;-158.6022;;-201.73747;;-254.57731;;-318.18474;;-393.01871;;-478.22357;;-570.24537;;-660.30152;;-733.2085;;-787.0221;;-829.87055;;-868.10299;;-906.86347;;-947.89499;;-989.59259;;-1029.5931;;-1066.2053;;-1098.2162;;-1124.8184;;-1146.0224;;-1162.8826;;-1176.9807;;-1189.4045;;-1200.5;;-1210.5978;;-1220.166;;-1229.1729;;-1237.1114;;-1243.6964;;-1249.0132;;-1253.1634;;-1256.2151;;-1258.3725;;-1260.0148;;-1261.7636;;-1264.4044;;-1268.2394;;-1272.4737;;-1275.7597;;-1277.3841;;-1277.3841
-14.080862;;-14.080862;;-14.080862;;-14.080862;;-14.080862;;-14.080862;;-14.080862;;-14.080862;;-14.080862;;-14.080862;;-14.080862;;-14.080862;;-14.080864;;-14.0823;;-14.674256;;-16.910409;;-20.322523;;-25.056141;;-31.427617;;-39.87806;;-51.170821;;-65.623934;;-84.311255;;-108.29285;;-138.79013;;-176.93517;;-223.93725;;-280.94084;;-348.69104;;-427.02;;-513.86313;;-603.40683;;-683.44;;-744.68251;;-792.98029;;-834.97708;;-875.68826;;-917.65138;;-960.82996;;-1003.8546;;-1044.5664;;-1080.4354;;-1109.7753;;-1132.673;;-1150.7214;;-1165.8963;;-1179.4227;;-1191.6577;;-1202.8851;;-1213.5635;;-1223.8119;;-1233.3526;;-1241.8828;;-1249.0104;;-1254.1511;;-1256.9987;;-1257.95;;-1258.0225;;-1258.658;;-1261.2786;;-1266.1948;;-1271.8894;;-1276.1771;;-1278.1516;;-1278.1516
-14.080862;;-14.080862;;-14.080862;;-14.080862;;-14.080862;;-14.080862;;-14.080862;;-14.080862;;-14.080862;;-14.080862;;-14.080862;;-14.080862;;-14.080862;;-14.080936;;-14.14066;;-15.690896;;-18.503685;;-22.554344;;-28.076907;;-35.446364;;-45.359054;;-58.059114;;-74.529682;;-95.73429;;-122.81256;;-156.92222;;-199.19597;;-250.82007;;-312.7317;;-385.22325;;-467.20523;;-554.80873;;-639.02966;;-707.1259;;-759.9793;;-804.59138;;-846.26403;;-888.7384;;-933.6036;;-979.98056;;-1024.7155;;-1063.9579;;-1095.5282;;-1119.8974;;-1139.1702;;-1155.5106;;-1170.2131;;-1183.7417;;-1196.337;;-1208.3129;;-1219.8761;;-1230.9675;;-1241.117;;-1249.3263;;-1254.605;;-1256.8671;;-1256.9906;;-1256.2763;;-1256.3599;;-1258.9564;;-1264.4606;;-1270.9435;;-1275.688;;-1277.7394;;-1277.7394
-14.080862;;-14.080862;;-14.080862;;-14.080862;;-14.080862;;-14.080862;;-14.080862;;-14.080862;;-14.080862;;-14.080862;;-14.080862;;-14.080862;;-14.080862;;-14.080874;;-14.084405;;-14.829762;;-17.174052;;-20.71522;;-25.613495;;-32.197302;;-40.920152;;-52.558489;;-67.44784;;-86.674725;;-111.30827;;-142.53587;;-181.45438;;-229.26011;;-287.01712;;-355.31234;;-433.66996;;-519.43184;;-605.68713;;-679.13448;;-734.46879;;-779.29857;;-820.58708;;-863.59744;;-910.79038;;-960.85291;;-1009.3169;;-1051.3411;;-1084.6919;;-1110.3329;;-1130.6537;;-1147.7832;;-1163.1097;;-1177.3952;;-1190.9786;;-1204.0249;;-1216.7067;;-1229.0118;;-1240.2152;;-1248.879;;-1253.9856;;-1255.9788;;-1256.2198;;-1255.9343;;-1256.3665;;-1258.9789;;-1264.0533;;-1269.5402;;-1272.8742;;-1273.8193;;-1273.8193
-14.080862;;-14.080862;;-14.080862;;-14.080862;;-14.080862;;-14.080862;;-14.080862;;-14.080862;;-14.080862;;-14.080862;;-14.080862;;-14.080862;;-14.080862;;-14.080865;;-14.081414;;-14.322549;;-16.297172;;-19.460892;;-23.922638;;-29.972427;;-38.026773;;-48.825073;;-62.662344;;-80.573765;;-103.57383;;-132.85061;;-169.50573;;-214.72566;;-269.65247;;-335.05386;;-410.82812;;-495.04189;;-582.0421;;-659.33251;;-716.14663;;-760.34164;;-801.41306;;-845.72043;;-895.6194;;-948.951;;-1000.2939;;-1044.3451;;-1078.9891;;-1105.4809;;-1126.2504;;-1143.3556;;-1158.389;;-1172.5156;;-1186.2619;;-1199.7017;;-1212.8954;;-1225.7283;;-1237.2825;;-1246.0193;;-1251.1493;;-1253.5406;;-1254.7996;;-1255.9416;;-1257.471;;-1259.7276;;-1261.977;;-1262.1212;;-1259.1969;;-1255.825;;-1255.825
-14.080862;;-14.080862;;-14.080862;;-14.080862;;-14.080862;;-14.080862;;-14.080862;;-14.080862;;-14.080862;;-14.080862;;-14.080862;;-14.080862;;-14.080862;;-14.080862;;-14.080967;;-14.137772;;-15.717709;;-18.591037;;-22.745391;;-28.427127;;-36.024564;;-46.055268;;-59.175484;;-76.196391;;-98.29937;;-126.24697;;-161.36406;;-204.82776;;-257.83561;;-321.27743;;-395.29988;;-478.45006;;-565.96139;;-646.58172;;-705.80563;;-750.50344;;-792.4712;;-838.42736;;-890.22783;;-945.24791;;-997.86709;;-1042.7544;;-1077.8242;;-1104.3397;;-1124.6923;;-1140.9868;;-1155.0502;;-1168.3362;;-1181.5129;;-1194.6312;;-1207.6442;;-1220.295;;-1231.623;;-1240.2862;;-1245.7605;;-1248.951;;-1251.3418;;-1253.7907;;-1256.0288;;-1256.2707;;-1251.2363;;-1238.6587;;-1221.4673;;-1208.543;;-1208.543
-14.080862;;-14.080862;;-14.080862;;-14.080862;;-14.080862;;-14.080862;;-14.080862;;-14.080862;;-14.080862;;-14.080862;;-14.080862;;-14.080862;;-14.080862;;-14.080862;;-14.080875;;-14.095818;;-15.328556;;-18.003208;;-21.953362;;-27.393892;;-34.69664;;-44.363719;;-57.034438;;-73.501656;;-94.729308;;-122.06575;;-156.25681;;-198.681;;-250.58567;;-312.95548;;-386.12085;;-468.98429;;-557.47118;;-641.55823;;-704.87451;;-751.66211;;-795.03249;;-841.73942;;-893.50954;;-948.00974;;-1000.0543;;-1044.4444;;-1078.9325;;-1104.6179;;-1123.9115;;-1139.05;;-1151.9759;;-1164.2155;;-1176.5031;;-1188.9166;;-1201.3239;;-1213.3599;;-1224.1789;;-1232.7866;;-1238.7903;;-1242.6565;;-1245.3282;;-1247.6672;;-1249.0707;;-1245.1685;;-1228.7592;;-1197.2078;;-1159.4719;;-1133.2961;;-1133.2961
-14.080862;;-14.080862;;-14.080862;;-14.080862;;-14.080862;;-14.080862;;-14.080862;;-14.080862;;-14.080862;;-14.080862;;-14.080862;;-14.080862;;-14.080862;;-14.080862;;-14.080863;;-14.086189;;-15.068539;;-17.610844;;-21.423562;;-26.703216;;-33.812537;;-43.24456;;-55.628607;;-71.933752;;-92.554259;;-119.1895;;-153.03365;;-194.85972;;-246.16163;;-308.00462;;-380.86799;;-463.94173;;-553.72257;;-641.28018;;-709.90059;;-760.00191;;-804.77462;;-851.01766;;-900.92114;;-953.13503;;-1003.3264;;-1046.4453;;-1079.8903;;-1104.4961;;-1122.719;;-1136.8699;;-1148.835;;-1160.1123;;-1171.5224;;-1183.1839;;-1194.8578;;-1206.1307;;-1216.4027;;-1225.0439;;-1231.5911;;-1235.7194;;-1237.5523;;-1238.1846;;-1237.5721;;-1229.6042;;-1203.154;;-1154.8556;;-1099.093;;-1061.3173;;-1061.3173
-14.080862;;-14.080862;;-14.080862;;-14.080862;;-14.080862;;-14.080862;;-14.080862;;-14.080862;;-14.080862;;-14.080862;;-14.080862;;-14.080862;;-14.080862;;-14.080862;;-14.080862;;-14.08284;;-14.835852;;-17.249861;;-20.921188;;-26.030338;;-32.930038;;-42.102367;;-54.349539;;-70.073685;;-90.397351;;-116.25922;;-149.44934;;-190.54997;;-241.08288;;-302.18459;;-374.47368;;-457.41638;;-548.06615;;-638.59046;;-713.03435;;-767.39573;;-813.85757;;-859.27834;;-906.62527;;-955.98216;;-1004.1571;;-1046.2495;;-1079.1257;;-1103.2219;;-1120.9568;;-1134.5925;;-1145.8726;;-1156.3183;;-1166.9225;;-1177.8425;;-1188.7296;;-1199.2206;;-1209.0402;;-1217.8233;;-1224.8706;;-1229.0591;;-1229.7885;;-1228.5124;;-1226.4909;;-1217.9152;;-1189.9761;;-1138.0644;;-1077.7337;;-1036.6724;;-1036.6724
-14.080862;;-14.080862;;-14.080862;;-14.080862;;-14.080862;;-14.080862;;-14.080862;;-14.080862;;-14.080862;;-14.080862;;-14.080862;;-14.080862;;-14.080862;;-14.080862;;-14.080862;;-14.081399;;-14.559792;;-16.79712;;-20.268676;;-25.134452;;-31.730074;;-40.518893;;-52.28286;;-67.401942;;-86.973496;;-112.10268;;-144.03008;;-183.92152;;-233.09721;;-292.76114;;-363.67448;;-445.59435;;-536.16075;;-628.69119;;-708.65042;;-767.47683;;-815.68525;;-860.49174;;-905.7581;;-953.0427;;-1000.2459;;-1042.4987;;-1076.0099;;-1100.664;;-1118.7089;;-1132.3248;;-1143.1749;;-1152.8461;;-1162.4588;;-1172.2093;;-1181.8664;;-1191.4581;;-1201.1158;;-1210.4427;;-1218.2707;;-1222.9724;;-1223.7071;;-1222.182;;-1220.8136;;-1215.9161;;-1196.5257;;-1157.2768;;-1110.0476;;-1077.7065;;-1077.7065
-14.080862;;-14.080862;;-14.080862;;-14.080862;;-14.080862;;-14.080862;;-14.080862;;-14.080862;;-14.080862;;-14.080862;;-14.080862;;-14.080862;;-14.080862;;-14.080862;;-14.080862;;-14.080962;;-14.286102;;-16.260898;;-19.464857;;-24.01633;;-30.219924;;-38.511092;;-49.458389;;-63.778287;;-82.541354;;-106.43344;;-136.89849;;-175.11493;;-222.36931;;-279.92455;;-348.67889;;-428.67734;;-518.14043;;-611.52192;;-696.05714;;-758.71699;;-807.80897;;-851.91351;;-896.06432;;-942.89943;;-990.85724;;-1034.8354;;-1070.3347;;-1096.5941;;-1115.6043;;-1129.5734;;-1140.2257;;-1149.0611;;-1156.96;;-1164.1064;;-1171.0437;;-1179.1678;;-1189.3455;;-1200.5205;;-1210.3506;;-1216.8288;;-1219.465;;-1220.0744;;-1221.3168;;-1221.7808;;-1214.3425;;-1194.1941;;-1167.4816;;-1148.4271;;-1148.4271
-14.080862;;-14.080862;;-14.080862;;-14.080862;;-14.080862;;-14.080862;;-14.080862;;-14.080862;;-14.080862;;-14.080862;;-14.080862;;-14.080862;;-14.080862;;-14.080862;;-14.080862;;-14.080876;;-14.127898;;-15.682594;;-18.56372;;-22.751845;;-28.500636;;-36.210452;;-46.415298;;-59.79329;;-77.371435;;-99.789657;;-128.4564;;-164.59541;;-209.43772;;-264.28248;;-330.14893;;-407.35153;;-494.67038;;-587.69184;;-675.6762;;-742.12458;;-791.37139;;-834.59247;;-878.50193;;-926.39179;;-976.63041;;-1023.6027;;-1062.088;;-1090.6501;;-1111.0243;;-1125.6041;;-1136.2457;;-1144.03;;-1149.0307;;-1151.2969;;-1153.0553;;-1158.5734;;-1170.1435;;-1185.3047;;-1199.3472;;-1209.4272;;-1215.6488;;-1219.9721;;-1224.5312;;-1229.0732;;-1230.0267;;-1224.3422;;-1214.2377;;-1206.3601;;-1206.3601
-14.080862;;-14.080862;;-14.080862;;-14.080862;;-14.080862;;-14.080862;;-14.080862;;-14.080862;;-14.080862;;-14.080862;;-14.080862;;-14.080862;;-14.080862;;-14.080862;;-14.080862;;-14.080863;;-14.086382;;-15.066332;;-17.592445;;-21.376413;;-26.613139;;-33.664488;;-43.023773;;-55.509725;;-71.530364;;-92.232877;;-118.7751;;-152.41364;;-194.32747;;-245.81456;;-307.99547;;-381.43471;;-465.46166;;-556.81387;;-646.94113;;-718.69741;;-769.39659;;-812.60369;;-857.06743;;-906.64626;;-959.62346;;-1009.9868;;-1051.8588;;-1083.0782;;-1105.0746;;-1120.4278;;-1131.0568;;-1137.4298;;-1138.6254;;-1134.5886;;-1129.6558;;-1131.6833;;-1144.8903;;-1165.2939;;-1185.2438;;-1200.3837;;-1210.9958;;-1219.198;;-1226.5686;;-1233.0681;;-1237.2002;;-1237.7925;;-1235.7729;;-1233.7162;;-1233.7162
-14.080862;;-14.080862;;-14.080862;;-14.080862;;-14.080862;;-14.080862;;-14.080862;;-14.080862;;-14.080862;;-14.080862;;-14.080862;;-14.080862;;-14.080862;;-14.080862;;-14.080862;;-14.080862;;-14.081266;;-14.475399;;-16.615775;;-19.957992;;-24.644072;;-30.992204;;-39.447748;;-50.77462;;-65.320709;;-84.163054;;-108.38077;;-139.22523;;-177.86085;;-225.54202;;-283.46942;;-352.43404;;-432.28209;;-520.84944;;-611.7934;;-690.73568;;-746.74668;;-792.23584;;-837.9428;;-888.64685;;-943.27347;;-996.09271;;-1040.8648;;-1074.6732;;-1098.4572;;-1114.7267;;-1125.2665;;-1130.111;;-1127.9862;;-1119.2078;;-1109.509;;-1108.8139;;-1122.7216;;-1146.7432;;-1171.5757;;-1191.4009;;-1205.8757;;-1216.969;;-1226.0787;;-1233.205;;-1237.7035;;-1239.5517;;-1239.7244;;-1239.454;;-1239.454
-14.080862;;-14.080862;;-14.080862;;-14.080862;;-14.080862;;-14.080862;;-14.080862;;-14.080862;;-14.080862;;-14.080862;;-14.080862;;-14.080862;;-14.080862;;-14.080862;;-14.080862;;-14.080862;;-14.080912;;-14.147107;;-15.750617;;-18.628667;;-22.78071;;-28.457446;;-36.051858;;-46.274832;;-59.415329;;-76.483441;;-98.485325;;-126.61258;;-162.08922;;-206.1057;;-259.92222;;-324.53388;;-400.24633;;-485.87049;;-577.1183;;-663.61819;;-729.54059;;-779.83024;;-826.98672;;-877.38293;;-931.40223;;-984.26854;;-1029.8234;;-1064.8132;;-1090.0183;;-1107.7288;;-1119.0603;;-1123.5897;;-1120.64;;-1111.5809;;-1102.1741;;-1101.3961;;-1114.5562;;-1138.2327;;-1164.0529;;-1185.8135;;-1202.1067;;-1214.3427;;-1224.0021;;-1231.3036;;-1235.824;;-1237.8035;;-1238.3045;;-1238.3365;;-1238.3365
-14.080862;;-14.080862;;-14.080862;;-14.080862;;-14.080862;;-14.080862;;-14.080862;;-14.080862;;-14.080862;;-14.080862;;-14.080862;;-14.080862;;-14.080862;;-14.080862;;-14.080862;;-14.080862;;-14.080886;;-14.089385;;-15.048921;;-17.529485;;-21.237132;;-26.358353;;-33.245808;;-42.382422;;-54.571477;;-70.21165;;-90.438336;;-116.38948;;-149.35916;;-190.53637;;-241.21252;;-302.56681;;-375.28994;;-458.97119;;-550.89215;;-643.64591;;-721.60415;;-778.22466;;-826.56144;;-875.39542;;-926.57274;;-975.97088;;-1017.745;;-1049.8161;;-1074.8829;;-1095.6078;;-1111.0339;;-1118.8306;;-1118.9014;;-1114.1663;;-1109.7187;;-1111.5604;;-1123.3558;;-1143.4474;;-1166.2168;;-1186.3459;;-1201.6884;;-1213.0627;;-1222.1024;;-1229.3418;;-1234.3042;;-1236.8318;;-1237.6415;;-1237.7392;;-1237.7392
-14.080862;;-14.080862;;-14.080862;;-14.080862;;-14.080862;;-14.080862;;-14.080862;;-14.080862;;-14.080862;;-14.080862;;-14.080862;;-14.080862;;-14.080862;;-14.080862;;-14.080862;;-14.080862;;-14.080875;;-14.083191;;-14.563337;;-16.745226;;-20.121114;;-24.840227;;-31.228373;;-39.740856;;-51.151319;;-65.829525;;-84.878302;;-109.40535;;-140.72334;;-180.13474;;-228.9244;;-288.41248;;-359.57001;;-442.50441;;-535.46154;;-632.79261;;-721.11337;;-784.66075;;-834.2659;;-881.65631;;-929.0018;;-971.37435;;-1003.2189;;-1026.2418;;-1048.7609;;-1074.9685;;-1099.6567;;-1115.6925;;-1122.1944;;-1123.7308;;-1125.3628;;-1130.6718;;-1141.6663;;-1157.8976;;-1176.2306;;-1192.723;;-1205.247;;-1214.3986;;-1221.9578;;-1228.7489;;-1234.2097;;-1237.5742;;-1238.9348;;-1239.1923;;-1239.1923
-14.080862;;-14.080862;;-14.080862;;-14.080862;;-14.080862;;-14.080862;;-14.080862;;-14.080862;;-14.080862;;-14.080862;;-14.080862;;-14.080862;;-14.080862;;-14.080862;;-14.080862;;-14.080862;;-14.080867;;-14.08165;;-14.291386;;-16.215121;;-19.340522;;-23.775464;;-29.820096;;-37.909619;;-48.798199;;-62.839376;;-81.115993;;-104.71969;;-134.95631;;-173.2339;;-220.84576;;-279.18697;;-349.40995;;-431.94506;;-525.63438;;-625.97254;;-721.60539;;-792.59265;;-844.76232;;-892.2878;;-936.51696;;-970.39432;;-988.58586;;-998.67686;;-1017.142;;-1050.1542;;-1086.9856;;-1113.7932;;-1127.5631;;-1134.3596;;-1140.3458;;-1148.4041;;-1159.5395;;-1173.5106;;-1188.4265;;-1201.5294;;-1211.2213;;-1218.1587;;-1224.1538;;-1230.2189;;-1235.8402;;-1239.8557;;-1241.7877;;-1242.2941;;-1242.2941
-14.080862;;-14.080862;;-14.080862;;-14.080862;;-14.080862;;-14.080862;;-14.080862;;-14.080862;;-14.080862;;-14.080862;;-14.080862;;-14.080862;;-14.080862;;-14.080862;;-14.080864;;-14.080874;;-14.080906;;-14.08118;;-14.157816;;-15.784903;;-18.680687;;-22.863126;;-28.599836;;-36.483917;;-46.712139;;-60.161402;;-77.708372;;-100.42094;;-129.58307;;-166.65397;;-212.95062;;-269.88927;;-338.74225;;-420.17415;;-513.48805;;-615.10799;;-715.47304;;-794.61584;;-851.51784;;-901.46164;;-945.05388;;-973.30452;;-981.1923;;-981.35202;;-996.56614;;-1034.1841;;-1079.3379;;-1113.3107;;-1131.2796;;-1140.5007;;-1148.722;;-1158.9682;;-1171.2581;;-1184.7014;;-1197.8806;;-1209.0438;;-1217.2007;;-1223.0037;;-1228.0938;;-1233.5495;;-1239.0316;;-1243.3042;;-1245.5747;;-1246.2683;;-1246.2683
-14.080862;;-14.080862;;-14.080862;;-14.080862;;-14.080862;;-14.080862;;-14.080862;;-14.080862;;-14.080862;;-14.080862;;-14.080862;;-14.080862;;-14.080863;;-14.080899;;-14.081192;;-14.08235;;-14.085102;;-14.089415;;-14.115442;;-15.3525;;-17.992648;;-21.887605;;-27.263276;;-34.68492;;-44.324138;;-57.027812;;-73.634788;;-95.17231;;-122.87726;;-158.20202;;-202.49436;;-257.1432;;-323.49437;;-402.39964;;-493.56796;;-594.27826;;-696.72953;;-783.42058;;-846.5102;;-901.08793;;-948.37286;;-978.5457;;-986.53572;;-986.04862;;-1000.5839;;-1037.4425;;-1081.6521;;-1114.3602;;-1130.6915;;-1138.8521;;-1148.0816;;-1161.2283;;-1176.2622;;-1190.7539;;-1203.6307;;-1214.2855;;-1222.2579;;-1228.0102;;-1232.8967;;-1237.9918;;-1243.1437;;-1247.2351;;-1249.4384;;-1250.1089;;-1250.1089
-14.080862;;-14.080862;;-14.080862;;-14.080862;;-14.080862;;-14.080862;;-14.080862;;-14.080862;;-14.080862;;-14.080862;;-14.080862;;-14.080862;;-14.080885;;-14.081374;;-14.084838;;-14.097773;;-14.127672;;-14.177161;;-14.270973;;-14.980643;;-17.298649;;-20.836362;;-25.767823;;-32.620237;;-41.529177;;-53.294966;;-68.70396;;-88.723166;;-114.52217;;-147.48594;;-188.99002;;-240.3542;;-302.94291;;-377.73801;;-464.77849;;-562.08079;;-663.4429;;-754.48728;;-822.73269;;-883.03493;;-939.26106;;-980.91448;;-1000.5217;;-1008.3402;;-1024.3546;;-1055.8711;;-1091.7453;;-1116.7949;;-1127.2199;;-1131.915;;-1141.5372;;-1158.4437;;-1177.6384;;-1194.381;;-1207.8622;;-1218.7648;;-1227.153;;-1233.2557;;-1238.138;;-1242.8164;;-1247.2857;;-1250.6936;;-1252.441;;-1252.9247;;-1252.9247
-14.080862;;-14.080862;;-14.080862;;-14.080862;;-14.080862;;-14.080862;;-14.080862;;-14.080862;;-14.080862;;-14.080862;;-14.080862;;-14.080864;;-14.081072;;-14.084236;;-14.104254;;-14.175118;;-14.343459;;-14.709086;;-15.267249;;-15.696428;;-17.014612;;-19.961689;;-24.491914;;-30.510212;;-38.593464;;-49.309;;-63.378204;;-81.693488;;-105.34064;;-135.61515;;-173.89133;;-221.40768;;-279.49243;;-349.19908;;-430.80349;;-522.89562;;-620.55765;;-712.03625;;-782.59397;;-847.99613;;-916.50493;;-976.07486;;-1013.7774;;-1033.1827;;-1050.6955;;-1075.7613;;-1103.0977;;-1121.6096;;-1127.6007;;-1129.5227;;-1139.0291;;-1158.4411;;-1180.6444;;-1199.0252;;-1212.8402;;-1223.7856;;-1232.4186;;-1238.7793;;-1243.5522;;-1247.5296;;-1250.852;;-1253.18;;-1254.366;;-1254.744;;-1254.744
-14.080862;;-14.080862;;-14.080862;;-14.080862;;-14.080862;;-14.080862;;-14.080862;;-14.080862;;-14.080862;;-14.080862;;-14.080875;;-14.081;;-14.082435;;-14.096154;;-14.171331;;-14.427286;;-15.032996;;-15.990303;;-16.966939;;-17.556772;;-18.101255;;-20.06852;;-23.592991;;-28.815169;;-36.016348;;-45.676288;;-58.44109;;-75.124927;;-96.727722;;-124.45135;;-159.66276;;-203.55023;;-257.37191;;-322.23141;;-398.59358;;-485.5185;;-579.14425;;-669.83359;;-741.87361;;-811.18325;;-890.84683;;-967.43689;;-1022.1399;;-1051.0027;;-1068.5513;;-1088.7132;;-1112.3328;;-1130.7189;;-1138.3028;;-1141.0642;;-1150.0822;;-1168.3745;;-1189.3792;;-1206.524;;-1219.095;;-1229.1264;;-1237.4621;;-1243.9356;;-1248.6267;;-1251.8686;;-1253.9642;;-1255.2601;;-1256.1056;;-1256.5915;;-1256.5915
-14.080862;;-14.080862;;-14.080862;;-14.080862;;-14.080862;;-14.080862;;-14.080862;;-14.080862;;-14.080862;;-14.080863;;-14.081011;;-14.082339;;-14.09054;;-14.138062;;-14.360752;;-15.068232;;-16.28569;;-17.778489;;-19.173361;;-20.137172;;-20.592677;;-21.876059;;-24.336261;;-28.29451;;-34.385849;;-42.956265;;-54.529586;;-69.823145;;-89.751927;;-115.43649;;-148.20241;;-189.31339;;-239.93751;;-301.25471;;-373.94891;;-457.5678;;-549.28827;;-641.50079;;-719.10345;;-792.09806;;-877.74328;;-963.65231;;-1028.5724;;-1063.2206;;-1080.4513;;-1098.1175;;-1121.8882;;-1144.4701;;-1157.9825;;-1164.6363;;-1173.0686;;-1187.0586;;-1202.8592;;-1215.9112;;-1225.7022;;-1233.9893;;-1241.6219;;-1248.1674;;-1252.9834;;-1255.8648;;-1257.2235;;-1257.8978;;-1258.5273;;-1259.0499;;-1259.0499
-14.080862;;-14.080862;;-14.080862;;-14.080862;;-14.080862;;-14.080862;;-14.080862;;-14.080862;;-14.080862;;-14.080868;;-14.081652;;-14.088694;;-14.123569;;-14.270996;;-14.88936;;-16.193466;;-17.949293;;-19.936478;;-21.908792;;-22.943787;;-23.456509;;-24.648329;;-26.887476;;-29.94251;;-34.160403;;-41.279738;;-51.631627;;-65.709915;;-84.293815;;-108.41469;;-139.34096;;-178.47331;;-226.95426;;-286.04511;;-356.70414;;-439.00953;;-531.19025;;-627.70745;;-716.44717;;-794.50319;;-880.33631;;-966.74532;;-1034.7827;;-1073.7872;;-1093.4077;;-1111.3222;;-1135.5004;;-1160.6548;;-1178.6549;;-1188.8177;;-1196.5978;;-1205.818;;-1215.7483;;-1224.3421;;-1231.3957;;-1238.1486;;-1245.2304;;-1251.9054;;-1256.945;;-1259.7581;;-1260.7428;;-1260.8075;;-1260.6896;;-1260.6491;;-1260.6491
-14.080862;;-14.080862;;-14.080862;;-14.080862;;-14.080862;;-14.080862;;-14.080862;;-14.080862;;-14.080862;;-14.080883;;-14.083504;;-14.107253;;-14.217446;;-14.658306;;-15.856644;;-17.64126;;-19.854951;;-22.410734;;-24.602339;;-25.857881;;-26.433916;;-27.56392;;-29.5925;;-32.186678;;-35.109734;;-39.963042;;-48.905056;;-61.725968;;-78.975536;;-101.57393;;-130.71897;;-167.84977;;-214.26296;;-271.21274;;-339.91767;;-420.94905;;-513.49162;;-613.91666;;-713.44867;;-799.8447;;-883.25838;;-965.73287;;-1034.299;;-1079.4861;;-1106.283;;-1127.8791;;-1151.7871;;-1175.5337;;-1193.5312;;-1204.4927;;-1211.465;;-1217.602;;-1223.8752;;-1229.9354;;-1235.8231;;-1242.2569;;-1249.4298;;-1256.2624;;-1261.2092;;-1263.525;;-1263.5412;;-1262.1039;;-1260.2017;;-1258.8807;;-1258.8807
-14.080862;;-14.080862;;-14.080862;;-14.080862;;-14.080862;;-14.080862;;-14.080862;;-14.080862;;-14.080863;;-14.080946;;-14.087441;;-14.146379;;-14.440303;;-15.414783;;-17.059399;;-19.212977;;-21.920361;;-24.604971;;-27.012808;;-28.392482;;-29.016759;;-29.973918;;-31.514853;;-33.32897;;-35.316288;;-38.275061;;-45.526315;;-56.821837;;-72.400147;;-93.020882;;-119.77904;;-154.04493;;-197.27579;;-250.68774;;-315.63658;;-393.07352;;-482.93592;;-583.06276;;-687.16825;;-782.40512;;-865.39303;;-944.5534;;-1014.5729;;-1068.2658;;-1106.6029;;-1136.4727;;-1162.628;;-1184.817;;-1201.0108;;-1211.1992;;-1217.5645;;-1222.6201;;-1227.8247;;-1233.5502;;-1239.9362;;-1247.2053;;-1254.9455;;-1261.6961;;-1265.8;;-1266.5639;;-1264.4519;;-1260.6088;;-1256.5878;;-1254.0392;;-1254.0392
-14.080862;;-14.080862;;-14.080862;;-14.080862;;-14.080862;;-14.080862;;-14.080862;;-14.080862;;-14.080887;;-14.081472;;-14.096321;;-14.230685;;-14.96542;;-16.455264;;-18.477596;;-20.922529;;-23.758535;;-26.406901;;-28.559658;;-29.754697;;-30.371948;;-31.072373;;-31.987903;;-32.947048;;-34.151717;;-36.200742;;-41.44987;;-50.975117;;-64.507741;;-82.617326;;-106.25604;;-136.65344;;-175.26542;;-223.30115;;-282.06876;;-352.72058;;-435.68595;;-529.87063;;-631.13675;;-729.9877;;-815.44835;;-893.28163;;-965.10224;;-1027.3257;;-1079.4518;;-1123.0947;;-1158.5564;;-1184.9799;;-1202.5399;;-1213.2311;;-1219.9453;;-1225.2714;;-1230.766;;-1237.0025;;-1244.1797;;-1252.269;;-1260.4278;;-1266.8174;;-1269.6095;;-1268.276;;-1263.8516;;-1258.2475;;-1253.4607;;-1250.8366;;-1250.8366
-14.080862;;-14.080862;;-14.080862;;-14.080862;;-14.080862;;-14.080862;;-14.080862;;-14.080863;;-14.081075;;-14.084413;;-14.123708;;-14.535825;;-15.86119;;-17.787604;;-20.184155;;-23.018482;;-25.699907;;-27.896492;;-29.263978;;-30.000545;;-30.435739;;-30.831429;;-31.197604;;-31.525144;;-32.214092;;-33.896269;;-37.425698;;-45.00152;;-56.286867;;-71.646236;;-91.84715;;-117.93941;;-151.20897;;-192.87116;;-244.06093;;-305.95768;;-379.24284;;-463.51662;;-556.2316;;-650.9943;;-737.42581;;-814.81658;;-887.65673;;-956.8676;;-1023.157;;-1084.9648;;-1137.3377;;-1175.8062;;-1200.2254;;-1214.3197;;-1222.7123;;-1228.81;;-1234.342;;-1240.016;;-1246.4195;;-1254.0323;;-1262.2461;;-1268.8356;;-1271.3082;;-1269.0816;;-1264.0235;;-1258.898;;-1255.5659;;-1254.2255;;-1254.2255
-14.080862;;-14.080862;;-14.080862;;-14.080862;;-14.080862;;-14.080862;;-14.080865;;-14.080899;;-14.081959;;-14.094886;;-14.239399;;-15.26079;;-17.035121;;-19.360904;;-22.11314;;-25.192994;;-27.83539;;-29.225744;;-29.538693;;-29.610439;;-29.715129;;-29.836139;;-29.864232;;-29.859721;;-30.298333;;-31.795847;;-34.465587;;-39.668582;;-48.622526;;-61.248019;;-78.066855;;-99.919697;;-127.8864;;-163.12265;;-206.58103;;-259.36012;;-322.24862;;-395.27823;;-476.99364;;-563.30055;;-646.81114;;-723.8896;;-798.3056;;-874.45987;;-954.57198;;-1035.2952;;-1107.3991;;-1161.9644;;-1196.8022;;-1216.4698;;-1227.2918;;-1233.6796;;-1237.7038;;-1240.5403;;-1243.8513;;-1249.5689;;-1257.9766;;-1266.3795;;-1270.9549;;-1270.4435;;-1267.2104;;-1264.5344;;-1263.7679;;-1264.0499;;-1264.0499
-14.080862;;-14.080862;;-14.080862;;-14.080862;;-14.080863;;-14.080913;;-14.081331;;-14.083103;;-14.090381;;-14.13499;;-14.659544;;-16.177554;;-18.327759;;-21.010942;;-24.222294;;-27.359938;;-29.905742;;-30.414585;;-29.756347;;-29.149963;;-28.915959;;-28.895308;;-28.859971;;-28.815869;;-29.158652;;-30.419542;;-32.669541;;-35.865;;-42.227959;;-52.162366;;-65.813223;;-83.764079;;-106.8655;;-136.16144;;-172.50178;;-216.82821;;-269.98196;;-332.30322;;-403.16989;;-480.32714;;-559.62815;;-638.49902;;-719.29011;;-805.82633;;-899.51181;;-995.47427;;-1083.0659;;-1151.1727;;-1195.5996;;-1220.5916;;-1233.2233;;-1238.67;;-1239.6866;;-1238.4465;;-1238.0339;;-1241.853;;-1250.9802;;-1262.2621;;-1270.5305;;-1273.4647;;-1273.2171;;-1273.1054;;-1274.1838;;-1275.3479;;-1275.3479
-14.080862;;-14.080862;;-14.080862;;-14.080873;;-14.080961;;-14.081746;;-14.086565;;-14.104811;;-14.165422;;-14.370806;;-15.255021;;-17.019815;;-19.403404;;-22.318057;;-25.713103;;-28.933942;;-31.233841;;-31.174504;;-30.067892;;-29.116456;;-28.727363;;-28.753745;;-28.89812;;-29.035938;;-29.3616;;-30.268765;;-31.982834;;-34.428097;;-37.927544;;-45.134854;;-55.953768;;-70.602458;;-89.683759;;-114.04559;;-144.57259;;-182.04264;;-227.36119;;-281.1834;;-343.67308;;-414.26218;;-491.87764;;-576.7056;;-670.05103;;-770.99596;;-876.41285;;-980.72393;;-1074.989;;-1149.1919;;-1198.4695;;-1225.9767;;-1238.5934;;-1242.2037;;-1240.727;;-1237.3934;;-1235.7749;;-1239.3089;;-1249.0129;;-1261.7286;;-1272.124;;-1277.3961;;-1279.1096;;-1280.2225;;-1281.7875;;-1283.0154;;-1283.0154
-14.080862;;-14.080862;;-14.080906;;-14.081405;;-14.084009;;-14.09406;;-14.13064;;-14.309673;;-14.906956;;-15.502189;;-16.175283;;-17.676341;;-19.951099;;-22.795125;;-26.086904;;-29.094245;;-31.059969;;-31.189838;;-30.400795;;-29.668634;;-29.437996;;-29.667522;;-30.084308;;-30.469031;;-30.842421;;-31.475177;;-32.684023;;-34.62121;;-37.164716;;-40.904712;;-49.114927;;-61.177142;;-77.323336;;-98.197875;;-124.7043;;-157.71796;;-198.25326;;-247.50334;;-306.73575;;-377.33351;;-460.55835;;-556.69181;;-663.68554;;-776.48631;;-887.99918;;-991.92068;;-1083.0553;;-1154.7789;;-1202.711;;-1229.0031;;-1240.2409;;-1243.1093;;-1242.5157;;-1241.671;;-1242.7821;;-1247.5473;;-1256.2997;;-1266.7567;;-1275.1415;;-1279.4815;;-1281.0755;;-1282.2942;;-1283.9322;;-1285.1924;;-1285.1924
-14.080865;;-14.080865;;-14.081296;;-14.085852;;-14.108234;;-14.183262;;-14.506568;;-15.434919;;-16.558505;;-17.395483;;-17.961135;;-18.935916;;-20.580334;;-23.01512;;-25.594971;;-28.023564;;-29.812038;;-30.65602;;-30.775314;;-30.687231;;-30.823465;;-31.298788;;-31.961199;;-32.574686;;-33.040682;;-33.525499;;-34.37551;;-35.858941;;-37.900228;;-40.318452;;-47.004463;;-58.195427;;-73.71742;;-94.175422;;-120.58267;;-154.25586;;-196.60646;;-248.99196;;-312.96144;;-389.84912;;-480.39428;;-584.071;;-697.94529;;-815.03221;;-923.99576;;-1018.1824;;-1097.8427;;-1160.0036;;-1201.4718;;-1224.5617;;-1235.799;;-1241.716;;-1246.5455;;-1251.8138;;-1257.3677;;-1262.9585;;-1268.51;;-1273.2186;;-1275.7967;;-1276.2393;;-1276.4132;;-1278.07;;-1280.907;;-1283.0831;;-1283.0831
-14.08088;;-14.08088;;-14.082909;;-14.103849;;-14.208046;;-14.637985;;-15.743322;;-17.261728;;-18.826759;;-19.879939;;-20.361321;;-21.176324;;-22.071064;;-23.567581;;-25.118145;;-26.89154;;-28.722805;;-30.301398;;-31.363973;;-31.968644;;-32.472356;;-33.132547;;-33.948148;;-34.723879;;-35.279243;;-35.688746;;-36.28898;;-37.352839;;-38.807512;;-42.588451;;-51.757552;;-65.08661;;-82.932565;;-106.15919;;-135.95647;;-173.79025;;-221.08673;;-279.38591;;-350.23698;;-434.80768;;-533.38139;;-644.42265;;-762.88207;;-877.5851;;-972.91462;;-1048.1468;;-1109.6548;;-1157.3077;;-1190.3341;;-1211.9838;;-1227.5574;;-1240.95;;-1253.5008;;-1264.5003;;-1272.5297;;-1276.821;;-1277.5116;;-1275.0542;;-1270.4167;;-1266.0265;;-1265.0758;;-1268.7641;;-1274.7491;;-1279.0712;;-1279.0712
-14.080969;;-14.080969;;-14.087331;;-14.152989;;-14.590786;;-15.817212;;-17.564557;;-19.624374;;-21.638386;;-22.881892;;-23.325419;;-23.590203;;-24.029879;;-24.546602;;-25.367573;;-26.766971;;-28.670651;;-30.65772;;-32.250142;;-33.286487;;-33.988673;;-34.673634;;-35.496503;;-36.341173;;-36.966376;;-37.359884;;-37.819467;;-38.553862;;-40.665596;;-48.46883;;-60.43214;;-76.722008;;-98.07787;;-125.58654;;-160.6258;;-204.67233;;-259.25425;;-326.02099;;-406.39383;;-501.14045;;-609.60619;;-728.32474;;-848.26783;;-950.60254;;-1022.2324;;-1073.8521;;-1114.4346;;-1147.0704;;-1174.28;;-1199.1243;;-1223.0382;;-1245.0428;;-1263.1846;;-1276.03;;-1282.9695;;-1284.0379;;-1279.6376;;-1270.739;;-1259.8693;;-1251.6896;;-1250.8906;;-1258.0236;;-1268.2778;;-1275.3;;-1275.3
-14.081497;;-14.081497;;-14.09919;;-14.391537;;-15.634588;;-17.499846;;-19.838934;;-22.414334;;-24.853537;;-26.347334;;-26.213687;;-25.72582;;-25.284886;;-25.333552;;-26.117435;;-27.614442;;-29.585742;;-31.623602;;-33.322622;;-34.476884;;-35.16852;;-35.698134;;-36.372815;;-37.215853;;-38.078493;;-39.300469;;-40.958989;;-42.514727;;-47.184455;;-57.520417;;-72.438845;;-92.353313;;-118.19915;;-151.25327;;-193.01258;;-244.90777;;-308.6322;;-385.76361;;-477.42821;;-583.61712;;-701.81396;;-824.79036;;-936.20508;;-1013.2845;;-1059.8143;;-1090.6839;;-1114.9051;;-1138.5853;;-1165.9549;;-1197.4625;;-1229.0919;;-1255.6325;;-1274.1768;;-1284.6906;;-1288.3888;;-1286.0557;;-1277.8465;;-1264.6599;;-1249.9885;;-1240.0571;;-1240.379;;-1250.6375;;-1264.1221;;-1273.0132;;-1273.0132
-14.08373;;-14.08373;;-14.186323;;-15.248485;;-17.081657;;-19.487689;;-22.350444;;-25.423821;;-28.421472;;-29.641752;;-28.637218;;-26.866906;;-25.571143;;-25.602252;;-26.89413;;-28.827626;;-30.910303;;-32.829254;;-34.401227;;-35.486231;;-36.092374;;-36.739746;;-38.066588;;-40.251167;;-43.210253;;-46.396267;;-49.228499;;-51.478165;;-56.958875;;-69.539387;;-87.739632;;-111.96904;;-143.27138;;-183.08746;;-232.85079;;-294.07099;;-368.40076;;-457.06728;;-560.36249;;-676.58449;;-799.95111;;-916.6243;;-1001.6675;;-1050.4334;;-1079.3933;;-1099.7084;;-1119.0314;;-1143.4109;;-1175.415;;-1211.7592;;-1245.1514;;-1269.6765;;-1284.0611;;-1290.4319;;-1291.1356;;-1286.8409;;-1277.06;;-1262.4431;;-1246.8805;;-1237.0161;;-1238.1319;;-1249.1901;;-1263.0469;;-1271.9937;;-1271.9937
-14.096126;;-14.096126;;-14.712043;;-16.364833;;-18.67637;;-21.562017;;-24.873494;;-28.534102;;-31.602305;;-32.089736;;-29.925642;;-27.3318;;-25.613295;;-25.931396;;-27.791615;;-30.14159;;-32.277844;;-33.986648;;-35.343117;;-36.725521;;-39.48477;;-42.416078;;-45.046601;;-48.339313;;-52.64368;;-57.286239;;-61.281181;;-64.324906;;-69.919743;;-84.586884;;-106.41357;;-135.57444;;-173.16031;;-220.72983;;-279.5391;;-351.13275;;-436.85968;;-537.20078;;-650.86729;;-772.93312;;-891.10417;;-980.66154;;-1031.8718;;-1063.1946;;-1087.1902;;-1110.0306;;-1135.5205;;-1166.147;;-1201.2693;;-1236.0482;;-1264.1014;;-1282.0085;;-1290.8493;;-1293.797;;-1293.0225;;-1288.5754;;-1279.4947;;-1266.1715;;-1252.1059;;-1243.1155;;-1243.5694;;-1252.4242;;-1263.6892;;-1271.0009;;-1271.0009
-14.246786;;-14.246786;;-15.550142;;-17.623564;;-20.332501;;-23.620206;;-27.291147;;-31.20934;;-34.136042;;-33.390647;;-30.739977;;-28.021459;;-26.436158;;-27.149669;;-29.252919;;-31.660908;;-33.612908;;-35.114797;;-37.990698;;-42.565001;;-47.456826;;-51.872791;;-55.603374;;-60.050253;;-65.795488;;-71.995792;;-77.316547;;-81.338387;;-86.87171;;-102.89975;;-128.44193;;-163.00258;;-207.55698;;-263.69391;;-332.35796;;-414.94499;;-512.1754;;-623.14754;;-743.66198;;-862.68546;;-956.22306;;-1008.8789;;-1040.5372;;-1068.3406;;-1098.9941;;-1132.4315;;-1166.9864;;-1201.2486;;-1233.1982;;-1259.854;;-1278.6738;;-1289.3947;;-1294.1074;;-1295.3843;;-1294.5038;;-1291.1088;;-1284.2097;;-1273.8869;;-1262.5501;;-1254.4301;;-1252.9148;;-1257.6865;;-1264.7809;;-1269.6329;;-1269.6329
-14.917447;;-14.917447;;-16.611805;;-19.078811;;-22.207603;;-25.894773;;-30.122874;;-34.132736;;-36.696329;;-34.892377;;-31.94939;;-29.414761;;-28.313674;;-29.313269;;-31.376229;;-33.485863;;-35.372618;;-39.410075;;-45.17989;;-51.972386;;-58.874741;;-64.856426;;-69.773788;;-75.540567;;-82.990336;;-91.042855;;-97.964276;;-103.21363;;-109.10239;;-125.12341;;-154.03542;;-194.14265;;-246.02757;;-311.14645;;-389.92712;;-483.29334;;-590.85072;;-709.32586;;-829.49524;;-930.24172;;-990.19537;;-1023.8599;;-1051.6696;;-1085.5891;;-1126.5316;;-1168.8188;;-1206.757;;-1237.4258;;-1260.286;;-1276.0708;;-1286.0667;;-1291.7635;;-1294.6161;;-1295.7032;;-1295.4273;;-1293.4696;;-1289.1507;;-1282.2481;;-1273.8844;;-1266.619;;-1263.0464;;-1263.7522;;-1266.777;;-1269.2328;;-1269.2328
-15.818634;;-15.818634;;-17.748406;;-20.538801;;-24.057169;;-28.158184;;-32.817313;;-37.16219;;-39.482858;;-36.947136;;-33.67676;;-31.307486;;-30.759893;;-31.938645;;-33.807732;;-35.95982;;-40.635321;;-47.378182;;-55.621004;;-64.761941;;-73.924113;;-81.749348;;-88.05683;;-95.387307;;-104.88938;;-115.18688;;-124.06697;;-130.85577;;-137.77346;;-152.90675;;-183.71968;;-228.75361;;-287.66041;;-361.42608;;-449.68198;;-552.30025;;-667.03934;;-786.80639;;-894.92138;;-968.92675;;-1014.321;;-1047.3178;;-1081.3355;;-1122.5778;;-1168.1012;;-1210.3337;;-1243.2522;;-1265.0291;;-1277.3932;;-1283.8591;;-1287.7635;;-1290.9085;;-1293.5215;;-1295.2012;;-1295.7176;;-1295.0102;;-1292.8424;;-1288.8628;;-1283.2318;;-1277.1919;;-1272.6314;;-1270.6698;;-1270.7757;;-1271.4174;;-1271.4174
-16.58513;;-16.58513;;-18.689384;;-21.729339;;-25.558033;;-30.006945;;-35.038908;;-39.70511;;-41.949251;;-38.953006;;-35.38579;;-33.101531;;-33.012112;;-34.347434;;-36.515961;;-41.580957;;-49.03744;;-58.435646;;-69.373595;;-81.294841;;-93.165553;;-103.20955;;-111.16775;;-120.30254;;-132.13345;;-145.01582;;-156.20318;;-164.89371;;-173.84339;;-189.01734;;-219.43385;;-267.12052;;-331.37846;;-412.12341;;-507.88008;;-616.4694;;-732.86131;;-844.83987;;-932.29683;;-994.27061;;-1042.2279;;-1084.7115;;-1127.3165;;-1170.8094;;-1211.5678;;-1244.8987;;-1267.9783;;-1280.7581;;-1285.6213;;-1286.4661;;-1287.0158;;-1289.018;;-1291.9263;;-1294.3464;;-1295.5635;;-1295.6994;;-1294.9295;;-1293.0186;;-1289.6941;;-1285.3581;;-1281.183;;-1278.2702;;-1276.8349;;-1276.3624;;-1276.3624
-17.185354;;-17.185354;;-19.412202;;-22.626663;;-26.669803;;-31.353579;;-36.623195;;-41.456527;;-43.438581;;-40.209809;;-36.565078;;-34.466122;;-34.716564;;-36.724809;;-42.111749;;-50.09476;;-60.37128;;-72.736722;;-86.874802;;-102.16703;;-117.25719;;-129.82569;;-139.61292;;-150.72619;;-165.20217;;-181.09128;;-195.0256;;-206.07559;;-217.60212;;-235.25518;;-265.62447;;-312.58951;;-377.76484;;-461.05117;;-559.84572;;-668.3322;;-778.21456;;-874.99624;;-951.80479;;-1015.3933;;-1072.3812;;-1125.6598;;-1173.9771;;-1214.1695;;-1244.5424;;-1265.9195;;-1279.842;;-1287.1435;;-1288.8523;;-1287.5121;;-1286.4841;;-1287.7233;;-1290.6852;;-1293.5779;;-1295.2918;;-1295.9136;;-1295.8749;;-1295.1966;;-1293.5965;;-1291.0709;;-1288.157;;-1285.567;;-1283.7248;;-1282.769;;-1282.769
