-2.5256024;;-2.5256024;;-2.5256892;;-2.5339255;;-2.5543091;;-2.5834385;;-2.621588;;-2.6699671;;-2.7294795;;-2.8008258;;-3.1443071;;-3.2427197;;-3.3450999;;-3.4397569;;-3.5183862;;-3.6107624;;-3.7449549;;-3.9347157;;-4.1904078;;-4.5190887;;-4.9263883;;-5.4104635;;-5.9610987;;-6.5699877;;-7.2247147;;-7.9130035;;-8.6188565;;-9.3156184;;-9.969824;;-10.556675;;-11.073179;;-11.534154;;-11.955416;;-12.341033;;-12.684815;;-12.984572;;-13.249938;;-13.492767;;-13.7173;;-13.922929;;-14.107811;;-14.269512;;-14.406758;;-14.519561;;-14.608582;;-14.676701;;-14.733391;;-14.794801;;-14.874251;;-14.973065;;-15.082554;;-15.190974;;-15.285503;;-15.351649;;-15.381426;;-15.380495;;-15.361555;;-15.33433;;-15.310643;;-15.308967;;-15.336769;;-15.376616;;-15.406643;;-15.42161;;-15.42161
-2.5256024;;-2.5256024;;-2.5256892;;-2.5339255;;-2.5543091;;-2.5834385;;-2.621588;;-2.6699671;;-2.7294795;;-2.8008258;;-3.1443072;;-3.2427197;;-3.3450999;;-3.4397568;;-3.5183861;;-3.6107622;;-3.7449548;;-3.9347157;;-4.1904078;;-4.5190887;;-4.9263883;;-5.4104635;;-5.9610988;;-6.5699878;;-7.2247147;;-7.9130035;;-8.6188565;;-9.3156184;;-9.969824;;-10.556675;;-11.073179;;-11.534154;;-11.955416;;-12.341033;;-12.684815;;-12.984572;;-13.249938;;-13.492767;;-13.7173;;-13.922929;;-14.107811;;-14.269512;;-14.406758;;-14.519561;;-14.608582;;-14.676701;;-14.733391;;-14.794801;;-14.874251;;-14.973065;;-15.082553;;-15.190974;;-15.285503;;-15.351649;;-15.381426;;-15.380495;;-15.361555;;-15.33433;;-15.310643;;-15.308967;;-15.336769;;-15.376616;;-15.406643;;-15.421733;;-15.421733
-2.5256025;;-2.5256025;;-2.5258352;;-2.5364857;;-2.5582718;;-2.5888892;;-2.6288267;;-2.6794068;;-2.7415472;;-2.8160866;;-3.1659922;;-3.2670674;;-3.3719244;;-3.4701443;;-3.5484309;;-3.6436286;;-3.7877707;;-3.990132;;-4.25791;;-4.5981404;;-5.0154059;;-5.5049667;;-6.0573208;;-6.6626381;;-7.309867;;-7.9892352;;-8.6848535;;-9.3698466;;-10.011056;;-10.582095;;-11.079296;;-11.52154;;-11.930936;;-12.314113;;-12.664;;-12.975953;;-13.255103;;-13.507517;;-13.733855;;-13.933268;;-14.106024;;-14.252616;;-14.374803;;-14.476078;;-14.55986;;-14.63061;;-14.697504;;-14.773156;;-14.865551;;-14.972679;;-15.085546;;-15.193043;;-15.282454;;-15.341346;;-15.366127;;-15.36691;;-15.358593;;-15.349127;;-15.343377;;-15.350566;;-15.37388;;-15.401209;;-15.419944;;-15.433256;;-15.433256
-2.525603;;-2.525603;;-2.5263052;;-2.5398348;;-2.563414;;-2.5959263;;-2.6381498;;-2.6915598;;-2.7571113;;-2.8358124;;-3.1929023;;-3.2985584;;-3.4085746;;-3.5124227;;-3.5936142;;-3.6983882;;-3.8613976;;-4.0864868;;-4.3776424;;-4.7403815;;-5.1768168;;-5.677643;;-6.2333644;;-6.8310704;;-7.4616073;;-8.118919;;-8.7880687;;-9.4443042;;-10.057323;;-10.600729;;-11.069919;;-11.488319;;-11.884489;;-12.26664;;-12.62612;;-12.956436;;-13.257792;;-13.527703;;-13.759798;;-13.951396;;-14.105483;;-14.228032;;-14.327349;;-14.412266;;-14.489172;;-14.564065;;-14.645804;;-14.742355;;-14.853695;;-14.971779;;-15.085964;;-15.186504;;-15.264089;;-15.312233;;-15.333998;;-15.34322;;-15.35404;;-15.3701;;-15.387726;;-15.404958;;-15.419328;;-15.424192;;-15.419052;;-15.418672;;-15.418672
-2.5256036;;-2.5256036;;-2.5268109;;-2.5417976;;-2.5664058;;-2.6000163;;-2.6435707;;-2.6986412;;-2.7662336;;-2.8474714;;-3.2096591;;-3.3179325;;-3.432263;;-3.5422586;;-3.6336711;;-3.7608635;;-3.9520057;;-4.207985;;-4.5314534;;-4.9253144;;-5.3845393;;-5.8999259;;-6.4574933;;-7.0410652;;-7.6439809;;-8.2626897;;-8.8849126;;-9.4930032;;-10.064643;;-10.575813;;-11.020793;;-11.423994;;-11.815296;;-12.200887;;-12.570248;;-12.917526;;-13.240945;;-13.530539;;-13.771542;;-13.957394;;-14.093241;;-14.192243;;-14.271278;;-14.344432;;-14.419104;;-14.500943;;-14.598111;;-14.714827;;-14.84367;;-14.969382;;-15.078409;;-15.16357;;-15.223545;;-15.261541;;-15.286373;;-15.310529;;-15.342623;;-15.380744;;-15.415728;;-15.43845;;-15.440864;;-15.417693;;-15.378628;;-15.355253;;-15.355253
-2.5256034;;-2.5256034;;-2.5266752;;-2.5413314;;-2.5656924;;-2.59904;;-2.6422867;;-2.6969983;;-2.7642344;;-2.8451524;;-3.2083962;;-3.3164672;;-3.4324397;;-3.5488033;;-3.6627187;;-3.8264402;;-4.0529891;;-4.345728;;-4.7066478;;-5.1308953;;-5.6118488;;-6.1374429;;-6.6873538;;-7.245123;;-7.8085944;;-8.3758916;;-8.9385123;;-9.4888911;;-10.015314;;-10.498237;;-10.930619;;-11.332707;;-11.728941;;-12.120766;;-12.496748;;-12.853745;;-13.191039;;-13.494543;;-13.742866;;-13.925588;;-14.049779;;-14.135075;;-14.205242;;-14.277795;;-14.359581;;-14.454021;;-14.566899;;-14.699331;;-14.839358;;-14.966551;;-15.064841;;-15.130892;;-15.173167;;-15.204211;;-15.234946;;-15.273225;;-15.321594;;-15.374387;;-15.419775;;-15.444422;;-15.434007;;-15.379466;;-15.297925;;-15.242935;;-15.242935
-2.5256029;;-2.5256029;;-2.5262107;;-2.5393189;;-2.5626016;;-2.5948013;;-2.6366743;;-2.6897155;;-2.7550547;;-2.8338456;;-3.1957437;;-3.3020258;;-3.418373;;-3.543643;;-3.6935125;;-3.8955824;;-4.1575259;;-4.4860109;;-4.8790772;;-5.3278042;;-5.8235979;;-6.3469652;;-6.8734003;;-7.3929204;;-7.9111484;;-8.4279697;;-8.9379491;;-9.4401871;;-9.9307303;;-10.396098;;-10.829237;;-11.241594;;-11.646432;;-12.040324;;-12.414105;;-12.768875;;-13.106424;;-13.412429;;-13.663039;;-13.845754;;-13.968834;;-14.055264;;-14.131302;;-14.215212;;-14.313089;;-14.425511;;-14.553662;;-14.694993;;-14.836353;;-14.957676;;-15.044253;;-15.097027;;-15.130588;;-15.160454;;-15.195426;;-15.240168;;-15.295951;;-15.356445;;-15.407873;;-15.432431;;-15.408236;;-15.319778;;-15.190275;;-15.098453;;-15.098453
-2.5256028;;-2.5256028;;-2.525952;;-2.5374756;;-2.5597143;;-2.5907898;;-2.6313097;;-2.6827086;;-2.7462265;;-3.090316;;-3.1830378;;-3.2883664;;-3.4079723;;-3.5496559;;-3.7299843;;-3.9602655;;-4.2490182;;-4.6027159;;-5.0143818;;-5.476379;;-5.9735476;;-6.4794705;;-6.971612;;-7.4526584;;-7.9359791;;-8.4228225;;-8.9072323;;-9.3867263;;-9.8595563;;-10.319183;;-10.760502;;-11.184919;;-11.592538;;-11.976997;;-12.335089;;-12.67338;;-12.996724;;-13.294078;;-13.543486;;-13.731336;;-13.864149;;-13.964284;;-14.057294;;-14.160591;;-14.279592;;-14.41185;;-14.55223;;-14.693548;;-14.824866;;-14.933401;;-15.011752;;-15.064476;;-15.104512;;-15.141602;;-15.179598;;-15.223218;;-15.277348;;-15.337806;;-15.389377;;-15.410026;;-15.371547;;-15.253736;;-15.085479;;-14.964747;;-14.964747
-2.5256035;;-2.5256035;;-2.5259323;;-2.5368971;;-2.5586428;;-2.5891049;;-2.6288344;;-2.6792381;;-2.7416512;;-3.0858326;;-3.1767713;;-3.2819265;;-3.406454;;-3.5606412;;-3.7551166;;-3.9986033;;-4.2995796;;-4.6602265;;-5.0746249;;-5.5334345;;-6.0170411;;-6.4989481;;-6.9656946;;-7.4292004;;-7.9052498;;-8.3946182;;-8.8866162;;-9.3706966;;-9.8420761;;-10.300056;;-10.744107;;-11.169842;;-11.567869;;-11.930991;;-12.262639;;-12.574783;;-12.875589;;-13.159233;;-13.407976;;-13.606264;;-13.755191;;-13.873742;;-13.986666;;-14.11103;;-14.25126;;-14.40122;;-14.549221;;-14.684022;;-14.799498;;-14.894528;;-14.972019;;-15.037899;;-15.097117;;-15.148713;;-15.1909;;-15.22987;;-15.275107;;-15.326008;;-15.368569;;-15.380016;;-15.331529;;-15.204614;;-15.030979;;-14.908846;;-14.908846
-2.5256071;;-2.5256071;;-2.5261469;;-2.5377443;;-2.5594499;;-2.5895695;;-2.6286545;;-2.6780386;;-3.0054263;;-3.079376;;-3.1679315;;-3.2702196;;-3.3933998;;-3.5468617;;-3.7402737;;-3.9811296;;-4.2770665;;-4.6281907;;-5.030196;;-5.4736389;;-5.9402983;;-6.4099533;;-6.87629;;-7.3520938;;-7.8505886;;-8.3699696;;-8.8932641;;-9.3987471;;-9.8743145;;-10.323015;;-10.753103;;-11.163257;;-11.541625;;-11.880317;;-12.18582;;-12.47355;;-12.754642;;-13.027619;;-13.277822;;-13.487087;;-13.650418;;-13.783254;;-13.910521;;-14.050261;;-14.206019;;-14.368139;;-14.520441;;-14.650941;;-14.758939;;-14.852215;;-14.93993;;-15.026377;;-15.107679;;-15.174144;;-15.220455;;-15.253638;;-15.285781;;-15.320082;;-15.34671;;-15.34692;;-15.298476;;-15.191337;;-15.055058;;-14.965086;;-14.965086
-2.5256221;;-2.5256221;;-2.5271854;;-2.5409278;;-2.5631893;;-2.593133;;-2.6313254;;-2.6788267;;-3.0034559;;-3.0702209;;-3.1489607;;-3.2403423;;-3.3485676;;-3.4853877;;-3.6626865;;-3.8879056;;-4.1670955;;-4.5011456;;-4.8865183;;-5.3160208;;-5.7760521;;-6.2515598;;-6.7379496;;-7.2451024;;-7.7825414;;-8.3446706;;-8.9071861;;-9.4364893;;-9.9113005;;-10.337754;;-10.737805;;-11.122021;;-11.481311;;-11.804619;;-12.095909;;-12.371076;;-12.64323;;-12.912321;;-13.163607;;-13.377006;;-13.544927;;-13.681377;;-13.811668;;-13.955223;;-14.115849;;-14.282527;;-14.438811;;-14.575819;;-14.696648;;-14.809534;;-14.920428;;-15.028881;;-15.126345;;-15.200871;;-15.247648;;-15.274411;;-15.294381;;-15.313806;;-15.327127;;-15.321138;;-15.283395;;-15.21415;;-15.136606;;-15.093543;;-15.093543
-2.5257067;;-2.5257067;;-2.5314836;;-2.5484739;;-2.5727292;;-2.6038597;;-2.6421154;;-2.6872298;;-3.0059462;;-3.0636517;;-3.1285096;;-3.2021378;;-3.2845516;;-3.3938936;;-3.5481858;;-3.7513969;;-4.007545;;-4.3206009;;-4.6880402;;-5.1068137;;-5.5688788;;-6.061507;;-6.5765241;;-7.1200339;;-7.6990163;;-8.3029936;;-8.8990768;;-9.442818;;-9.9060102;;-10.300729;;-10.665728;;-11.026815;;-11.378814;;-11.704281;;-11.998991;;-12.275523;;-12.547642;;-12.81539;;-13.062732;;-13.26941;;-13.429286;;-13.5572;;-13.678436;;-13.813493;;-13.968383;;-14.133901;;-14.296497;;-14.451358;;-14.602306;;-14.751273;;-14.8944;;-15.024209;;-15.131278;;-15.207246;;-15.251233;;-15.273088;;-15.287578;;-15.302755;;-15.314504;;-15.312636;;-15.292177;;-15.259924;;-15.231955;;-15.225997;;-15.225997
-2.5269729;;-2.5269729;;-2.5397237;;-2.5605229;;-2.588041;;-2.6221322;;-2.6618322;;-2.9717354;;-3.016757;;-3.0612861;;-3.1105255;;-3.1651527;;-3.2204021;;-3.2994259;;-3.4321345;;-3.6143509;;-3.8480891;;-4.1387794;;-4.486758;;-4.8924824;;-5.3538084;;-5.8624572;;-6.4074703;;-6.9876881;;-7.6046735;;-8.2411917;;-8.8558007;;-9.3968378;;-9.8359628;;-10.195488;;-10.53007;;-10.878838;;-11.239552;;-11.58628;;-11.901745;;-12.189964;;-12.463583;;-12.724906;;-12.960115;;-13.151706;;-13.296418;;-13.409633;;-13.515429;;-13.635273;;-13.779461;;-13.94327;;-14.115533;;-14.29183;;-14.474021;;-14.658615;;-14.833563;;-14.984801;;-15.101814;;-15.180093;;-15.223518;;-15.245455;;-15.263235;;-15.285698;;-15.307674;;-15.319282;;-15.318296;;-15.312498;;-15.312415;;-15.324828;;-15.324828
-2.5340712;;-2.5340712;;-2.5510241;;-2.5758071;;-2.607408;;-2.645153;;-2.6877477;;-2.9996269;;-3.0362685;;-3.0617917;;-3.0936223;;-3.1326451;;-3.1681952;;-3.2193832;;-3.334191;;-3.4984298;;-3.712706;;-3.9825124;;-4.3113639;;-4.7017015;;-5.1563091;;-5.6731901;;-6.2441394;;-6.8594389;;-7.5078399;;-8.1627913;;-8.7763109;;-9.2957167;;-9.7005653;;-10.025483;;-10.33703;;-10.683507;;-11.064617;;-11.44552;;-11.793146;;-12.098507;;-12.371193;;-12.618818;;-12.835704;;-13.011161;;-13.144308;;-13.247668;;-13.341379;;-13.447721;;-13.58289;;-13.747563;;-13.930286;;-14.122233;;-14.322482;;-14.528482;;-14.727548;;-14.901233;;-15.03475;;-15.123182;;-15.173132;;-15.201483;;-15.227874;;-15.261686;;-15.297498;;-15.325732;;-15.343662;;-15.355745;;-15.368404;;-15.386753;;-15.386753
-2.5447373;;-2.5447373;;-2.5642418;;-2.5924472;;-2.6280268;;-2.6696046;;-2.71551;;-3.0291843;;-3.0564666;;-3.0633489;;-3.0806292;;-3.1087758;;-3.1334244;;-3.1597448;;-3.2598471;;-3.4094676;;-3.607955;;-3.8606258;;-4.1734703;;-4.5501474;;-4.9967218;;-5.5156578;;-6.1024774;;-6.7429112;;-7.4118692;;-8.0697416;;-8.6636798;;-9.1478776;;-9.5154866;;-9.8113278;;-10.10822;;-10.458894;;-10.86321;;-11.278454;;-11.657345;;-11.978727;;-12.248861;;-12.481324;;-12.681359;;-12.847737;;-12.980987;;-13.086932;;-13.178793;;-13.27899;;-13.409534;;-13.575505;;-13.763734;;-13.960214;;-14.1632;;-14.375851;;-14.590513;;-14.786646;;-14.943133;;-15.050538;;-15.11486;;-15.154269;;-15.189188;;-15.230277;;-15.275209;;-15.317152;;-15.351842;;-15.37838;;-15.399079;;-15.419745;;-15.419745
-2.5549086;;-2.5549086;;-2.5764247;;-2.6074271;;-2.6463047;;-2.691114;;-2.7396507;;-3.0539729;;-3.0708848;;-3.0640913;;-3.0713251;;-3.0935431;;-3.1147204;;-3.1238263;;-3.2108443;;-3.3488476;;-3.5356079;;-3.7757597;;-4.077111;;-4.4438612;;-4.8832493;;-5.3996756;;-5.9909118;;-6.641487;;-7.3182158;;-7.967404;;-8.5318704;;-8.9798147;;-9.3192762;;-9.5999128;;-9.8937298;;-10.252018;;-10.672654;;-11.107578;;-11.502265;;-11.83041;;-12.097422;;-12.320769;;-12.513638;;-12.682239;;-12.826962;;-12.945876;;-13.045305;;-13.146865;;-13.275552;;-13.438875;;-13.623812;;-13.815288;;-14.012806;;-14.22469;;-14.448063;;-14.662351;;-14.842285;;-14.973461;;-15.058013;;-15.111226;;-15.152365;;-15.19438;;-15.240991;;-15.290656;;-15.338746;;-15.378865;;-15.408189;;-15.431924;;-15.431924
-2.5630725;;-2.5630725;;-2.5860095;;-2.6189608;;-2.6600648;;-2.7068804;;-2.7566241;;-3.0693999;;-3.0767247;;-3.0639187;;-3.0658224;;-3.0850449;;-3.1067279;;-3.1112639;;-3.1826762;;-3.3109495;;-3.4889554;;-3.7200992;;-4.0122194;;-4.3708197;;-4.8026426;;-5.3129705;;-5.9005962;;-6.5505408;;-7.2265405;;-7.8651469;;-8.40645;;-8.8341437;;-9.167527;;-9.4543694;;-9.7578602;;-10.122215;;-10.543125;;-10.973235;;-11.360565;;-11.68199;;-11.944908;;-12.167466;;-12.364459;;-12.543779;;-12.704059;;-12.838515;;-12.949571;;-13.056703;;-13.183759;;-13.339531;;-13.515284;;-13.699582;;-13.892267;;-14.101194;;-14.325424;;-14.547626;;-14.744153;;-14.898143;;-15.005279;;-15.07411;;-15.120761;;-15.160265;;-15.202779;;-15.253809;;-15.310893;;-15.363274;;-15.402024;;-15.429877;;-15.429877
-2.5699946;;-2.5699946;;-2.5939214;;-2.6281787;;-2.6706476;;-2.7183738;;-3.03451;;-3.0743932;;-3.077321;;-3.0659937;;-3.0664998;;-3.0835046;;-3.1059981;;-3.1146846;;-3.1656257;;-3.2844249;;-3.454302;;-3.6769753;;-3.9598852;;-4.3095852;;-4.7320028;;-5.2329527;;-5.8121463;;-6.4561091;;-7.1293009;;-7.7661923;;-8.3060053;;-8.741666;;-9.0968958;;-9.4113205;;-9.7328521;;-10.095586;;-10.49679;;-10.89861;;-11.260051;;-11.565406;;-11.823662;;-12.050321;;-12.256472;;-12.447089;;-12.619421;;-12.766689;;-12.890347;;-13.005495;;-13.131476;;-13.279184;;-13.447248;;-13.628643;;-13.820041;;-14.024088;;-14.240599;;-14.459504;;-14.663489;;-14.834862;;-14.962029;;-15.046067;;-15.099257;;-15.136653;;-15.172403;;-15.219208;;-15.27946;;-15.340262;;-15.386914;;-15.418682;;-15.418682
-2.5772807;;-2.5772807;;-2.6020116;;-2.6372582;;-2.6805818;;-2.728438;;-3.0432461;;-3.0754048;;-3.0793459;;-3.0746493;;-3.0770794;;-3.0914787;;-3.1117426;;-3.1237293;;-3.1525115;;-3.2614163;;-3.4222497;;-3.6352776;;-3.9074994;;-4.2466268;;-4.657429;;-5.1462347;;-5.7139473;;-6.3495429;;-7.0212896;;-7.6683494;;-8.2300079;;-8.698436;;-9.094915;;-9.4476666;;-9.7873941;;-10.139295;;-10.507073;;-10.869563;;-11.200429;;-11.489855;;-11.744906;;-11.975765;;-12.188131;;-12.384121;;-12.562735;;-12.720996;;-12.859736;;-12.987206;;-13.116902;;-13.261996;;-13.427615;;-13.608751;;-13.797582;;-13.992444;;-14.196343;;-14.407978;;-14.615715;;-14.799287;;-14.94041;;-15.035601;;-15.095174;;-15.132198;;-15.161078;;-15.199568;;-15.255891;;-15.318195;;-15.368564;;-15.402826;;-15.402826
-2.5857877;;-2.5857877;;-2.6112489;;-2.6472709;;-2.6908831;;-3.0036029;;-3.0470494;;-3.0746724;;-3.0852238;;-3.0898108;;-3.0960881;;-3.1080158;;-3.1236958;;-3.1352259;;-3.1465087;;-3.2424519;;-3.3926209;;-3.5952709;;-3.8562273;;-4.1841943;;-4.5830272;;-5.059201;;-5.6150379;;-6.2423562;;-6.9144195;;-7.5777709;;-8.1717424;;-8.67998;;-9.1171267;;-9.5021273;;-9.8531039;;-10.188979;;-10.522037;;-10.848788;;-11.156401;;-11.437282;;-11.692989;;-11.926887;;-12.140433;;-12.336102;;-12.518227;;-12.689149;;-12.848072;;-12.995032;;-13.137119;;-13.287462;;-13.453545;;-13.63031;;-13.808726;;-13.988821;;-14.17997;;-14.387931;;-14.602246;;-14.796659;;-14.946285;;-15.046199;;-15.108254;;-15.144769;;-15.168435;;-15.197936;;-15.245121;;-15.301495;;-15.349964;;-15.384321;;-15.384321
-2.595861;;-2.595861;;-2.6220231;;-2.6586693;;-2.9686757;;-3.0106617;;-3.047873;;-3.0740947;;-3.0925691;;-3.1061762;;-3.1171931;;-3.1281096;;-3.1401557;;-3.150962;;-3.1567188;;-3.2306711;;-3.3693807;;-3.5627001;;-3.8141067;;-4.1320078;;-4.5209312;;-4.9867388;;-5.5332211;;-6.1545172;;-6.8284633;;-7.5078887;;-8.1305802;;-8.6675443;;-9.1267958;;-9.5250188;;-9.8757452;;-10.194451;;-10.499155;;-10.799877;;-11.094288;;-11.375742;;-11.639201;;-11.880328;;-12.096579;;-12.292299;;-12.478386;;-12.663448;;-12.846109;;-13.01914;;-13.181798;;-13.342896;;-13.508719;;-13.675161;;-13.83703;;-14.000358;;-14.180526;;-14.387024;;-14.608207;;-14.811407;;-14.965047;;-15.062693;;-15.119831;;-15.152851;;-15.174644;;-15.20036;;-15.239415;;-15.286079;;-15.327868;;-15.35962;;-15.35962
-2.6080749;;-2.6080749;;-2.6338776;;-2.6703558;;-2.9794025;;-3.0158581;;-3.0471539;;-3.0744627;;-3.0986815;;-3.1184123;;-3.1333256;;-3.1450575;;-3.1574078;;-3.1714192;;-3.1810645;;-3.2259921;;-3.3539138;;-3.5391623;;-3.7827659;;-4.0924935;;-4.4741665;;-4.9324767;;-5.4724951;;-6.0903437;;-6.7670509;;-7.4592823;;-8.1005069;;-8.646701;;-9.1029169;;-9.4921629;;-9.831363;;-10.134469;;-10.419648;;-10.703448;;-10.992241;;-11.2827;;-11.564697;;-11.824974;;-12.054452;;-12.256737;;-12.447711;;-12.643601;;-12.846888;;-13.046618;;-13.232862;;-13.406131;;-13.570532;;-13.726523;;-13.875894;;-14.028947;;-14.201578;;-14.402965;;-14.621717;;-14.823651;;-14.972836;;-15.059406;;-15.102428;;-15.127732;;-15.15254;;-15.184761;;-15.223413;;-15.261945;;-15.295035;;-15.322313;;-15.322313
-2.632311;;-2.632311;;-2.6542312;;-2.9561454;;-2.9907642;;-3.0213561;;-3.0489446;;-3.076643;;-3.102943;;-3.1249644;;-3.1414544;;-3.1545331;;-3.1702388;;-3.1909294;;-3.2070234;;-3.226261;;-3.3431377;;-3.5202168;;-3.7563431;;-4.0584996;;-4.4337417;;-4.8853908;;-5.4194761;;-6.0335473;;-6.7109596;;-7.410224;;-8.0585062;;-8.5957111;;-9.029701;;-9.3963549;;-9.7197943;;-10.012841;;-10.289762;;-10.567421;;-10.858872;;-11.16594;;-11.476131;;-11.767077;;-12.020928;;-12.236984;;-12.433224;;-12.633419;;-12.847979;;-13.066921;;-13.272494;;-13.455965;;-13.620166;;-13.772507;;-13.921602;;-14.077415;;-14.249768;;-14.443153;;-14.647224;;-14.831781;;-14.961893;;-15.025784;;-15.046184;;-15.060787;;-15.093335;;-15.141758;;-15.188825;;-15.223813;;-15.249619;;-15.272857;;-15.272857
-2.6686789;;-2.6686789;;-2.6874927;;-2.9866138;;-3.0129649;;-3.0378265;;-3.0625988;;-3.0872246;;-3.1100026;;-3.1290771;;-3.1433195;;-3.1555364;;-3.173573;;-3.1996555;;-3.2199735;;-3.2247484;;-3.3295397;;-3.4979359;;-3.7260147;;-4.0195333;;-4.3861785;;-4.8283816;;-5.3527728;;-5.9581244;;-6.6296009;;-7.3273123;;-7.9741893;;-8.49561;;-8.9050731;;-9.2525533;;-9.5683082;;-9.8634986;;-10.146621;;-10.431531;;-10.734129;;-11.060827;;-11.398754;;-11.719603;;-11.998597;;-12.230361;;-12.432554;;-12.633388;;-12.850204;;-13.076567;;-13.291776;;-13.481799;;-13.649248;;-13.806978;;-13.967592;;-14.137906;;-14.31894;;-14.507157;;-14.690898;;-14.84595;;-14.944289;;-14.977922;;-14.974061;;-14.979291;;-15.021065;;-15.08697;;-15.144721;;-15.17973;;-15.202111;;-15.224021;;-15.224021
-2.7140131;;-2.7140131;;-2.7307965;;-3.0270851;;-3.0498166;;-3.0742522;;-3.0976482;;-3.1152326;;-3.1274606;;-3.1363357;;-3.1425854;;-3.1497702;;-3.1658006;;-3.1915954;;-3.2111122;;-3.2108396;;-3.3061353;;-3.4658681;;-3.6838742;;-3.9654608;;-4.3184547;;-4.7451153;;-5.2522146;;-5.8399727;;-6.4960503;;-7.1842849;;-7.830679;;-8.3512841;;-8.7574784;;-9.1074937;;-9.4341875;;-9.7457394;;-10.045342;;-10.343684;;-10.657848;;-10.996976;;-11.349309;;-11.685923;;-11.980123;;-12.224424;;-12.434413;;-12.637597;;-12.852745;;-13.076392;;-13.290836;;-13.483551;;-13.658037;;-13.828513;;-14.007526;;-14.197666;;-14.391687;;-14.577654;;-14.74122;;-14.864812;;-14.932268;;-14.943698;;-14.928076;;-14.931547;;-14.979131;;-15.052128;;-15.112602;;-15.146449;;-15.168156;;-15.191314;;-15.191314
-2.7633365;;-3.0372263;;-3.0503764;;-3.0715921;;-3.0971995;;-3.1271058;;-3.1518841;;-3.1612548;;-3.1576187;;-3.1496727;;-3.1425504;;-3.1408067;;-3.1507158;;-3.1710068;;-3.1864533;;-3.1865409;;-3.273389;;-3.4227661;;-3.6275475;;-3.8927124;;-4.2261485;;-4.6307496;;-5.1130285;;-5.6754002;;-6.3091686;;-6.985506;;-7.6425115;;-8.1955169;;-8.6363387;;-9.01903;;-9.3749741;;-9.709181;;-10.022306;;-10.32554;;-10.638552;;-10.973056;;-11.319961;;-11.65436;;-11.952686;;-12.206909;;-12.428225;;-12.638059;;-12.85114;;-13.0661;;-13.27274;;-13.465434;;-13.649367;;-13.836695;;-14.036487;;-14.245933;;-14.450219;;-14.631217;;-14.775269;;-14.87473;;-14.927326;;-14.939966;;-14.935648;;-14.948236;;-14.99497;;-15.058179;;-15.106908;;-15.133326;;-15.153324;;-15.177787;;-15.177787
-2.8099942;;-3.0862306;;-3.095851;;-3.116446;;-3.1499313;;-3.1889123;;-3.2163034;;-3.2170754;;-3.1958159;;-3.1681933;;-3.145056;;-3.132601;;-3.1347566;;-3.1473385;;-3.1579706;;-3.1618884;;-3.2386223;;-3.3757228;;-3.5651654;;-3.8114445;;-4.1223219;;-4.502658;;-4.958215;;-5.4940763;;-6.1060825;;-6.7743123;;-7.4524356;;-8.0643892;;-8.5727634;;-9.0117273;;-9.4057162;;-9.7574562;;-10.070709;;-10.362471;;-10.656877;;-10.968475;;-11.292547;;-11.611511;;-11.907691;;-12.172274;;-12.408833;;-12.62863;;-12.840253;;-13.04499;;-13.242035;;-13.434245;;-13.628489;;-13.833175;;-14.052012;;-14.276074;;-14.484324;;-14.656232;;-14.783708;;-14.871493;;-14.928815;;-14.963717;;-14.986798;;-15.014007;;-15.053579;;-15.094208;;-15.119807;;-15.132652;;-15.148684;;-15.173778;;-15.173778
-2.8410121;;-2.8410121;;-3.1277235;;-3.1542827;;-3.1977183;;-3.2456434;;-3.275743;;-3.2684285;;-3.2322666;;-3.1882505;;-3.151136;;-3.1285965;;-3.122427;;-3.1267891;;-3.1331856;;-3.1438715;;-3.2126341;;-3.3378914;;-3.5124894;;-3.740551;;-4.0301739;;-4.3893429;;-4.8230005;;-5.3377278;;-5.9331488;;-6.5964713;;-7.2938488;;-7.9632003;;-8.5494048;;-9.0550845;;-9.4886199;;-9.8510296;;-10.154822;;-10.425925;;-10.691965;;-10.969716;;-11.260848;;-11.557277;;-11.84778;;-12.122112;;-12.374618;;-12.605494;;-12.817874;;-13.016195;;-13.207745;;-13.402209;;-13.607293;;-13.826586;;-14.057665;;-14.287549;;-14.494098;;-14.659223;;-14.781052;;-14.871583;;-14.943594;;-15.001922;;-15.047336;;-15.08339;;-15.112135;;-15.128421;;-15.130428;;-15.130806;;-15.145178;;-15.172706;;-15.172706
-2.8561587;;-2.8561587;;-3.1446485;;-3.1765554;;-3.2265178;;-3.2796563;;-3.3111758;;-3.2997178;;-3.2565807;;-3.2042583;;-3.158907;;-3.128916;;-3.1150397;;-3.1113772;;-3.1140351;;-3.1332165;;-3.2017555;;-3.3182337;;-3.480495;;-3.6932949;;-3.9650845;;-4.3053397;;-4.721991;;-5.2200172;;-5.8010425;;-6.4565886;;-7.1616568;;-7.8679146;;-8.5208476;;-9.0937376;;-9.5687038;;-9.9424222;;-10.238435;;-10.491234;;-10.729429;;-10.972084;;-11.229099;;-11.501717;;-11.78373;;-12.063286;;-12.327348;;-12.567958;;-12.784971;;-12.985107;;-13.179954;;-13.382017;;-13.597769;;-13.825086;;-14.056496;;-14.28084;;-14.483763;;-14.65362;;-14.788519;;-14.894915;;-14.979471;;-15.044661;;-15.091806;;-15.123589;;-15.140273;;-15.139752;;-15.128984;;-15.126796;;-15.146396;;-15.179573;;-15.179573
-2.8664386;;-3.141378;;-3.1511815;;-3.1808212;;-3.2290174;;-3.2802591;;-3.3105649;;-3.3008635;;-3.2606562;;-3.2100547;;-3.1643872;;-3.1316546;;-3.1120383;;-3.1016591;;-3.1021315;;-3.1316112;;-3.2053436;;-3.316891;;-3.4686845;;-3.6679763;;-3.9245652;;-4.247876;;-4.6484594;;-5.1316026;;-5.6980442;;-6.3419884;;-7.044477;;-7.7687713;;-8.4682224;;-9.0973797;;-9.6116729;;-10.000143;;-10.294715;;-10.535471;;-10.751413;;-10.96538;;-11.195701;;-11.450096;;-11.724022;;-12.003714;;-12.272313;;-12.518641;;-12.742452;;-12.952176;;-13.159193;;-13.373055;;-13.595652;;-13.819854;;-14.037832;;-14.248234;;-14.451741;;-14.642743;;-14.809176;;-14.939695;;-15.030122;;-15.085523;;-15.117296;;-15.135066;;-15.140392;;-15.132877;;-15.123307;;-15.130408;;-15.161201;;-15.201236;;-15.201237
-2.8728865;;-3.1489427;;-3.1513543;;-3.172456;;-3.213525;;-3.2582182;;-3.28428;;-3.2773865;;-3.2456016;;-3.2043514;;-3.1653307;;-3.1347881;;-3.1131365;;-3.0997087;;-3.1015237;;-3.1416236;;-3.2218647;;-3.3335152;;-3.4776039;;-3.6638426;;-3.9064931;;-4.2163739;;-4.6037085;;-5.0765256;;-5.632821;;-6.2677739;;-6.9661938;;-7.6976113;;-8.4195866;;-9.0776822;;-9.6132023;;-10.00965;;-10.302078;;-10.533219;;-10.733888;;-10.931464;;-11.149453;;-11.397179;;-11.668064;;-11.946056;;-12.213481;;-12.460144;;-12.688783;;-12.909905;;-13.1319;;-13.356417;;-13.577968;;-13.787311;;-13.983006;;-14.17897;;-14.391493;;-14.616003;;-14.822786;;-14.978714;;-15.071458;;-15.11395;;-15.129899;;-15.135374;;-15.133114;;-15.125004;;-15.124169;;-15.145442;;-15.18768;;-15.232786;;-15.232786
-2.8719761;;-3.1490028;;-3.1460117;;-3.1590039;;-3.1924126;;-3.2294693;;-3.2498093;;-3.244427;;-3.221634;;-3.1923028;;-3.1633243;;-3.138447;;-3.1190229;;-3.1076916;;-3.1144899;;-3.1611176;;-3.2457507;;-3.3596258;;-3.5011082;;-3.678589;;-3.9133177;;-4.2179851;;-4.6020997;;-5.0745032;;-5.6314506;;-6.2673749;;-6.966804;;-7.6980473;;-8.4155285;;-9.0630051;;-9.5847423;;-9.9669172;;-10.244728;;-10.463555;;-10.658414;;-10.857775;;-11.081967;;-11.335602;;-11.608783;;-11.885037;;-12.148523;;-12.391906;;-12.621455;;-12.849493;;-13.081064;;-13.309696;;-13.523264;;-13.713766;;-13.889528;;-14.078344;;-14.305778;;-14.563153;;-14.804183;;-14.980333;;-15.077208;;-15.116846;;-15.130946;;-15.136302;;-15.134262;;-15.128616;;-15.134489;;-15.163979;;-15.211115;;-15.25734;;-15.25734
-2.8632594;;-3.1411367;;-3.1361934;;-3.145249;;-3.1735442;;-3.2043063;;-3.2196023;;-3.2149295;;-3.1999485;;-3.1814023;;-3.1618716;;-3.1437718;;-3.1299723;;-3.1248512;;-3.1374752;;-3.1852599;;-3.2698115;;-3.3836085;;-3.5248594;;-3.7033522;;-3.9424254;;-4.2541375;;-4.6479092;;-5.1318754;;-5.7010194;;-6.3484101;;-7.0547807;;-7.7800485;;-8.4683207;;-9.0672256;;-9.5388615;;-9.8791672;;-10.124309;;-10.326448;;-10.527847;;-10.750653;;-10.998959;;-11.266008;;-11.541551;;-11.814562;;-12.074071;;-12.31482;;-12.543303;;-12.771395;;-13.002482;;-13.227271;;-13.432179;;-13.612267;;-13.782018;;-13.973991;;-14.213937;;-14.488649;;-14.745333;;-14.932441;;-15.038505;;-15.090132;;-15.119253;;-15.138384;;-15.14555;;-15.144474;;-15.150773;;-15.176801;;-15.218545;;-15.260898;;-15.260898
-2.8499491;;-3.1287575;;-3.1248091;;-3.133946;;-3.1600075;;-3.1869415;;-3.1990554;;-3.1954716;;-3.1862136;;-3.175101;;-3.1625241;;-3.1508069;;-3.1440438;;-3.1463415;;-3.1633306;;-3.207848;;-3.2875886;;-3.3984544;;-3.5418372;;-3.7326225;;-3.9875875;;-4.3164757;;-4.729394;;-5.2324837;;-5.8205054;;-6.4849174;;-7.2002249;;-7.9138211;;-8.5560049;;-9.0853836;;-9.4890132;;-9.7729246;;-9.9757493;;-10.160651;;-10.378579;;-10.638852;;-10.919442;;-11.198931;;-11.471941;;-11.739481;;-11.997402;;-12.239642;;-12.467804;;-12.690047;;-12.910884;;-13.126108;;-13.327398;;-13.512251;;-13.692803;;-13.894889;;-14.13782;;-14.407923;;-14.659053;;-14.848509;;-14.969162;;-15.044193;;-15.097776;;-15.136628;;-15.157287;;-15.162937;;-15.167222;;-15.183414;;-15.213632;;-15.249049;;-15.249049
-2.8356058;;-3.1153227;;-3.1142824;;-3.1261842;;-3.1523698;;-3.1782553;;-3.189251;;-3.1861403;;-3.1788029;;-3.1713541;;-3.1637173;;-3.1577194;;-3.1575537;;-3.1658371;;-3.1855336;;-3.2252453;;-3.2971348;;-3.4055913;;-3.5593964;;-3.7701903;;-4.0465254;;-4.3974807;;-4.8337351;;-5.3573118;;-5.9648968;;-6.6451334;;-7.3652349;;-8.0592426;;-8.6488045;;-9.1111199;;-9.4548726;;-9.6927459;;-9.8640969;;-10.039269;;-10.273841;;-10.564405;;-10.866741;;-11.149254;;-11.414546;;-11.676687;;-11.937041;;-12.185479;;-12.41474;;-12.627461;;-12.831979;;-13.034898;;-13.23688;;-13.435688;;-13.634409;;-13.845976;;-14.081976;;-14.332917;;-14.567298;;-14.75639;;-14.895034;;-14.996108;;-15.07212;;-15.126285;;-15.158116;;-15.172085;;-15.178897;;-15.190526;;-15.213274;;-15.243648;;-15.243648
-2.8223504;;-3.1031862;;-3.1052318;;-3.1201696;;-3.1482753;;-3.1755405;;-3.1871522;;-3.183093;;-3.1740463;;-3.1671785;;-3.1633185;;-3.1628157;;-3.1677716;;-3.1801859;;-3.2015065;;-3.2374873;;-3.3035005;;-3.4192515;;-3.5922261;;-3.8252224;;-4.1247822;;-4.5003811;;-4.9592859;;-5.502236;;-6.1267251;;-6.8168994;;-7.5320877;;-8.1961004;;-8.7360589;;-9.1496452;;-9.4583494;;-9.6777979;;-9.8441004;;-10.022623;;-10.263849;;-10.558093;;-10.856384;;-11.128186;;-11.38279;;-11.641381;;-11.907087;;-12.164077;;-12.395299;;-12.598219;;-12.786155;;-12.976372;;-13.176995;;-13.384806;;-13.59452;;-13.808638;;-14.033991;;-14.266955;;-14.489308;;-14.681981;;-14.83733;;-14.95709;;-15.045366;;-15.106084;;-15.144273;;-15.167227;;-15.183595;;-15.201758;;-15.226791;;-15.256944;;-15.256944
-2.8105345;;-3.092765;;-3.0963005;;-3.1123889;;-3.1416655;;-3.1709739;;-3.1850358;;-3.181085;;-3.1703535;;-3.1632985;;-3.1624191;;-3.1663552;;-3.1750808;;-3.1902933;;-3.2129511;;-3.2476152;;-3.3190937;;-3.4566337;;-3.6532342;;-3.9109185;;-4.2369709;;-4.6393054;;-5.1203553;;-5.682587;;-6.3201142;;-7.0108663;;-7.7057439;;-8.3271582;;-8.8241492;;-9.2087529;;-9.5048767;;-9.7294928;;-9.9126889;;-10.104637;;-10.341942;;-10.615156;;-10.887013;;-11.137596;;-11.379579;;-11.634113;;-11.903415;;-12.167056;;-12.400423;;-12.597438;;-12.77472;;-12.954358;;-13.146718;;-13.348839;;-13.554404;;-13.763529;;-13.981855;;-14.208992;;-14.432173;;-14.633308;;-14.799221;;-14.925566;;-15.015589;;-15.076931;;-15.118947;;-15.151132;;-15.181041;;-15.212262;;-15.245083;;-15.277715;;-15.277715
-2.7999781;;-3.0833437;;-3.0870182;;-3.1011668;;-3.1289153;;-3.1591106;;-3.177066;;-3.1772077;;-3.1686874;;-3.162845;;-3.1639216;;-3.1704828;;-3.181876;;-3.1992021;;-3.2231383;;-3.2608916;;-3.3608521;;-3.5263823;;-3.7510963;;-4.0391699;;-4.3984511;;-4.8310432;;-5.3405028;;-5.9248915;;-6.570759;;-7.2455928;;-7.8936741;;-8.4556006;;-8.9116977;;-9.2775684;;-9.5717004;;-9.8089752;;-10.013835;;-10.221335;;-10.452874;;-10.700341;;-10.941606;;-11.169408;;-11.39684;;-11.642422;;-11.907844;;-12.171666;;-12.406171;;-12.603369;;-12.779195;;-12.953011;;-13.132483;;-13.317281;;-13.507744;;-13.708512;;-13.925421;;-14.156775;;-14.387959;;-14.596915;;-14.766055;;-14.890766;;-14.978189;;-15.039706;;-15.086583;;-15.129017;;-15.172674;;-15.21586;;-15.254493;;-15.288132;;-15.288132
-2.790924;;-3.0749808;;-3.0788164;;-3.0897367;;-3.1142098;;-3.1442664;;-3.1665508;;-3.1738475;;-3.1712296;;-3.1682167;;-3.1701478;;-3.17789;;-3.1912263;;-3.2101988;;-3.2354184;;-3.2927029;;-3.4284149;;-3.6243861;;-3.8813801;;-4.206323;;-4.6037903;;-5.0757202;;-5.6229215;;-6.235368;;-6.8847609;;-7.5190815;;-8.0865613;;-8.5721387;;-8.9833636;;-9.3323269;;-9.6273422;;-9.8768199;;-10.099319;;-10.319623;;-10.549256;;-10.780439;;-11.001109;;-11.211013;;-11.423089;;-11.653297;;-11.904666;;-12.1595;;-12.392296;;-12.593936;;-12.775375;;-12.948957;;-13.118466;;-13.28711;;-13.463582;;-13.658173;;-13.875908;;-14.110916;;-14.345176;;-14.555057;;-14.722964;;-14.846086;;-14.933993;;-14.999412;;-15.053915;;-15.107162;;-15.161966;;-15.212113;;-15.251818;;-15.283931;;-15.283931
-2.7817509;;-3.065706;;-3.0705753;;-3.0812726;;-3.1042121;;-3.1342586;;-3.1604506;;-3.1751566;;-3.1792037;;-3.1793123;;-3.1817472;;-3.1902267;;-3.2052908;;-3.2259948;;-3.2539115;;-3.3457618;;-3.5097882;;-3.7348371;;-4.0247164;;-4.3878018;;-4.8256244;;-5.3412661;;-5.9308774;;-6.5742186;;-7.222052;;-7.7938355;;-8.263989;;-8.6689455;;-9.0335392;;-9.3661276;;-9.6648619;;-9.9282677;;-10.165962;;-10.394845;;-10.622978;;-10.845346;;-11.054822;;-11.253677;;-11.452053;;-11.663064;;-11.89214;;-12.129575;;-12.356303;;-12.561928;;-12.750198;;-12.92744;;-13.096143;;-13.261802;;-13.436316;;-13.630857;;-13.847525;;-14.07729;;-14.303126;;-14.506055;;-14.67233;;-14.799483;;-14.894823;;-14.968476;;-15.030449;;-15.089955;;-15.149272;;-15.201261;;-15.240472;;-15.27167;;-15.27167
-2.7673714;;-2.7673714;;-3.0601291;;-3.0755389;;-3.0997028;;-3.1306162;;-3.1602534;;-3.1811402;;-3.1909992;;-3.1941836;;-3.1977216;;-3.2070983;;-3.2238366;;-3.245435;;-3.2793967;;-3.3982612;;-3.584037;;-3.832601;;-4.1501552;;-4.544478;;-5.0166269;;-5.5693407;;-6.1946612;;-6.8627969;;-7.5040759;;-8.0160761;;-8.4091466;;-8.7516858;;-9.0792293;;-9.3996872;;-9.7048939;;-9.9838226;;-10.234696;;-10.466539;;-10.68822;;-10.900998;;-11.103043;;-11.295482;;-11.483109;;-11.674132;;-11.877008;;-12.092027;;-12.307986;;-12.513077;;-12.704997;;-12.888037;;-13.066477;;-13.245592;;-13.432843;;-13.633469;;-13.84553;;-14.061169;;-14.27042;;-14.463004;;-14.62994;;-14.76701;;-14.87518;;-14.957597;;-15.020564;;-15.074961;;-15.128969;;-15.179966;;-15.222023;;-15.256283;;-15.256283
-2.7449659;;-2.7449659;;-3.0449739;;-3.0679883;;-3.0962971;;-3.1292752;;-3.1623584;;-3.1885157;;-3.2038461;;-3.2107576;;-3.2164783;;-3.2268606;;-3.2437631;;-3.2634379;;-3.3008414;;-3.4319862;;-3.6296315;;-3.8915504;;-4.2246388;;-4.6357808;;-5.1265645;;-5.6989533;;-6.3424923;;-7.0221488;;-7.657916;;-8.1451089;;-8.5099863;;-8.8268941;;-9.1373238;;-9.4524597;;-9.7629748;;-10.052548;;-10.310779;;-10.540448;;-10.751874;;-10.95345;;-11.14766;;-11.333454;;-11.509093;;-11.678933;;-11.85517;;-12.047074;;-12.249373;;-12.449656;;-12.643394;;-12.83594;;-13.033483;;-13.237715;;-13.44658;;-13.656119;;-13.861913;;-14.061428;;-14.254244;;-14.438187;;-14.607744;;-14.756265;;-14.877133;;-14.964476;;-15.020109;;-15.059381;;-15.101265;;-15.150567;;-15.198947;;-15.239491;;-15.239491
-2.7194493;;-2.7194493;;-3.0269864;;-3.0583174;;-3.0923538;;-3.1279606;;-3.1645784;;-3.1959125;;-3.2166702;;-3.2280821;;-3.2363231;;-3.2469248;;-3.2611768;;-3.2747497;;-3.3069309;;-3.4389864;;-3.6378231;;-3.9009083;;-4.2348656;;-4.6458306;;-5.1357897;;-5.7063772;;-6.3469299;;-7.0233749;;-7.660734;;-8.167256;;-8.5552538;;-8.8851898;;-9.1999708;;-9.5161046;;-9.8277167;;-10.119155;;-10.378201;;-10.604756;;-10.808844;;-11.000807;;-11.183952;;-11.353842;;-11.506126;;-11.648051;;-11.799151;;-11.973295;;-12.165351;;-12.362802;;-12.56324;;-12.773643;;-12.998186;;-13.231683;;-13.462814;;-13.681273;;-13.883398;;-14.072689;;-14.25536;;-14.433876;;-14.604719;;-14.759896;;-14.887695;;-14.976211;;-15.024353;;-15.050496;;-15.081119;;-15.126775;;-15.17831;;-15.223111;;-15.223111
-2.6997648;;-2.6997648;;-3.0133587;;-3.0511947;;-3.0899886;;-3.128853;;-3.1683803;;-3.2037175;;-3.2291808;;-3.2447542;;-3.2552283;;-3.2649391;;-3.273971;;-3.2789012;;-3.3004124;;-3.4264664;;-3.6188728;;-3.8742592;;-4.1983927;;-4.5967772;;-5.0713487;;-5.623925;;-6.2453238;;-6.9065054;;-7.5468706;;-8.0933134;;-8.5340765;;-8.9036734;;-9.2396103;;-9.5629689;;-9.8742038;;-10.163451;;-10.422414;;-10.650677;;-10.854417;;-11.039619;;-11.204474;;-11.340342;;-11.446948;;-11.547677;;-11.676849;;-11.846888;;-12.042334;;-12.247777;;-12.465544;;-12.70361;;-12.959607;;-13.220089;;-13.469062;;-13.696206;;-13.900565;;-14.088393;;-14.267498;;-14.441725;;-14.608824;;-14.761557;;-14.889009;;-14.979616;;-15.030483;;-15.056153;;-15.081229;;-15.119161;;-15.165279;;-15.208424;;-15.208424
-2.6904489;;-2.6904489;;-2.7214072;;-3.0498257;;-3.0919073;;-3.1329969;;-3.173554;;-3.2104347;;-3.238543;;-3.2573081;;-3.2699797;;-3.2792262;;-3.2843995;;-3.2829799;;-3.2936598;;-3.4086496;;-3.590421;;-3.8336361;;-4.1426907;;-4.5226337;;-4.974556;;-5.5006742;;-6.0937224;;-6.7306414;;-7.3659673;;-7.9444257;;-8.4387707;;-8.8573911;;-9.2256589;;-9.5645735;;-9.8811598;;-10.173973;;-10.440557;;-10.679735;;-10.891365;;-11.073073;;-11.214057;;-11.299921;;-11.340613;;-11.388507;;-11.500627;;-11.683014;;-11.899026;;-12.124258;;-12.365905;;-12.633655;;-12.918092;;-13.199159;;-13.461443;;-13.698722;;-13.911306;;-14.103492;;-14.281369;;-14.448662;;-14.604283;;-14.745155;;-14.867753;;-14.965577;;-15.031563;;-15.068934;;-15.0938;;-15.121973;;-15.157625;;-15.195666;;-15.195666
-2.6863936;;-2.6863936;;-2.7196001;;-3.0512797;;-3.0954884;;-3.1370634;;-3.1768486;;-3.2122497;;-3.2406151;;-3.2618469;;-3.278012;;-3.290192;;-3.2967867;;-3.2965962;;-3.3027892;;-3.3976107;;-3.564798;;-3.7926669;;-4.08355;;-4.4425178;;-4.8688347;;-5.3645308;;-5.924008;;-6.5293466;;-7.1469985;;-7.7361112;;-8.266248;;-8.7285974;;-9.1334893;;-9.4967487;;-9.829808;;-10.139257;;-10.427135;;-10.690016;;-10.920688;;-11.108157;;-11.232179;;-11.273477;;-11.253946;;-11.255414;;-11.356159;;-11.554581;;-11.791986;;-12.033304;;-12.289719;;-12.574723;;-12.875964;;-13.170529;;-13.445308;;-13.696687;;-13.922361;;-14.121415;;-14.296619;;-14.450794;;-14.585354;;-14.706419;;-14.822892;;-14.932828;;-15.020513;;-15.074439;;-15.10274;;-15.124578;;-15.152351;;-15.186307;;-15.186307
-2.6791885;;-2.6791885;;-2.7140638;;-3.0483339;;-3.0949389;;-3.1371099;;-3.1746923;;-3.2067076;;-3.2341309;;-3.2583848;;-3.2803599;;-3.2997414;;-3.3143045;;-3.3240588;;-3.3387662;;-3.405607;;-3.5512544;;-3.7583578;;-4.0262875;;-4.3595848;;-4.7577986;;-5.2201033;;-5.7425113;;-6.3113108;;-6.9017599;;-7.4834882;;-8.0290483;;-8.5221766;;-8.9610101;;-9.3536022;;-9.7125732;;-10.05016;;-10.371396;;-10.670636;;-10.934765;;-11.145054;;-11.275089;;-11.305861;;-11.268081;;-11.255121;;-11.349633;;-11.545085;;-11.776507;;-12.008028;;-12.255013;;-12.5354;;-12.838846;;-13.142584;;-13.43287;;-13.703412;;-13.946184;;-14.153769;;-14.324281;;-14.45917;;-14.565404;;-14.662595;;-14.772615;;-14.894328;;-15.001076;;-15.069691;;-15.104081;;-15.125679;;-15.150658;;-15.182468;;-15.182468
-2.6675572;;-2.6675572;;-2.7030674;;-3.038699;;-3.0875601;;-3.1318123;;-3.1668036;;-3.1958842;;-3.223151;;-3.2514257;;-3.2806912;;-3.3094622;;-3.3360016;;-3.3609105;;-3.391807;;-3.4504821;;-3.5663397;;-3.7431727;;-3.9798017;;-4.2786578;;-4.6435199;;-5.070568;;-5.5555892;;-6.088778;;-6.6518526;;-7.2208124;;-7.7713993;;-8.2850014;;-8.7522283;;-9.1737648;;-9.5604652;;-9.9273507;;-10.282541;;-10.621207;;-10.927223;;-11.175718;;-11.337929;;-11.400686;;-11.397938;;-11.410424;;-11.502758;;-11.667769;;-11.856685;;-12.048264;;-12.263047;;-12.521815;;-12.818103;;-13.129613;;-13.437629;;-13.728603;;-13.98806;;-14.203048;;-14.367364;;-14.482611;;-14.563541;;-14.641711;;-14.745383;;-14.870443;;-14.983824;;-15.059309;;-15.10009;;-15.126246;;-15.152268;;-15.183182;;-15.183182
-2.6558061;;-2.6558061;;-2.6909776;;-3.0270734;;-3.0773144;;-3.12344;;-3.157881;;-3.1856181;;-3.2140874;;-3.246347;;-3.2819283;;-3.3191445;;-3.3571862;;-3.3971226;;-3.4446176;;-3.5118771;;-3.6133261;;-3.758489;;-3.9571465;;-4.2162638;;-4.5400143;;-4.9317992;;-5.3858661;;-5.8936851;;-6.4411405;;-7.0069918;;-7.5669546;;-8.0998091;;-8.5912424;;-9.036768;;-9.4444006;;-9.8298043;;-10.205125;;-10.570579;;-10.911149;;-11.198615;;-11.404376;;-11.521927;;-11.582135;;-11.639546;;-11.731691;;-11.854638;;-11.987145;;-12.129592;;-12.307293;;-12.541435;;-12.828155;;-13.144525;;-13.46509;;-13.768486;;-14.035437;;-14.250653;;-14.407274;;-14.510517;;-14.58166;;-14.654718;;-14.753317;;-14.868726;;-14.971215;;-15.042057;;-15.086982;;-15.120948;;-15.151918;;-15.184236;;-15.184235
-2.6479169;;-2.6479169;;-2.6826556;;-3.019408;;-3.0705695;;-3.1183935;;-3.1539773;;-3.181473;;-3.2111698;;-3.2458193;;-3.284774;;-3.3269948;;-3.3725917;;-3.423789;;-3.4845289;;-3.5617353;;-3.6620218;;-3.7888429;;-3.9526132;;-4.1732684;;-4.4626582;;-4.8249348;;-5.2617486;;-5.7630144;;-6.3155104;;-6.8980678;;-7.4823259;;-8.0402606;;-8.5521647;;-9.0119515;;-9.4276147;;-9.8153718;;-10.191215;;-10.561934;;-10.9167;;-11.228049;;-11.469645;;-11.637823;;-11.754751;;-11.850419;;-11.942685;;-12.034034;;-12.126251;;-12.235051;;-12.387292;;-12.602699;;-12.878141;;-13.19;;-13.508534;;-13.807925;;-14.067534;;-14.273372;;-14.422392;;-14.524897;;-14.603722;;-14.684935;;-14.779862;;-14.876635;;-14.956538;;-15.015178;;-15.062434;;-15.106322;;-15.146039;;-15.182797;;-15.182797
-2.6450774;;-2.6450774;;-2.6798378;;-3.0179253;;-3.0696046;;-3.1197223;;-3.156877;;-3.1839223;;-3.2134657;;-3.2481726;;-3.2873356;;-3.3307403;;-3.3798864;;-3.437487;;-3.5067015;;-3.5911139;;-3.6923648;;-3.8096303;;-3.9494583;;-4.1415073;;-4.4110569;;-4.7626908;;-5.198108;;-5.7132458;;-6.2906679;;-6.9086993;;-7.5326466;;-8.1220853;;-8.649374;;-9.1107792;;-9.5196559;;-9.8953493;;-10.256873;;-10.615327;;-10.964229;;-11.280769;;-11.543059;;-11.745914;;-11.899244;;-12.016765;;-12.110189;;-12.190183;;-12.269888;;-12.368562;;-12.509942;;-12.710906;;-12.968628;;-13.260899;;-13.558686;;-13.836955;;-14.077262;;-14.269344;;-14.413952;;-14.523611;;-14.617085;;-14.708966;;-14.799358;;-14.877151;;-14.936385;;-14.985129;;-15.035361;;-15.088636;;-15.137041;;-15.178744;;-15.178744
-2.6447418;;-2.6447418;;-2.6797571;;-2.7285824;;-3.0713231;;-3.1236912;;-3.1622297;;-3.1880048;;-3.216185;;-3.2496117;;-3.2872576;;-3.3296514;;-3.3795266;;-3.4399248;;-3.5133296;;-3.6008667;;-3.7013937;;-3.8112717;;-3.9359085;;-4.1138723;;-4.380764;;-4.7380758;;-5.1868529;;-5.7255151;;-6.3356257;;-6.9955498;;-7.6656174;;-8.2918833;;-8.8342529;;-9.2903901;;-9.6821226;;-10.035834;;-10.374531;;-10.711624;;-11.044111;;-11.355719;;-11.629436;;-11.855145;;-12.029956;;-12.159368;;-12.258342;;-12.345159;;-12.434641;;-12.54048;;-12.679377;;-12.864903;;-13.095571;;-13.35398;;-13.616381;;-13.862634;;-14.079033;;-14.258579;;-14.402639;;-14.520195;;-14.622886;;-14.717023;;-14.799727;;-14.864788;;-14.914565;;-14.961823;;-15.016507;;-15.075425;;-15.127862;;-15.171888;;-15.171888
-2.6419021;;-2.6419021;;-2.6767254;;-2.7254069;;-3.068982;;-3.1226484;;-3.1635561;;-3.1886315;;-3.2153723;;-3.2475483;;-3.2837374;;-3.3248269;;-3.3741488;;-3.435005;;-3.5089204;;-3.5959286;;-3.6930781;;-3.7957375;;-3.9105462;;-4.088191;;-4.3632572;;-4.7326864;;-5.1982737;;-5.7591457;;-6.3986603;;-7.0964773;;-7.8109468;;-8.4777283;;-9.0412075;;-9.4950061;;-9.8677261;;-10.194664;;-10.50535;;-10.816679;;-11.130434;;-11.436938;;-11.720778;;-11.964171;;-12.15418;;-12.294355;;-12.40602;;-12.512313;;-12.624225;;-12.745636;;-12.884644;;-13.051955;;-13.249676;;-13.467436;;-13.689028;;-13.900372;;-14.092787;;-14.26151;;-14.404911;;-14.524649;;-14.625204;;-14.711273;;-14.784257;;-14.843753;;-14.894539;;-14.946667;;-15.005318;;-15.064882;;-15.116126;;-15.159721;;-15.159721
-2.6339819;;-2.6339819;;-2.6678294;;-2.7153378;;-3.0588253;;-3.1131278;;-3.1575455;;-3.1850766;;-3.2113935;;-3.2428544;;-3.2784086;;-3.3186856;;-3.3670385;;-3.4264781;;-3.498142;;-3.5815579;;-3.6731971;;-3.768421;;-3.8783714;;-4.0646345;;-4.3496087;;-4.7294693;;-5.207611;;-5.7835399;;-6.4435522;;-7.1692974;;-7.9198802;;-8.6261665;;-9.2182784;;-9.6797393;;-10.040799;;-10.344131;;-10.626323;;-10.910975;;-11.207387;;-11.511192;;-11.804589;;-12.061935;;-12.265255;;-12.419756;;-12.550931;;-12.68233;;-12.819179;;-12.956199;;-13.094476;;-13.243794;;-13.410672;;-13.591267;;-13.775664;;-13.955626;;-14.126518;;-14.283919;;-14.421491;;-14.534229;;-14.623562;;-14.697009;;-14.761758;;-14.82091;;-14.876913;;-14.933868;;-14.992993;;-15.049241;;-15.097123;;-15.139651;;-15.139651
-2.6236746;;-2.6236746;;-2.656185;;-2.7020406;;-3.0450988;;-3.0996091;;-3.1477231;;-3.1799148;;-3.2072393;;-3.2385966;;-3.2744264;;-3.3148105;;-3.3619972;;-3.4182214;;-3.4848207;;-3.5613318;;-3.645337;;-3.7337218;;-3.8446851;;-4.0422737;;-4.3345977;;-4.7202158;;-5.204391;;-5.7865194;;-6.456072;;-7.1967289;;-7.9700199;;-8.7076087;;-9.331843;;-9.8140466;;-10.179585;;-10.472644;;-10.735035;;-10.998072;;-11.279471;;-11.578781;;-11.87557;;-12.140823;;-12.357158;;-12.530979;;-12.685287;;-12.838866;;-12.992439;;-13.136994;;-13.271799;;-13.407491;;-13.552989;;-13.706871;;-13.863164;;-14.018836;;-14.172172;;-14.316909;;-14.442607;;-14.542096;;-14.618128;;-14.681837;;-14.74302;;-14.804141;;-14.863407;;-14.920403;;-14.975471;;-15.026602;;-15.071744;;-15.114554;;-15.114553
-2.6151266;;-2.6151266;;-2.6465197;;-2.6909794;;-3.0334986;;-3.0884316;;-3.1387872;;-3.175509;;-3.2048798;;-3.2370309;;-3.274079;;-3.315532;;-3.361341;;-3.4130489;;-3.4716324;;-3.5383901;;-3.6128035;;-3.6951233;;-3.8121926;;-4.0197656;;-4.3159993;;-4.7026229;;-5.1862166;;-5.7651708;;-6.4318657;;-7.1717856;;-7.9499418;;-8.7041813;;-9.3598242;;-9.8781892;;-10.271414;;-10.576728;;-10.836778;;-11.089249;;-11.358717;;-11.647922;;-11.93797;;-12.204168;;-12.433842;;-12.630625;;-12.807008;;-12.972994;;-13.128737;;-13.269577;;-13.398512;;-13.526871;;-13.661543;;-13.799544;;-13.93676;;-14.074605;;-14.213268;;-14.344695;;-14.45712;;-14.545041;;-14.614226;;-14.676141;;-14.738549;;-14.800425;;-14.857695;;-14.909445;;-14.957986;;-15.00416;;-15.04811;;-15.092581;;-15.092581
-2.6084838;;-2.6084838;;-2.63892;;-2.6821562;;-3.0240402;;-3.0788671;;-3.1304149;;-3.1708331;;-3.2028126;;-3.2371785;;-3.276134;;-3.3188643;;-3.3633822;;-3.4095134;;-3.4590759;;-3.515297;;-3.5800912;;-3.6570292;;-3.7823754;;-3.9965657;;-4.2938894;;-4.6779605;;-5.1556982;;-5.7231629;;-6.3753762;;-7.0988085;;-7.8630301;;-8.6171873;;-9.2999839;;-9.8682091;;-10.313093;;-10.655349;;-10.933192;;-11.18793;;-11.448909;;-11.723247;;-11.999442;;-12.262838;;-12.505758;;-12.724551;;-12.916636;;-13.08321;;-13.228891;;-13.359343;;-13.482923;;-13.608768;;-13.738453;;-13.866178;;-13.989438;;-14.112598;;-14.237311;;-14.355905;;-14.458551;;-14.543276;;-14.616709;;-14.686104;;-14.752551;;-14.811878;;-14.861549;;-14.904948;;-14.947306;;-14.990555;;-15.034371;;-15.080322;;-15.080322
-2.6000454;;-2.6000454;;-2.6291405;;-2.6705898;;-2.7215295;;-3.0646894;;-3.1174583;;-3.1618524;;-3.1976137;;-3.2341563;;-3.2747105;;-3.3179101;;-3.3609225;;-3.4026049;;-3.4450732;;-3.4931879;;-3.5505712;;-3.6231599;;-3.7552969;;-3.9730541;;-4.2701253;;-4.6508372;;-5.1210161;;-5.6745641;;-6.3073879;;-7.006016;;-7.7450091;;-8.4876281;;-9.1900927;;-9.8095691;;-10.317303;;-10.712285;;-11.022284;;-11.288164;;-11.54327;;-11.80231;;-12.0649;;-12.326175;;-12.579901;;-12.813551;;-13.011871;;-13.171023;;-13.30279;;-13.423464;;-13.544331;;-13.669226;;-13.794023;;-13.911842;;-14.022721;;-14.132946;;-14.244573;;-14.351494;;-14.447876;;-14.53575;;-14.621169;;-14.704225;;-14.776889;;-14.831772;;-14.871296;;-14.906348;;-14.94543;;-14.988781;;-15.033346;;-15.079971;;-15.079971
-2.5882345;;-2.5882345;;-2.6154079;;-2.654265;;-2.7023684;;-3.0437512;;-3.097064;;-3.1457237;;-3.1855995;;-3.2226928;;-3.2619973;;-3.3037981;;-3.3456722;;-3.3858632;;-3.4257505;;-3.4707427;;-3.5242014;;-3.5935376;;-3.7298327;;-3.9494382;;-4.2466636;;-4.626389;;-5.0923711;;-5.6384299;;-6.2595391;;-6.9410378;;-7.6600105;;-8.3902795;;-9.1020724;;-9.7569994;;-10.316114;;-10.760581;;-11.104262;;-11.383167;;-11.634353;;-11.88227;;-12.136716;;-12.397263;;-12.655091;;-12.892337;;-13.089154;;-13.240912;;-13.363746;;-13.479115;;-13.598095;;-13.719574;;-13.836603;;-13.944087;;-14.044763;;-14.145233;;-14.246334;;-14.342271;;-14.430351;;-14.517575;;-14.612322;;-14.709391;;-14.790701;;-14.844393;;-14.878236;;-14.91046;;-14.951244;;-14.997602;;-15.044079;;-15.09135;;-15.091349
-2.5755263;;-2.5755263;;-2.6006079;;-2.6366172;;-2.6815221;;-3.0201564;;-3.0723539;;-3.1236698;;-3.1653374;;-3.1995355;;-3.2339407;;-3.2722739;;-3.3136455;;-3.3557271;;-3.3983979;;-3.444961;;-3.4979171;;-3.5656893;;-3.7065776;;-3.9287818;;-4.2285612;;-4.6116282;;-5.0809248;;-5.6314005;;-6.2577556;;-6.9438065;;-7.6637341;;-8.390636;;-9.100805;;-9.7643919;;-10.345112;;-10.817229;;-11.183075;;-11.471718;;-11.722212;;-11.966138;;-12.21806;;-12.47605;;-12.72819;;-12.958241;;-13.150592;;-13.301395;;-13.424229;;-13.538123;;-13.652315;;-13.765195;;-13.87197;;-13.971339;;-14.067011;;-14.163276;;-14.257666;;-14.341958;;-14.414184;;-14.487687;;-14.579052;;-14.683637;;-14.77511;;-14.835777;;-14.875091;;-14.914007;;-14.96122;;-15.011635;;-15.059774;;-15.107342;;-15.107342
-2.5650309;;-2.5650309;;-2.588305;;-2.6218029;;-2.6637551;;-2.9995959;;-3.0495608;;-3.0994359;;-3.1393669;;-3.1669083;;-3.193884;;-3.2276551;;-3.2689069;;-3.3150187;;-3.3634488;;-3.4148527;;-3.4694448;;-3.5391495;;-3.6889916;;-3.9175272;;-4.2242371;;-4.6164197;;-5.0973741;;-5.6638623;;-6.3114322;;-7.0226103;;-7.7651088;;-8.4993737;;-9.1984914;;-9.8447502;;-10.415146;;-10.88782;;-11.260367;;-11.556306;;-11.812611;;-12.060606;;-12.312844;;-12.563773;;-12.801813;;-13.018403;;-13.206267;;-13.361592;;-13.490144;;-13.603635;;-13.70985;;-13.810805;;-13.907623;;-14.003168;;-14.100567;;-14.198945;;-14.290583;;-14.363229;;-14.413804;;-14.461754;;-14.535528;;-14.636882;;-14.736241;;-14.809597;;-14.86292;;-14.913785;;-14.967407;;-15.018475;;-15.064983;;-15.111324;;-15.111324
-2.5576616;;-2.5576616;;-2.5794956;;-2.6109284;;-2.6503035;;-2.9836636;;-3.0307645;;-3.0765096;;-3.1104616;;-3.1296838;;-3.1494322;;-3.1794319;;-3.2210675;;-3.2708504;;-3.3253265;;-3.3822573;;-3.439453;;-3.5176477;;-3.6806468;;-3.9193347;;-4.2369228;;-4.6428392;;-5.140693;;-5.7297013;;-6.4058577;;-7.150438;;-7.9240969;;-8.6689684;;-9.3488705;;-9.9613878;;-10.501898;;-10.95828;;-11.329848;;-11.636253;;-11.907151;;-12.165762;;-12.418679;;-12.659057;;-12.880664;;-13.08378;;-13.267502;;-13.426873;;-13.560106;;-13.672382;;-13.770982;;-13.862407;;-13.953107;;-14.048828;;-14.151117;;-14.254226;;-14.345336;;-14.409022;;-14.441069;;-14.464381;;-14.515499;;-14.604466;;-14.70368;;-14.78548;;-14.849579;;-14.907332;;-14.960626;;-15.006218;;-15.047446;;-15.091473;;-15.091473
-2.5517638;;-2.5517638;;-2.572293;;-2.6018232;;-2.6387537;;-2.9696534;;-3.0138357;;-3.0544364;;-3.0810496;;-3.0935605;;-3.1091061;;-3.1376126;;-3.1794391;;-3.2313414;;-3.2895317;;-3.3502808;;-3.4102414;;-3.5033821;;-3.6782411;;-3.9268307;;-4.2552968;;-4.674505;;-5.1885064;;-5.7984312;;-6.5002943;;-7.2740427;;-8.0740572;;-8.8240279;;-9.4784909;;-10.054036;;-10.563577;;-11.004642;;-11.379637;;-11.70361;;-11.995285;;-12.266471;;-12.5193;;-12.75049;;-12.960879;;-13.155915;;-13.336391;;-13.496087;;-13.630132;;-13.740787;;-13.835648;;-13.92387;;-14.013911;;-14.110903;;-14.214272;;-14.316473;;-14.403828;;-14.461217;;-14.484812;;-14.49645;;-14.532518;;-14.606552;;-14.696362;;-14.775313;;-14.838851;;-14.893169;;-14.939154;;-14.976641;;-15.012923;;-15.055698;;-15.055697
-2.5451671;;-2.5451671;;-2.5642308;;-2.5916605;;-2.6259659;;-2.6653859;;-2.9953787;;-3.032324;;-3.0551093;;-3.0648757;;-3.0799802;;-3.1082273;;-3.1497549;;-3.2013615;;-3.2598084;;-3.3214137;;-3.3835588;;-3.489302;;-3.6703005;;-3.9237264;;-4.2575163;;-4.6836849;;-5.2061776;;-5.8273776;;-6.5433923;;-7.3334959;;-8.1479273;;-8.8958987;;-9.5259824;;-10.074909;;-10.568979;;-11.010728;;-11.401469;;-11.748916;;-12.060902;;-12.341754;;-12.594172;;-12.82175;;-13.030073;;-13.224144;;-13.403273;;-13.561812;;-13.695766;;-13.806994;;-13.902774;;-13.99295;;-14.084899;;-14.180138;;-14.27528;;-14.364508;;-14.438805;;-14.486961;;-14.507192;;-14.519153;;-14.553395;;-14.620129;;-14.700032;;-14.770148;;-14.825486;;-14.871136;;-14.909428;;-14.9427;;-14.979035;;-15.023292;;-15.023292
-2.5377537;;-2.5377537;;-2.5551262;;-2.5802248;;-2.6117682;;-2.6483918;;-2.9762029;;-3.0118307;;-3.0368234;;-3.0494516;;-3.0659125;;-3.0939698;;-3.1331553;;-3.1815886;;-3.2373068;;-3.2971676;;-3.3592443;;-3.4677904;;-3.647398;;-3.8978139;;-4.2282929;;-4.6508546;;-5.1697551;;-5.7877495;;-6.5016784;;-7.2918469;;-8.1082022;;-8.8539354;;-9.472163;;-10.01452;;-10.515835;;-10.978713;;-11.398112;;-11.771944;;-12.100248;;-12.386395;;-12.639159;;-12.868513;;-13.08084;;-13.277621;;-13.456792;;-13.615458;;-13.752288;;-13.868424;;-13.968854;;-14.061884;;-14.15323;;-14.241012;;-14.319871;;-14.386305;;-14.436488;;-14.463604;;-14.470429;;-14.481621;;-14.525776;;-14.603778;;-14.688712;;-14.756864;;-14.805841;;-14.844634;;-14.879691;;-14.915023;;-14.956288;;-15.004089;;-15.004089
-2.5315476;;-2.5315476;;-2.5470747;;-2.5699068;;-2.5989886;;-2.6335163;;-2.9599224;;-2.9965337;;-3.0271413;;-3.045956;;-3.0643776;;-3.0905002;;-3.1257855;;-3.1697246;;-3.2214693;;-3.2783263;;-3.3373987;;-3.4380886;;-3.6087186;;-3.8489425;;-4.1675307;;-4.5762238;;-5.0801891;;-5.6818012;;-6.3794482;;-7.1561118;;-7.9663051;;-8.7177357;;-9.3448327;;-9.9010767;;-10.427432;;-10.925112;;-11.380904;;-11.782589;;-12.125343;;-12.415891;;-12.670009;;-12.902358;;-13.118588;;-13.317122;;-13.495679;;-13.654981;;-13.796454;;-13.919998;;-14.02659;;-14.121226;;-14.208281;;-14.285598;;-14.347466;;-14.390404;;-14.409373;;-14.397983;;-14.369352;;-14.367504;;-14.429971;;-14.543252;;-14.657341;;-14.737887;;-14.786772;;-14.821844;;-14.856419;;-14.89612;;-14.943407;;-14.994626;;-14.994626
-2.5283236;;-2.5283236;;-2.541998;;-2.5631148;;-2.5905389;;-2.6238624;;-2.9499328;;-2.9879274;;-3.0223621;;-3.0461546;;-3.0653016;;-3.0890291;;-3.1209565;;-3.1618374;;-3.2107914;;-3.2649567;;-3.3200782;;-3.4038574;;-3.5592105;;-3.7831751;;-4.0832162;;-4.4703061;;-4.9511812;;-5.5275008;;-6.1993742;;-6.9541294;;-7.7546085;;-8.5221768;;-9.1811754;;-9.7689072;;-10.329803;;-10.866207;;-11.359596;;-11.789872;;-12.14891;;-12.446191;;-12.702958;;-12.937437;;-13.155647;;-13.354207;;-13.530392;;-13.687394;;-13.829709;;-13.957276;;-14.068125;;-14.163752;;-14.247484;;-14.31827;;-14.370749;;-14.397747;;-14.386171;;-14.326172;;-14.246244;;-14.220823;;-14.304479;;-14.466298;;-14.623808;;-14.725607;;-14.777959;;-14.81038;;-14.843989;;-14.886759;;-14.938581;;-14.992421;;-14.992421
-2.5272273;;-2.5272273;;-2.5396927;;-2.5599376;;-2.5865534;;-2.6191817;;-2.9453347;;-2.9839753;;-3.018712;;-3.0428124;;-3.0608768;;-3.0835444;;-3.1150422;;-3.1558003;;-3.2039676;;-3.2562977;;-3.3082105;;-3.3714541;;-3.5043626;;-3.7065793;;-3.9828791;;-4.3425651;;-4.7945905;;-5.3395311;;-5.9793794;;-6.7065348;;-7.4943751;;-8.2829064;;-8.9937977;;-9.6298083;;-10.231662;;-10.806543;;-11.335822;;-11.795101;;-12.173168;;-12.480866;;-12.743213;;-12.982069;;-13.204076;;-13.403423;;-13.575388;;-13.724769;;-13.859779;;-13.983028;;-14.092649;;-14.189108;;-14.274602;;-14.347516;;-14.401207;;-14.42359;;-14.39339;;-14.297512;;-14.176806;;-14.130126;;-14.226017;;-14.421392;;-14.609743;;-14.726483;;-14.780778;;-14.81098;;-14.844186;;-14.889839;;-14.946057;;-15.002964;;-15.002964
-2.5266425;;-2.5266425;;-2.5379584;;-2.5574078;;-2.5832371;;-2.6149973;;-2.6511011;;-2.9791131;;-3.0128316;;-3.0345704;;-3.0515096;;-3.0752394;;-3.1092438;;-3.1518819;;-3.2001539;;-3.2505877;;-3.3002039;;-3.3497814;;-3.4498586;;-3.6254731;;-3.874135;;-4.2028499;;-4.6208311;;-5.1303392;;-5.7335478;;-6.4282323;;-7.1981514;;-8.0023653;;-8.7726264;;-9.4720573;;-10.122291;;-10.736916;;-11.302451;;-11.793216;;-12.194784;;-12.518293;;-12.792604;;-13.042396;;-13.272846;;-13.474068;;-13.63939;;-13.775881;;-13.896255;;-14.006916;;-14.108996;;-14.204889;;-14.296291;;-14.378426;;-14.441157;;-14.470091;;-14.442858;;-14.34638;;-14.221604;;-14.167736;;-14.255144;;-14.442928;;-14.625793;;-14.738588;;-14.790055;;-14.819573;;-14.855355;;-14.906412;;-14.968816;;-15.029768;;-15.029768
-2.5259979;;-2.5259979;;-2.5340783;;-2.5514767;;-2.5753154;;-2.6049753;;-2.6391635;;-2.9661336;;-3.0000572;;-3.0224171;;-3.0401948;;-3.0664889;;-3.1029744;;-3.146805;;-3.1941556;;-3.2431826;;-3.2920827;;-3.3389221;;-3.4050731;;-3.5498305;;-3.7683887;;-4.0645788;;-4.4461537;;-4.9190468;;-5.484085;;-6.1432526;;-6.8889868;;-7.6956745;;-8.5117238;;-9.2774505;;-9.9809984;;-10.637946;;-11.244003;;-11.774381;;-12.20998;;-12.559832;;-12.855103;;-13.121504;;-13.361318;;-13.561799;;-13.717101;;-13.837971;;-13.940849;;-14.035356;;-14.126405;;-14.220188;;-14.318684;;-14.413007;;-14.488716;;-14.532449;;-14.528105;;-14.465489;;-14.373724;;-14.328228;;-14.38786;;-14.527908;;-14.668993;;-14.75877;;-14.802876;;-14.833308;;-14.87413;;-14.931871;;-15.000749;;-15.065495;;-15.065495
-2.52573;;-2.52573;;-2.5286082;;-2.5420058;;-2.5622594;;-2.5883214;;-2.6194819;;-2.9440396;;-2.9790418;;-3.0065567;;-3.0278877;;-3.054061;;-3.0882609;;-3.1270092;;-3.1702694;;-3.2202652;;-3.274599;;-3.3278612;;-3.3822736;;-3.4913653;;-3.6793407;;-3.9442333;;-4.2914248;;-4.7286085;;-5.257691;;-5.8811905;;-6.5975135;;-7.3916187;;-8.2264693;;-9.0413336;;-9.7945281;;-10.493793;;-11.145149;;-11.727287;;-12.213972;;-12.605173;;-12.928282;;-13.209054;;-13.451036;;-13.644687;;-13.788622;;-13.896205;;-13.984692;;-14.065489;;-14.147318;;-14.239846;;-14.345335;;-14.451713;;-14.541499;;-14.603176;;-14.628477;;-14.611093;;-14.565367;;-14.535886;;-14.563638;;-14.64221;;-14.727142;;-14.785495;;-14.820225;;-14.852518;;-14.89814;;-14.960046;;-15.031613;;-15.097513;;-15.097513
-2.5256532;;-2.5256532;;-2.5262698;;-2.5326615;;-2.5483242;;-2.5702725;;-2.5977178;;-2.6295;;-2.9544459;;-2.987662;;-3.0139995;;-3.0356775;;-3.0588496;;-3.0853587;;-3.1215438;;-3.1726385;;-3.2364661;;-3.3047216;;-3.3699788;;-3.4556574;;-3.6161012;;-3.8529117;;-4.1704572;;-4.5752779;;-5.0730735;;-5.6638263;;-6.3494616;;-7.1213512;;-7.9528564;;-8.791914;;-9.5831354;;-10.319446;;-11.014467;;-11.653861;;-12.20326;;-12.64487;;-12.994133;;-13.278415;;-13.511637;;-13.695263;;-13.832966;;-13.936166;;-14.018697;;-14.093155;;-14.1722;;-14.26705;;-14.378612;;-14.493555;;-14.594293;;-14.670724;;-14.718643;;-14.734591;;-14.723554;;-14.707844;;-14.713494;;-14.744939;;-14.784258;;-14.815746;;-14.842255;;-14.876232;;-14.924978;;-14.987604;;-15.057627;;-15.121567;;-15.121567
-2.5256182;;-2.5256182;;-2.5258102;;-2.527309;;-2.5369985;;-2.5548072;;-2.5786405;;-2.6078657;;-2.6410156;;-2.9670128;;-2.9978609;;-3.0145265;;-3.0224188;;-3.0356635;;-3.0670195;;-3.1178308;;-3.1862755;;-3.2662236;;-3.3476654;;-3.4369833;;-3.5788783;;-3.7943277;;-4.0889966;;-4.4688201;;-4.9419184;;-5.5079386;;-6.1688662;;-6.9203209;;-7.7425542;;-8.5921765;;-9.4100597;;-10.173017;;-10.897752;;-11.580026;;-12.180598;;-12.662208;;-13.025671;;-13.302425;;-13.522731;;-13.701523;;-13.844386;;-13.955693;;-14.043261;;-14.120725;;-14.204449;;-14.304773;;-14.419526;;-14.535925;;-14.639806;;-14.722764;;-14.780678;;-14.809941;;-14.811686;;-14.799315;;-14.793289;;-14.803539;;-14.823438;;-14.843839;;-14.866783;;-14.901338;;-14.951637;;-15.014125;;-15.082045;;-15.143683;;-15.143683
-2.5256056;;-2.5256056;;-2.5256525;;-2.5259834;;-2.5292963;;-2.5428607;;-2.56323;;-2.589269;;-2.6199044;;-2.6529195;;-2.9760017;;-2.9921241;;-2.9864924;;-2.9881241;;-3.0168939;;-3.069331;;-3.1404572;;-3.2262263;;-3.3161387;;-3.4176557;;-3.5599973;;-3.7666338;;-4.0493024;;-4.4156284;;-4.87505;;-5.4298307;;-6.0806426;;-6.8251007;;-7.6474557;;-8.5087434;;-9.3462429;;-10.121025;;-10.849564;;-11.539062;;-12.152887;;-12.644665;;-13.006968;;-13.274905;;-13.489813;;-13.674258;;-13.832658;;-13.962182;;-14.064698;;-14.153402;;-14.245956;;-14.35115;;-14.464578;;-14.575677;;-14.674991;;-14.756176;;-14.813202;;-14.839031;;-14.831851;;-14.805715;;-14.788569;;-14.799604;;-14.831427;;-14.864396;;-14.892611;;-14.92681;;-14.97605;;-15.037965;;-15.104977;;-15.165396;;-15.165396
-2.5256027;;-2.5256027;;-2.5256097;;-2.5256711;;-2.5262141;;-2.53304;;-2.5488685;;-2.570583;;-2.5970802;;-2.6261713;;-2.6541979;;-2.9622262;;-2.9529739;;-2.9475157;;-2.9783305;;-3.0325003;;-3.1056733;;-3.1943979;;-3.2873427;;-3.398146;;-3.5503238;;-3.7609983;;-4.0446657;;-4.4116611;;-4.872643;;-5.4320741;;-6.0908655;;-6.8467932;;-7.684675;;-8.5647325;;-9.4157157;;-10.183312;;-10.884535;;-11.538631;;-12.120706;;-12.591317;;-12.944188;;-13.212364;;-13.434967;;-13.633469;;-13.811473;;-13.96353;;-14.087212;;-14.191839;;-14.293041;;-14.399321;;-14.508112;;-14.612168;;-14.704973;;-14.780504;;-14.830363;;-14.84298;;-14.812155;;-14.755965;;-14.720211;;-14.741794;;-14.80823;;-14.874964;;-14.918377;;-14.951902;;-14.99597;;-15.053725;;-15.118026;;-15.176791;;-15.176791
-2.5256024;;-2.5256024;;-2.5256029;;-2.5256106;;-2.5257276;;-2.5270616;;-2.5362767;;-2.5527157;;-2.5741636;;-2.5986029;;-2.6224737;;-2.6371779;;-2.9190432;;-2.9137036;;-2.9478552;;-2.707046;;-2.7766812;;-2.8665211;;-3.2598595;;-3.3824859;;-3.5442229;;-3.7632629;;-4.0559333;;-4.4340517;;-4.9080326;;-5.4825194;;-6.1610697;;-6.9407228;;-7.8047583;;-8.7089749;;-9.568223;;-10.311137;;-10.959646;;-11.547471;;-12.069556;;-12.504765;;-12.851216;;-13.13213;;-13.373983;;-13.592039;;-13.790421;;-13.965114;;-14.111016;;-14.231591;;-14.338856;;-14.443277;;-14.547347;;-14.647238;;-14.736098;;-14.80596;;-14.847046;;-14.845759;;-14.791651;;-14.704398;;-14.64654;;-14.674773;;-14.774116;;-14.87604;;-14.937132;;-14.970484;;-15.006089;;-15.054477;;-15.111194;;-15.165662;;-15.165662
-2.5256024;;-2.5256024;;-2.5256024;;-2.5256031;;-2.5256326;;-2.5259407;;-2.528205;;-2.5379871;;-2.5537392;;-2.5730842;;-2.5926311;;-2.604986;;-2.5976459;;-2.596633;;-2.6289084;;-2.6788747;;-2.7467204;;-2.8358933;;-3.2349491;;-3.3670815;;-3.5346093;;-3.7589931;;-4.0586032;;-4.4468939;;-4.9321586;;-5.5211235;;-6.2185491;;-7.0219535;;-7.9131935;;-8.8438782;;-9.712655;;-10.422869;;-11.005856;;-11.516961;;-11.975934;;-12.380599;;-12.730544;;-13.03519;;-13.305666;;-13.549346;;-13.770004;;-13.965643;;-14.130299;;-14.263285;;-14.37427;;-14.47661;;-14.577867;;-14.676159;;-14.762815;;-14.82789;;-14.862931;;-14.856344;;-14.795995;;-14.698286;;-14.62849;;-14.651953;;-14.757826;;-14.871729;;-14.941137;;-14.974414;;-15.002139;;-15.038238;;-15.083149;;-15.130721;;-15.130721
-2.5256024;;-2.5256024;;-2.5256024;;-2.5256024;;-2.5256081;;-2.5256783;;-2.5261488;;-2.5286998;;-2.5378127;;-2.5517003;;-2.5666887;;-2.5762822;;-2.5704936;;-2.5762586;;-2.6080008;;-2.6559973;;-2.721437;;-2.8081567;;-3.2085029;;-3.3435064;;-3.5100299;;-3.7312686;;-4.0279645;;-4.4134532;;-4.8975892;;-5.4881083;;-6.1908176;;-7.0044858;;-7.9124135;;-8.8665147;;-9.7564329;;-10.446491;;-10.972358;;-11.419049;;-11.829129;;-12.215054;;-12.576752;;-12.912075;;-13.218146;;-13.492892;;-13.737071;;-13.950387;;-14.128666;;-14.270596;;-14.385017;;-14.486918;;-14.586489;;-14.682811;;-14.766783;;-14.829012;;-14.864117;;-14.86463;;-14.819743;;-14.73979;;-14.676995;;-14.688684;;-14.772475;;-14.869619;;-14.933559;;-14.965746;;-14.988034;;-15.012699;;-15.044411;;-15.083577;;-15.083577
-2.5256024;;-2.5256024;;-2.5256024;;-2.5256024;;-2.5256029;;-2.5256125;;-2.5256996;;-2.5261626;;-2.5281871;;-2.5355694;;-2.545922;;-2.552859;;-2.5486375;;-2.5592718;;-2.5893293;;-2.633941;;-2.6948834;;-2.7760341;;-2.8828073;;-3.3011602;;-3.4615447;;-3.6699555;;-3.9513085;;-4.3195807;;-4.7850012;;-5.3571576;;-6.0425553;;-6.8424284;;-7.7440267;;-8.7068355;;-9.62945;;-10.340285;;-10.847098;;-11.261444;;-11.642705;;-12.016174;;-12.388659;;-12.753931;;-13.096692;;-13.403238;;-13.66951;;-13.897244;;-14.086206;;-14.2367;;-14.356834;;-14.460899;;-14.559345;;-14.652534;;-14.733912;;-14.797336;;-14.839576;;-14.855832;;-14.838373;;-14.792265;;-14.751119;;-14.755105;;-14.808439;;-14.876443;;-14.926545;;-14.955354;;-14.973907;;-14.990581;;-15.012947;;-15.04389;;-15.04389
-2.5256024;;-2.5256024;;-2.5256024;;-2.5256024;;-2.5256024;;-2.525603;;-2.5256131;;-2.5256825;;-2.5259467;;-2.5268686;;-2.5311369;;-2.5354014;;-2.532819;;-2.5442717;;-2.571334;;-2.6112657;;-2.6659906;;-2.7391765;;-2.8358716;;-3.2446674;;-3.3922486;;-3.5814387;;-3.83758;;-4.1759809;;-4.6075948;;-5.1418833;;-5.7871964;;-6.5470028;;-7.4140516;;-8.3600267;;-9.3069163;;-10.086339;;-10.630798;;-11.054485;;-11.427676;;-11.790182;;-12.165544;;-12.552233;;-12.925993;;-13.262143;;-13.551301;;-13.795672;;-13.997884;;-14.159827;;-14.288891;;-14.397875;;-14.496692;;-14.587341;;-14.667906;;-14.73643;;-14.790394;;-14.824979;;-14.835011;;-14.823587;;-14.809227;;-14.815454;;-14.847814;;-14.889999;;-14.92478;;-14.948107;;-14.965283;;-14.981877;;-15.002936;;-15.030098;;-15.030098
-2.5256024;;-2.5256024;;-2.5256024;;-2.5256024;;-2.5256024;;-2.5256024;;-2.525603;;-2.5256084;;-2.5256308;;-2.5256862;;-2.5258229;;-2.5261825;;-2.5259578;;-2.5324821;;-2.5550905;;-2.5894481;;-2.6370733;;-2.7011919;;-2.7863018;;-2.8982183;;-3.3117555;;-3.4800856;;-3.7068599;;-4.0083143;;-4.3966871;;-4.8812245;;-5.470713;;-6.1708409;;-6.9793717;;-7.8803633;;-8.8216851;;-9.6761664;;-10.304805;;-10.774023;;-11.162968;;-11.525144;;-11.902443;;-12.302448;;-12.699448;;-13.064299;;-13.383251;;-13.654097;;-13.877081;;-14.054295;;-14.193975;;-14.309487;;-14.410993;;-14.501825;;-14.583808;;-14.659012;;-14.725353;;-14.777122;;-14.81065;;-14.828551;;-14.839696;;-14.853958;;-14.874733;;-14.897503;;-14.917594;;-14.936383;;-14.958229;;-14.984224;;-15.01205;;-15.039461;;-15.039461
-2.5256024;;-2.5256024;;-2.5256024;;-2.5256024;;-2.5256024;;-2.5256024;;-2.5256024;;-2.5256024;;-2.5256026;;-2.525603;;-2.5256038;;-2.525605;;-2.5256047;;-2.5262491;;-2.5419018;;-2.5699706;;-2.6103466;;-2.6654173;;-2.7389714;;-2.8360761;;-3.231607;;-3.3799692;;-3.577056;;-3.8402717;;-4.1827979;;-4.6139088;;-5.1422383;;-5.7741029;;-6.5113594;;-7.3480318;;-8.2531661;;-9.1417454;;-9.8634718;;-10.39927;;-10.829035;;-11.214091;;-11.604396;;-12.015633;;-12.430395;;-12.82459;;-13.181322;;-13.488445;;-13.738431;;-13.932712;;-14.083033;;-14.206079;;-14.31341;;-14.408871;;-14.495701;;-14.578179;;-14.655718;;-14.722952;;-14.776905;;-14.818587;;-14.848931;;-14.868455;;-14.878992;;-14.88472;;-14.892148;;-14.909792;;-14.942222;;-14.983008;;-15.020493;;-15.048012;;-15.048012
-2.5256024;;-2.5256024;;-2.5256024;;-2.5256024;;-2.5256024;;-2.5256024;;-2.5256024;;-2.5256024;;-2.5256024;;-2.5256024;;-2.5256024;;-2.5256024;;-2.5256024;;-2.5256166;;-2.5314889;;-2.5536717;;-2.5875202;;-2.6344781;;-2.6976837;;-2.7815128;;-3.1619052;;-3.2928264;;-3.4635175;;-3.6918199;;-3.9913969;;-4.3725246;;-4.843002;;-5.4089279;;-6.0752116;;-6.8430622;;-7.6961293;;-8.5788318;;-9.370557;;-9.9793186;;-10.462911;;-10.885593;;-11.295815;;-11.716924;;-12.147154;;-12.571892;;-12.969309;;-13.314201;;-13.590593;;-13.800758;;-13.961804;;-14.0943;;-14.211163;;-14.316373;;-14.412752;;-14.504676;;-14.593076;;-14.674998;;-14.747216;;-14.806085;;-14.845866;;-14.86309;;-14.862068;;-14.853181;;-14.851005;;-14.869809;;-14.913389;;-14.968166;;-15.013099;;-15.039177;;-15.039176
-2.5256024;;-2.5256024;;-2.5256024;;-2.5256024;;-2.5256024;;-2.5256024;;-2.5256024;;-2.5256024;;-2.5256024;;-2.5256024;;-2.5256024;;-2.5256024;;-2.5256024;;-2.5256031;;-2.5261956;;-2.541574;;-2.5694772;;-2.60966;;-2.6644443;;-2.73755;;-3.1068364;;-3.224797;;-3.3756229;;-3.5765932;;-3.8404584;;-4.1801317;;-4.602962;;-5.1144094;;-5.7217078;;-6.4309827;;-7.2352248;;-8.0980115;;-8.9308186;;-9.6070808;;-10.135506;;-10.584305;;-11.004561;;-11.431495;;-11.87908;;-12.337266;;-12.774183;;-13.151729;;-13.449375;;-13.673221;;-13.845377;;-13.988269;;-14.115429;;-14.231866;;-14.340123;;-14.443278;;-14.543184;;-14.638973;;-14.726154;;-14.794846;;-14.834931;;-14.845885;;-14.836514;;-14.820111;;-14.813257;;-14.833036;;-14.883425;;-14.945765;;-14.992474;;-15.014454;;-15.014453
-2.5256024;;-2.5256024;;-2.5256024;;-2.5256024;;-2.5256024;;-2.5256024;;-2.5256024;;-2.5256024;;-2.5256024;;-2.5256024;;-2.5256024;;-2.5256024;;-2.5256024;;-2.5256025;;-2.5256375;;-2.5330315;;-2.5562871;;-2.5914158;;-2.6400071;;-2.705319;;-2.7918504;;-3.1754594;;-3.3160097;;-3.4996508;;-3.7373202;;-4.0456658;;-4.43325;;-4.9045892;;-5.4687351;;-6.135098;;-6.9027514;;-7.7470429;;-8.6000078;;-9.3294393;;-9.8825207;;-10.333918;;-10.751031;;-11.183944;;-11.654862;;-12.149283;;-12.622302;;-13.026376;;-13.340632;;-13.57609;;-13.757606;;-13.907102;;-14.03899;;-14.161256;;-14.277575;;-14.389649;;-14.498943;;-14.605372;;-14.70178;;-14.773791;;-14.811146;;-14.818543;;-14.809782;;-14.797265;;-14.793767;;-14.81431;;-14.861439;;-14.914766;;-14.945665;;-14.952177;;-14.952177
-2.5256024;;-2.5256024;;-2.5256024;;-2.5256024;;-2.5256024;;-2.5256024;;-2.5256024;;-2.5256024;;-2.5256024;;-2.5256024;;-2.5256024;;-2.5256024;;-2.5256024;;-2.5256024;;-2.5256078;;-2.5279999;;-2.5475884;;-2.5789727;;-2.6232336;;-2.6832481;;-2.7631478;;-3.1414118;;-3.2777713;;-3.4532764;;-3.6741228;;-3.9595691;;-4.3210932;;-4.7631445;;-5.2965165;;-5.9327068;;-6.6743805;;-7.5035773;;-8.3644886;;-9.1327974;;-9.7011697;;-10.14691;;-10.562524;;-11.008685;;-11.506252;;-12.032263;;-12.532544;;-12.955345;;-13.281193;;-13.523936;;-13.708712;;-13.85661;;-13.983966;;-14.102936;;-14.219136;;-14.333392;;-14.446249;;-14.556631;;-14.655312;;-14.726674;;-14.763185;;-14.77354;;-14.773818;;-14.77453;;-14.781004;;-14.79803;;-14.817156;;-14.818206;;-14.786519;;-14.747292;;-14.747292
-2.5256024;;-2.5256024;;-2.5256024;;-2.5256024;;-2.5256024;;-2.5256024;;-2.5256024;;-2.5256024;;-2.5256024;;-2.5256024;;-2.5256024;;-2.5256024;;-2.5256024;;-2.5256024;;-2.5256034;;-2.5261669;;-2.54184;;-2.5703437;;-2.6115552;;-2.6679185;;-2.7432858;;-2.8427912;;-2.9729449;;-3.1417937;;-3.6312777;;-3.9045032;;-4.2459117;;-4.6654963;;-5.1770714;;-5.7931402;;-6.5179063;;-7.3374036;;-8.204309;;-9.0067045;;-9.5998816;;-10.051192;;-10.476144;;-10.938619;;-11.454289;;-11.99562;;-12.506753;;-12.936123;;-13.264766;;-13.506454;;-13.685683;;-13.823941;;-13.939998;;-14.048922;;-14.157835;;-14.267416;;-14.377318;;-14.484785;;-14.579923;;-14.649404;;-14.688077;;-14.705092;;-14.715263;;-14.72744;;-14.739926;;-14.735862;;-14.682064;;-14.556913;;-14.383182;;-14.24814;;-14.24814
-2.5256024;;-2.5256024;;-2.5256024;;-2.5256024;;-2.5256024;;-2.5256024;;-2.5256024;;-2.5256024;;-2.5256024;;-2.5256024;;-2.5256024;;-2.5256024;;-2.5256024;;-2.5256024;;-2.5256025;;-2.5257507;;-2.5379796;;-2.5645124;;-2.6036982;;-2.6576688;;-2.7301126;;-2.8260109;;-2.9517055;;-3.1150617;;-3.3256418;;-3.8698231;;-4.1987884;;-4.6028118;;-5.1015414;;-5.7074915;;-6.4250108;;-7.2429781;;-8.1206796;;-8.9584551;;-9.5931525;;-10.065747;;-10.504665;;-10.9739;;-11.487708;;-12.021688;;-12.524855;;-12.947426;;-13.268766;;-13.500755;;-13.667858;;-13.792875;;-13.895897;;-13.992904;;-14.091602;;-14.193145;;-14.296222;;-14.396547;;-14.485528;;-14.553257;;-14.595874;;-14.617942;;-14.629092;;-14.638601;;-14.641315;;-14.594657;;-14.427033;;-14.113124;;-13.73511;;-13.468639;;-13.468639
-2.5256024;;-2.5256024;;-2.5256024;;-2.5256024;;-2.5256024;;-2.5256024;;-2.5256024;;-2.5256024;;-2.5256024;;-2.5256024;;-2.5256024;;-2.5256024;;-2.5256024;;-2.5256024;;-2.5256024;;-2.5256552;;-2.5354002;;-2.5606201;;-2.5984426;;-2.6508172;;-2.7213423;;-2.8149087;;-2.9377595;;-3.3547956;;-3.3040651;;-3.568289;;-4.1675212;;-4.5623909;;-5.0542862;;-5.6562276;;-6.3723088;;-7.1937713;;-8.0854997;;-8.9586752;;-9.6468949;;-10.152726;;-10.604934;;-11.067918;;-11.560797;;-12.069345;;-12.55174;;-12.959895;;-13.269326;;-13.488894;;-13.643471;;-13.756834;;-13.848671;;-13.934752;;-14.023904;;-14.117457;;-14.212539;;-14.304419;;-14.386971;;-14.453693;;-14.499997;;-14.522756;;-14.523466;;-14.514324;;-14.495306;;-14.406592;;-14.138134;;-13.656812;;-13.099987;;-12.71937;;-12.719369
-2.5256024;;-2.5256024;;-2.5256024;;-2.5256024;;-2.5256024;;-2.5256024;;-2.5256024;;-2.5256024;;-2.5256024;;-2.5256024;;-2.5256024;;-2.5256024;;-2.5256024;;-2.5256024;;-2.5256024;;-2.525622;;-2.5330919;;-2.5570391;;-2.593459;;-2.6441422;;-2.7125878;;-2.8035781;;-3.1805967;;-3.3381581;;-3.5405076;;-3.5392204;;-4.1294998;;-4.5156999;;-5.0011894;;-5.5976575;;-6.3097512;;-7.1313546;;-8.0328934;;-8.9364533;;-9.6829176;;-10.230732;;-10.698282;;-11.150685;;-11.615175;;-12.092492;;-12.552718;;-12.948988;;-13.251041;;-13.463526;;-13.611139;;-13.717523;;-13.801229;;-13.878246;;-13.959014;;-14.045002;;-14.13157;;-14.214866;;-14.291704;;-14.358279;;-14.407483;;-14.428442;;-14.416396;;-14.386332;;-14.351311;;-14.254927;;-13.970389;;-13.452065;;-12.850533;;-12.438799;;-12.438799
-2.5256024;;-2.5256024;;-2.5256024;;-2.5256024;;-2.5256024;;-2.5256024;;-2.5256024;;-2.5256024;;-2.5256024;;-2.5256024;;-2.5256024;;-2.5256024;;-2.5256024;;-2.5256024;;-2.5256024;;-2.5256077;;-2.5303534;;-2.5525479;;-2.586986;;-2.6352549;;-2.7006841;;-2.7878699;;-3.1606551;;-3.3125901;;-3.5066557;;-3.753276;;-4.061635;;-4.4427188;;-4.9197914;;-5.5047002;;-6.2049928;;-7.0179636;;-7.9197831;;-8.843802;;-9.6447935;;-10.235902;;-10.718699;;-11.161964;;-11.602555;;-12.056681;;-12.505363;;-12.901465;;-13.2077;;-13.423324;;-13.571863;;-13.676507;;-13.75507;;-13.824276;;-13.895324;;-13.969297;;-14.043125;;-14.116414;;-14.190216;;-14.26016;;-14.314699;;-14.338523;;-14.324374;;-14.289854;;-14.259628;;-14.19827;;-13.99758;;-13.604226;;-13.133455;;-12.810311;;-12.810311
-2.5256024;;-2.5256024;;-2.5256024;;-2.5256024;;-2.5256024;;-2.5256024;;-2.5256024;;-2.5256024;;-2.5256024;;-2.5256024;;-2.5256024;;-2.5256024;;-2.5256024;;-2.5256024;;-2.5256024;;-2.5256034;;-2.5276384;;-2.5472285;;-2.5790121;;-2.6241631;;-2.6857032;;-2.7679523;;-2.8765504;;-3.0186051;;-3.4606774;;-3.688558;;-3.9810687;;-4.3514328;;-4.81305;;-5.3792478;;-6.0597931;;-6.8549235;;-7.746459;;-8.679006;;-9.5248042;;-10.152495;;-10.641447;;-11.074348;;-11.500816;;-11.948312;;-12.402682;;-12.813768;;-13.137063;;-13.366057;;-13.522311;;-13.629515;;-13.706061;;-13.767316;;-13.821567;;-13.869337;;-13.915394;;-13.972798;;-14.049977;;-14.13603;;-14.207955;;-14.247455;;-14.250144;;-14.234858;;-14.22915;;-14.219875;;-14.136933;;-13.932576;;-13.666112;;-13.477328;;-13.477328
-2.5256024;;-2.5256024;;-2.5256024;;-2.5256024;;-2.5256024;;-2.5256024;;-2.5256024;;-2.5256024;;-2.5256024;;-2.5256024;;-2.5256024;;-2.5256024;;-2.5256024;;-2.5256024;;-2.5256024;;-2.5256025;;-2.526069;;-2.5414917;;-2.5700727;;-2.6116193;;-2.6686478;;-2.7451298;;-2.8463627;;-2.9790735;;-3.4085877;;-3.6199872;;-3.8952414;;-4.2460024;;-4.6852759;;-5.2264019;;-5.8796031;;-6.6477319;;-7.5181986;;-8.4470256;;-9.3263485;;-9.9898891;;-10.477458;;-10.898354;;-11.319928;;-11.775984;;-12.25092;;-12.688949;;-13.038871;;-13.288369;;-13.456959;;-13.570074;;-13.647149;;-13.698643;;-13.723967;;-13.722947;;-13.716627;;-13.746836;;-13.835787;;-13.95908;;-14.070985;;-14.144189;;-14.180614;;-14.200723;;-14.226676;;-14.256855;;-14.256276;;-14.195001;;-14.09387;;-14.018398;;-14.018398
-2.5256024;;-2.5256024;;-2.5256024;;-2.5256024;;-2.5256024;;-2.5256024;;-2.5256024;;-2.5256024;;-2.5256024;;-2.5256024;;-2.5256024;;-2.5256024;;-2.5256024;;-2.5256024;;-2.5256024;;-2.5256024;;-2.5256571;;-2.5353783;;-2.5604376;;-2.5979749;;-2.6499236;;-2.7198736;;-2.8127185;;-3.1955938;;-3.3488861;;-3.5436709;;-3.7980795;;-4.1246146;;-4.5358637;;-5.0451079;;-5.6628246;;-6.3939477;;-7.2317223;;-8.1436725;;-9.0434008;;-9.7576636;;-10.256741;;-10.674843;;-11.099856;;-11.570657;;-12.070091;;-12.538482;;-12.91912;;-13.193295;;-13.377588;;-13.499095;;-13.576964;;-13.614884;;-13.602455;;-13.538332;;-13.464657;;-13.458775;;-13.562069;;-13.735464;;-13.904343;;-14.026103;;-14.104604;;-14.161972;;-14.214616;;-14.263063;;-14.293032;;-14.293444;;-14.27327;;-14.25726;;-14.257259
-2.5256024;;-2.5256024;;-2.5256024;;-2.5256024;;-2.5256024;;-2.5256024;;-2.5256024;;-2.5256024;;-2.5256024;;-2.5256024;;-2.5256024;;-2.5256024;;-2.5256024;;-2.5256024;;-2.5256024;;-2.5256024;;-2.5256064;;-2.5295162;;-2.5507489;;-2.583904;;-2.6303903;;-2.6933643;;-2.777244;;-3.1484604;;-3.2866178;;-3.4636446;;-3.6958659;;-3.9948334;;-4.3733782;;-4.8450537;;-5.4212084;;-6.1084041;;-6.904585;;-7.7885214;;-8.6953926;;-9.4788736;;-10.028037;;-10.466628;;-10.901945;;-11.38142;;-11.89388;;-12.38326;;-12.790382;;-13.089466;;-13.292019;;-13.423739;;-13.501703;;-13.52461;;-13.479261;;-13.367552;;-13.245623;;-13.211287;;-13.320024;;-13.528108;;-13.743976;;-13.910885;;-14.026699;;-14.111592;;-14.180206;;-14.233465;;-14.265777;;-14.277877;;-14.279914;;-14.282738;;-14.282737
-2.5256024;;-2.5256024;;-2.5256024;;-2.5256024;;-2.5256024;;-2.5256024;;-2.5256024;;-2.5256024;;-2.5256024;;-2.5256024;;-2.5256024;;-2.5256024;;-2.5256024;;-2.5256024;;-2.5256024;;-2.5256024;;-2.5256029;;-2.5262595;;-2.5421665;;-2.570717;;-2.6119056;;-2.6682193;;-2.7435565;;-3.1049501;;-3.2292202;;-3.3885329;;-3.598678;;-3.8704104;;-4.2172786;;-4.6522613;;-5.1877284;;-5.8321889;;-6.5876649;;-7.4422784;;-8.351112;;-9.2073795;;-9.8526177;;-10.336807;;-10.784137;;-11.257358;;-11.760084;;-12.246982;;-12.660492;;-12.971456;;-13.189321;;-13.336591;;-13.422962;;-13.443192;;-13.38952;;-13.274525;;-13.154492;;-13.118187;;-13.218634;;-13.422472;;-13.647147;;-13.832465;;-13.965347;;-14.060344;;-14.132981;;-14.186338;;-14.21736;;-14.230042;;-14.235169;;-14.241545;;-14.241545
-2.5256024;;-2.5256024;;-2.5256024;;-2.5256024;;-2.5256024;;-2.5256024;;-2.5256024;;-2.5256024;;-2.5256024;;-2.5256024;;-2.5256024;;-2.5256024;;-2.5256024;;-2.5256024;;-2.5256024;;-2.5256024;;-2.5256026;;-2.5256869;;-2.5352056;;-2.559813;;-2.5965932;;-2.6473961;;-2.7157203;;-2.8063563;;-3.1815825;;-3.3274276;;-3.5198264;;-3.7695878;;-4.0908957;;-4.4971206;;-5.0012612;;-5.613589;;-6.3399524;;-7.175384;;-8.0898058;;-9.0060074;;-9.7686673;;-10.313453;;-10.769506;;-11.223393;;-11.694324;;-12.144671;;-12.520346;;-12.803461;;-13.021482;;-13.199799;;-13.327322;;-13.38033;;-13.356445;;-13.283594;;-13.212034;;-13.201209;;-13.287892;;-13.455613;;-13.649443;;-13.818045;;-13.940435;;-14.025499;;-14.090437;;-14.141538;;-14.175456;;-14.192454;;-14.20019;;-14.207264;;-14.207264
-2.5256024;;-2.5256024;;-2.5256024;;-2.5256024;;-2.5256024;;-2.5256024;;-2.5256024;;-2.5256024;;-2.5256024;;-2.5256024;;-2.5256024;;-2.5256024;;-2.5256024;;-2.5256024;;-2.5256024;;-2.5256024;;-2.5256025;;-2.5256255;;-2.5303886;;-2.5520331;;-2.5855222;;-2.6323362;;-2.6957071;;-2.7801517;;-3.1476513;;-3.2845103;;-3.4651035;;-3.7005221;;-4.0048182;;-4.3929003;;-4.8780062;;-5.4718618;;-6.183117;;-7.0110377;;-7.9346452;;-8.8946343;;-9.7581827;;-10.369009;;-10.833891;;-11.269336;;-11.699214;;-12.078743;;-12.356628;;-12.551776;;-12.746193;;-12.979698;;-13.199796;;-13.33469;;-13.37439;;-13.363295;;-13.351706;;-13.375489;;-13.454144;;-13.583208;;-13.732917;;-13.864723;;-13.95808;;-14.019788;;-14.068545;;-14.113556;;-14.151293;;-14.175038;;-14.18756;;-14.195345;;-14.195345
-2.5256024;;-2.5256024;;-2.5256024;;-2.5256024;;-2.5256024;;-2.5256024;;-2.5256024;;-2.5256024;;-2.5256024;;-2.5256024;;-2.5256024;;-2.5256024;;-2.5256024;;-2.5256024;;-2.5256024;;-2.5256024;;-2.5256024;;-2.5256102;;-2.5276908;;-2.5467744;;-2.5777786;;-2.6217736;;-2.6817369;;-2.7619857;;-3.1234644;;-3.2543601;;-3.4275852;;-3.653893;;-3.9472544;;-4.3236017;;-4.7966064;;-5.3790603;;-6.0811305;;-6.9045866;;-7.8342544;;-8.8228132;;-9.7569963;;-10.43826;;-10.924172;;-11.35704;;-11.753816;;-12.049022;;-12.19312;;-12.262102;;-12.417809;;-12.719678;;-13.06087;;-13.302736;;-13.414206;;-13.455408;;-13.487434;;-13.538954;;-13.618933;;-13.725552;;-13.841218;;-13.938654;;-14.003002;;-14.041684;;-14.073614;;-14.110126;;-14.148046;;-14.176762;;-14.194027;;-14.202771;;-14.20277
-2.5256024;;-2.5256024;;-2.5256024;;-2.5256024;;-2.5256024;;-2.5256024;;-2.5256024;;-2.5256024;;-2.5256024;;-2.5256024;;-2.5256024;;-2.5256024;;-2.5256024;;-2.5256024;;-2.5256024;;-2.5256025;;-2.5256028;;-2.5256055;;-2.5263658;;-2.5425066;;-2.571233;;-2.6127232;;-2.6696318;;-2.9995201;;-3.0987269;;-3.2259084;;-3.3931239;;-3.610929;;-3.8936616;;-4.2578172;;-4.7176039;;-5.2861661;;-5.9744674;;-6.7862427;;-7.7110075;;-8.7109936;;-9.6895581;;-10.447494;;-10.975751;;-11.429324;;-11.81859;;-12.058904;;-12.102956;;-12.075513;;-12.200195;;-12.548816;;-12.973113;;-13.286371;;-13.439771;;-13.505555;;-13.560862;;-13.634364;;-13.725843;;-13.827625;;-13.925744;;-14.003388;;-14.051892;;-14.078436;;-14.100165;;-14.129575;;-14.164632;;-14.194437;;-14.213853;;-14.222346;;-14.222346
-2.5256024;;-2.5256024;;-2.5256024;;-2.5256024;;-2.5256024;;-2.5256024;;-2.5256024;;-2.5256024;;-2.5256024;;-2.5256024;;-2.5256024;;-2.5256024;;-2.5256024;;-2.5256027;;-2.5256056;;-2.5256171;;-2.5256444;;-2.5256872;;-2.5259454;;-2.5382171;;-2.5644076;;-2.6030459;;-2.656373;;-2.9807691;;-3.0728841;;-3.1937702;;-3.3523113;;-3.5587259;;-3.8268589;;-4.1735235;;-4.613421;;-5.1595343;;-5.8228517;;-6.6088305;;-7.5112759;;-8.5006181;;-9.496297;;-10.324219;;-10.909633;;-11.406715;;-11.832385;;-12.093427;;-12.140745;;-12.10859;;-12.22778;;-12.569966;;-12.985609;;-13.286845;;-13.424989;;-13.481595;;-13.547891;;-13.65048;;-13.769701;;-13.882218;;-13.977259;;-14.049691;;-14.095981;;-14.121289;;-14.140078;;-14.164616;;-14.194872;;-14.221663;;-14.238758;;-14.244964;;-14.244964
-2.5256024;;-2.5256024;;-2.5256024;;-2.5256024;;-2.5256024;;-2.5256024;;-2.5256024;;-2.5256024;;-2.5256024;;-2.5256024;;-2.5256024;;-2.5256024;;-2.5256026;;-2.5256074;;-2.5256418;;-2.5257701;;-2.5260667;;-2.5265577;;-2.5274883;;-2.5345283;;-2.5575231;;-2.5926175;;-2.641538;;-2.9597354;;-3.0448758;;-3.1567615;;-3.3035844;;-3.4951047;;-3.7440061;;-4.0668475;;-4.479022;;-4.9928525;;-5.6189667;;-6.3635784;;-7.2239008;;-8.1768917;;-9.1576486;;-10.023984;;-10.656935;;-11.209285;;-11.724336;;-12.101223;;-12.265791;;-12.31729;;-12.452489;;-12.742782;;-13.076783;;-13.303139;;-13.384251;;-13.408476;;-13.479413;;-13.61991;;-13.781363;;-13.916554;;-14.017743;;-14.092824;;-14.142932;;-14.170956;;-14.189024;;-14.208222;;-14.230301;;-14.248838;;-14.259352;;-14.262171;;-14.262171
-2.5256024;;-2.5256024;;-2.5256024;;-2.5256024;;-2.5256024;;-2.5256024;;-2.5256024;;-2.5256024;;-2.5256024;;-2.5256024;;-2.5256024;;-2.5256024;;-2.5256045;;-2.5256358;;-2.5258344;;-2.5265374;;-2.5282074;;-2.5318344;;-2.5373714;;-2.5416289;;-2.5547054;;-2.5839407;;-2.8743853;;-2.9355087;;-3.014249;;-3.1169716;;-3.2514352;;-3.4261792;;-3.6533389;;-3.9491533;;-4.3291741;;-4.8050136;;-5.386556;;-6.080259;;-6.8853702;;-7.7832285;;-8.7225509;;-9.5888483;;-10.241904;;-10.844282;;-11.482607;;-12.039266;;-12.384879;;-12.552593;;-12.703935;;-12.931497;;-13.181985;;-13.345163;;-13.384568;;-13.38307;;-13.453831;;-13.620351;;-13.812685;;-13.964833;;-14.069941;;-14.1457;;-14.198019;;-14.228173;;-14.244313;;-14.255322;;-14.264751;;-14.270863;;-14.273376;;-14.273328;;-14.273328
-2.5256024;;-2.5256024;;-2.5256024;;-2.5256024;;-2.5256024;;-2.5256024;;-2.5256024;;-2.5256024;;-2.5256024;;-2.5256024;;-2.5256025;;-2.5256037;;-2.525618;;-2.5257541;;-2.5264998;;-2.5290389;;-2.5350476;;-2.5445442;;-2.5542325;;-2.5600837;;-2.565485;;-2.8255871;;-2.863089;;-2.916232;;-2.9873314;;-3.0807103;;-3.2032982;;-3.362265;;-3.5690303;;-3.8392883;;-4.1888502;;-4.6286841;;-5.1677142;;-5.8125911;;-6.5638972;;-7.4067164;;-8.3009459;;-9.1553367;;-9.8211619;;-10.462751;;-11.213596;;-11.94111;;-12.456636;;-12.719505;;-12.872463;;-13.052708;;-13.267693;;-13.431681;;-13.489822;;-13.498203;;-13.565563;;-13.72275;;-13.904378;;-14.045274;;-14.139024;;-14.206095;;-14.255311;;-14.286366;;-14.300839;;-14.30332;;-14.299112;;-14.293021;;-14.29017;;-14.289456;;-14.289456
-2.5256024;;-2.5256024;;-2.5256024;;-2.5256024;;-2.5256024;;-2.5256024;;-2.5256024;;-2.5256024;;-2.5256024;;-2.5256024;;-2.5256038;;-2.525617;;-2.5256984;;-2.5261698;;-2.5283789;;-2.5353972;;-2.5474745;;-2.5622831;;-2.5761204;;-2.8236814;;-2.829013;;-2.8434695;;-2.8694165;;-2.9099679;;-2.970103;;-3.0534414;;-3.1652316;;-3.3113117;;-3.502049;;-3.7522534;;-4.0775588;;-4.4895648;;-4.9963983;;-5.6049521;;-6.3167592;;-7.1221487;;-7.9925687;;-8.8585847;;-9.5786213;;-10.258009;;-11.070308;;-11.892067;;-12.510258;;-12.83178;;-12.98289;;-13.139636;;-13.357916;;-13.566221;;-13.685793;;-13.734646;;-13.798246;;-13.914842;;-14.046513;;-14.148319;;-14.215619;;-14.265904;;-14.308288;;-14.339734;;-14.354565;;-14.352494;;-14.339308;;-14.325076;;-14.318266;;-14.31662;;-14.31662
-2.5256024;;-2.5256024;;-2.5256024;;-2.5256024;;-2.5256024;;-2.5256024;;-2.5256024;;-2.5256024;;-2.5256024;;-2.5256024;;-2.5256102;;-2.5256801;;-2.526026;;-2.5274885;;-2.5336227;;-2.5465596;;-2.5639775;;-2.5836906;;-2.8419965;;-2.8531563;;-2.8587743;;-2.8714624;;-2.8949997;;-2.9261035;;-2.9670173;;-3.0366027;;-3.1374876;;-3.2729015;;-3.4514987;;-3.6868677;;-3.9940383;;-4.3860221;;-4.8707849;;-5.4553619;;-6.1427154;;-6.929252;;-7.7994852;;-8.7057563;;-9.5363729;;-10.267667;;-11.083931;;-11.91221;;-12.562683;;-12.928509;;-13.10467;;-13.265143;;-13.489578;;-13.726941;;-13.893173;;-13.97903;;-14.03891;;-14.110397;;-14.185865;;-14.245364;;-14.28689;;-14.322667;;-14.3599;;-14.392301;;-14.408509;;-14.404712;;-14.386327;;-14.36461;;-14.348761;;-14.341097;;-14.341097
-2.5256024;;-2.5256024;;-2.5256024;;-2.5256024;;-2.5256024;;-2.5256024;;-2.5256024;;-2.5256024;;-2.5256024;;-2.5256026;;-2.5256286;;-2.5258642;;-2.5269573;;-2.5313307;;-2.5432183;;-2.5609218;;-2.5828818;;-2.8464913;;-2.8698364;;-2.8829411;;-2.8892064;;-2.9013829;;-2.9224052;;-2.947931;;-2.9757486;;-3.0233818;;-3.1116628;;-3.2365971;;-3.403738;;-3.6250535;;-3.9148282;;-4.2863791;;-4.7488744;;-5.3089343;;-5.9718706;;-6.7401967;;-7.6100013;;-8.5536387;;-9.4920108;;-10.307844;;-11.102021;;-11.892807;;-12.549733;;-12.977835;;-13.226183;;-13.424709;;-13.64913;;-13.875928;;-14.044528;;-14.140906;;-14.195731;;-14.23918;;-14.28086;;-14.317455;;-14.348963;;-14.382579;;-14.421169;;-14.454766;;-14.46946;;-14.4596;;-14.430126;;-14.392382;;-14.35771;;-14.338317;;-14.338317
-2.5256024;;-2.5256024;;-2.5256024;;-2.5256024;;-2.5256024;;-2.5256024;;-2.5256024;;-2.5256024;;-2.5256024;;-2.5256032;;-2.5256676;;-2.5262523;;-2.5291681;;-2.538835;;-2.5551497;;-2.5765134;;-2.8408897;;-2.8693566;;-2.8944907;;-2.9090351;;-2.9157991;;-2.9257636;;-2.9409482;;-2.9580704;;-2.9769481;;-3.0063539;;-3.0791688;;-3.1911441;;-3.3440128;;-3.547201;;-3.8134306;;-4.1555457;;-4.5840329;;-5.1048855;;-5.7252914;;-6.4533126;;-7.2937864;;-8.2339565;;-9.2187575;;-10.124021;;-10.915535;;-11.674917;;-12.347201;;-12.860732;;-13.224175;;-13.506466;;-13.756893;;-13.970667;;-14.123844;;-14.215713;;-14.267416;;-14.302997;;-14.336823;;-14.372545;;-14.41082;;-14.454078;;-14.498863;;-14.53136;;-14.53717;;-14.510771;;-14.459169;;-14.396188;;-14.339613;;-14.308962;;-14.308962
-2.5256024;;-2.5256024;;-2.5256024;;-2.5256024;;-2.5256024;;-2.5256024;;-2.5256024;;-2.5256024;;-2.5256026;;-2.5256084;;-2.5257557;;-2.5270886;;-2.5343773;;-2.5491566;;-2.5692183;;-2.5934723;;-2.860567;;-2.8882869;;-2.9104527;;-2.9230155;;-2.9291525;;-2.9356177;;-2.9437368;;-2.9524538;;-2.9641786;;-2.9850203;;-3.0388475;;-3.1348895;;-3.2697646;;-3.4497575;;-3.6851342;;-3.9874457;;-4.3676155;;-4.8314841;;-5.3862243;;-6.0433476;;-6.8136339;;-7.6948091;;-8.6525257;;-9.5952783;;-10.412656;;-11.160123;;-11.851209;;-12.450188;;-12.951244;;-13.372069;;-13.717927;;-13.976057;;-14.145441;;-14.245591;;-14.303816;;-14.345227;;-14.384885;;-14.428307;;-14.476576;;-14.529527;;-14.579111;;-14.608225;;-14.600411;;-14.552132;;-14.476595;;-14.394791;;-14.329955;;-14.298946;;-14.298946
-2.5256024;;-2.5256024;;-2.5256024;;-2.5256024;;-2.5256024;;-2.5256024;;-2.5256024;;-2.5256024;;-2.5256045;;-2.5256376;;-2.5260274;;-2.5301156;;-2.5432634;;-2.5623736;;-2.5861476;;-2.8521184;;-2.8809944;;-2.9038858;;-2.9177188;;-2.9248318;;-2.9282236;;-2.9310389;;-2.9337763;;-2.9366861;;-2.9436487;;-2.9611109;;-2.9980165;;-3.0754096;;-3.1894246;;-3.3436694;;-3.5453148;;-3.803798;;-4.1290881;;-4.5268853;;-5.0031533;;-5.5708581;;-6.243905;;-7.0269348;;-7.9008795;;-8.8045265;;-9.6331478;;-10.377631;;-11.08009;;-11.748551;;-12.391239;;-12.994798;;-13.510235;;-13.88992;;-14.130403;;-14.267458;;-14.345602;;-14.397847;;-14.441096;;-14.481639;;-14.524695;;-14.574679;;-14.625673;;-14.657143;;-14.64568;;-14.587726;;-14.504904;;-14.426602;;-14.375636;;-14.357068;;-14.357068
-2.5256024;;-2.5256024;;-2.5256024;;-2.5256024;;-2.5256024;;-2.5256024;;-2.5256024;;-2.5256027;;-2.5256133;;-2.5257415;;-2.5271751;;-2.5373074;;-2.5549089;;-2.5779808;;-2.6052833;;-2.8752479;;-2.9032911;;-2.917514;;-2.9202738;;-2.9197875;;-2.9195364;;-2.9198018;;-2.9195681;;-2.9194605;;-2.9239964;;-2.9396449;;-2.9677987;;-3.0215415;;-3.1128834;;-3.2409021;;-3.4095362;;-3.6256538;;-3.8970314;;-4.2286849;;-4.625553;;-5.1008158;;-5.6698016;;-6.3415362;;-7.107618;;-7.9288063;;-8.7301697;;-9.4729965;;-10.192319;;-10.930165;;-11.711337;;-12.504874;;-13.217437;;-13.75891;;-14.10581;;-14.301227;;-14.406812;;-14.465236;;-14.496842;;-14.512095;;-14.527093;;-14.560204;;-14.614377;;-14.664206;;-14.67328;;-14.631851;;-14.565868;;-14.510665;;-14.48486;;-14.482131;;-14.482131
-2.5256024;;-2.5256024;;-2.5256024;;-2.5256024;;-2.5256024;;-2.5256029;;-2.525607;;-2.5256246;;-2.5256968;;-2.5261393;;-2.5313429;;-2.5464017;;-2.5677319;;-2.5943494;;-2.864198;;-2.8979462;;-2.9247521;;-2.9296655;;-2.9219461;;-2.9145113;;-2.9112798;;-2.9107848;;-2.9102717;;-2.9096485;;-2.9129586;;-2.9260646;;-2.9497104;;-2.9831091;;-3.0486746;;-3.1504971;;-3.2881432;;-3.4654991;;-3.6874287;;-3.957874;;-4.2816895;;-4.6712189;;-5.1428855;;-5.7086549;;-6.3685434;;-7.1007362;;-7.8620787;;-8.6246271;;-9.408179;;-10.250002;;-11.167613;;-12.114017;;-12.981647;;-13.659663;;-14.104475;;-14.355907;;-14.482601;;-14.53506;;-14.540174;;-14.518272;;-14.498984;;-14.515305;;-14.578116;;-14.657089;;-14.702532;;-14.694841;;-14.657376;;-14.62682;;-14.618401;;-14.624046;;-14.624046
-2.5256024;;-2.5256024;;-2.5256024;;-2.5256025;;-2.5256033;;-2.5256111;;-2.5256589;;-2.52584;;-2.5264412;;-2.5284786;;-2.5372501;;-2.554757;;-2.5784024;;-2.6073161;;-2.8800992;;-2.9144872;;-2.9385596;;-2.9374705;;-2.924937;;-2.9140735;;-2.9099442;;-2.9105324;;-2.9122998;;-2.9137305;;-2.916679;;-2.9257027;;-2.9435858;;-2.9690491;;-3.0054954;;-3.0803897;;-3.1903033;;-3.3347752;;-3.5154543;;-3.7344244;;-3.9977121;;-4.3171014;;-4.7103454;;-5.1927191;;-5.7710737;;-6.4403471;;-7.1869196;;-8.0106316;;-8.919784;;-9.9060991;;-10.942397;;-11.972779;;-12.908288;;-13.649196;;-14.144891;;-14.424368;;-14.553996;;-14.591797;;-14.57543;;-14.535863;;-14.507354;;-14.523075;;-14.593346;;-14.687322;;-14.75412;;-14.768765;;-14.749599;;-14.730492;;-14.726073;;-14.732064;;-14.732064
-2.5256024;;-2.5256024;;-2.5256028;;-2.5256078;;-2.5256336;;-2.5257333;;-2.5260962;;-2.5278722;;-2.5337973;;-2.5397021;;-2.5463792;;-2.5612698;;-2.5838356;;-2.6120486;;-2.8842081;;-2.9165273;;-2.9372011;;-2.9376873;;-2.9282879;;-2.9201374;;-2.918185;;-2.9213078;;-2.9260938;;-2.9301944;;-2.9337592;;-2.9400709;;-2.952827;;-2.9726065;;-2.9985418;;-3.0380909;;-3.1221487;;-3.2404202;;-3.3898059;;-3.5706057;;-3.790309;;-4.0631518;;-4.4085864;;-4.8471064;;-5.3957268;;-6.0677582;;-6.8724673;;-7.8104044;;-8.8566186;;-9.9626866;;-11.061701;;-12.089779;;-12.996252;;-13.714982;;-14.200003;;-14.470375;;-14.589397;;-14.623264;;-14.618992;;-14.607178;;-14.60841;;-14.638759;;-14.701338;;-14.773941;;-14.821345;;-14.826146;;-14.804706;;-14.785436;;-14.7805;;-14.786647;;-14.786648
-2.5256024;;-2.5256024;;-2.5256067;;-2.5256519;;-2.5258739;;-2.5266182;;-2.5298254;;-2.5390347;;-2.5501808;;-2.5584837;;-2.564095;;-2.5737649;;-2.5900777;;-2.8505916;;-2.8790125;;-2.9058403;;-2.9246326;;-2.9324144;;-2.9325416;;-2.9313599;;-2.9334464;;-2.9391755;;-2.946436;;-2.9528989;;-2.9578573;;-2.9629939;;-2.9718438;;-2.9866774;;-3.0071873;;-3.032852;;-3.10062;;-3.2078863;;-3.3468006;;-3.5182494;;-3.732773;;-4.0105261;;-4.3751602;;-4.8478231;;-5.4469022;;-6.1842528;;-7.0646761;;-8.0792468;;-9.1956988;;-10.347466;;-11.423329;;-12.356921;;-13.152067;;-13.778411;;-14.201815;;-14.442892;;-14.565126;;-14.632393;;-14.684978;;-14.736682;;-14.78472;;-14.826;;-14.858824;;-14.875737;;-14.866193;;-14.832075;;-14.796;;-14.779451;;-14.784789;;-14.798917;;-14.798917
-2.5256025;;-2.5256025;;-2.5256227;;-2.5258304;;-2.526864;;-2.5311291;;-2.5420941;;-2.5571568;;-2.5726821;;-2.5831297;;-2.5879051;;-2.8288743;;-2.6048659;;-2.8565728;;-2.8744569;;-2.8944518;;-2.913769;;-2.9294525;;-2.9395444;;-2.9456373;;-2.9514749;;-2.9589061;;-2.9675905;;-2.9754126;;-2.9810746;;-2.9854033;;-2.9913856;;-3.0020377;;-3.0172783;;-3.0560445;;-3.1456917;;-3.2688993;;-3.4238592;;-3.6161453;;-3.860419;;-4.1792429;;-4.5958202;;-5.1317116;;-5.8039944;;-6.6215679;;-7.5850894;;-8.6748317;;-9.8390454;;-10.970416;;-11.913395;;-12.661431;;-13.279203;;-13.764025;;-14.105992;;-14.335273;;-14.503499;;-14.647732;;-14.779651;;-14.890929;;-14.9663;;-14.99727;;-14.984353;;-14.932368;;-14.852304;;-14.770304;;-14.722606;;-14.724805;;-14.760191;;-14.793867;;-14.793867
-2.5256034;;-2.5256034;;-2.5256665;;-2.5263179;;-2.5306609;;-2.5428271;;-2.5601609;;-2.5805945;;-2.6005737;;-2.6129093;;-2.8513288;;-2.8546258;;-2.8598471;;-2.8669594;;-2.8774854;;-2.893591;;-2.9138874;;-2.9341594;;-2.9499361;;-2.9605102;;-2.968064;;-2.9754531;;-2.9840898;;-2.9923767;;-2.9983322;;-3.0021158;;-3.0064211;;-3.0138021;;-3.0359434;;-3.1131237;;-3.2254349;;-3.3703583;;-3.5516075;;-3.7798438;;-4.0737906;;-4.4563895;;-4.9504575;;-5.57668;;-6.3489267;;-7.2716685;;-8.3364355;;-9.5042051;;-10.685613;;-11.697317;;-12.407885;;-12.924448;;-13.33723;;-13.675291;;-13.961739;;-14.22498;;-14.478492;;-14.710581;;-14.900271;;-15.032318;;-15.099713;;-15.101468;;-15.04065;;-14.927509;;-14.787575;;-14.669299;;-14.622977;;-14.658097;;-14.73459;;-14.793647;;-14.793647
-2.5256087;;-2.5256087;;-2.5257842;;-2.5286843;;-2.5410155;;-2.559519;;-2.5827229;;-2.6082711;;-2.6324682;;-2.8826692;;-2.8822099;;-2.8774233;;-2.873476;;-2.8755509;;-2.8854731;;-2.9025778;;-2.9238481;;-2.9449939;;-2.9621691;;-2.9738904;;-2.9809248;;-2.9864181;;-2.9934123;;-3.0015541;;-3.0099213;;-3.0217285;;-3.0378077;;-3.0530617;;-3.0992689;;-3.1974399;;-3.3318645;;-3.50374;;-3.7211969;;-3.9996076;;-4.360338;;-4.8251878;;-5.4167793;;-6.1529586;;-7.0426117;;-8.0832058;;-9.2467904;;-10.458566;;-11.558414;;-12.322126;;-12.786489;;-13.100193;;-13.353041;;-13.604292;;-13.894176;;-14.225647;;-14.557693;;-14.836382;;-15.031924;;-15.142936;;-15.180844;;-15.15165;;-15.056393;;-14.904038;;-14.729207;;-14.595716;;-14.561179;;-14.626964;;-14.734974;;-14.81113;;-14.81113
-2.5256308;;-2.5256308;;-2.5266485;;-2.5371853;;-2.5553705;;-2.5792386;;-2.6076373;;-2.6381255;;-2.9038478;;-2.9176189;;-2.9081929;;-2.8899318;;-2.8769465;;-2.8784994;;-2.8935239;;-2.9151355;;-2.937709;;-2.9578506;;-2.9739121;;-2.9850457;;-2.9909737;;-2.9973904;;-3.0106662;;-3.0320996;;-3.0609253;;-3.0915864;;-3.1185439;;-3.1397382;;-3.1908342;;-3.30497;;-3.4633005;;-3.6689365;;-3.9338494;;-4.2772506;;-4.720286;;-5.2841131;;-5.9888074;;-6.8463068;;-7.8563395;;-8.9999916;;-10.216557;;-11.36771;;-12.208956;;-12.694417;;-12.987253;;-13.198978;;-13.40541;;-13.665412;;-14.002777;;-14.383897;;-14.734557;;-14.994321;;-15.149843;;-15.221478;;-15.231849;;-15.186124;;-15.079139;;-14.916543;;-14.736634;;-14.607178;;-14.582301;;-14.656904;;-14.767863;;-14.844282;;-14.844282
-2.5257538;;-2.5257538;;-2.5318637;;-2.5482596;;-2.5711902;;-2.5998161;;-2.6326662;;-2.9049711;;-2.9376179;;-2.9438617;;-2.9223004;;-2.8955262;;-2.8781871;;-2.8825076;;-2.9031993;;-2.9288859;;-2.9518751;;-2.9697789;;-2.9836764;;-2.9975976;;-3.0250475;;-3.054117;;-3.0798518;;-3.1114965;;-3.1521297;;-3.1953898;;-3.2318521;;-3.2583699;;-3.3061285;;-3.4336959;;-3.6194879;;-3.8666855;;-4.190274;;-4.6119274;;-5.150383;;-5.8251438;;-6.6509151;;-7.630393;;-8.7474442;;-9.9513444;;-11.117708;;-12.002185;;-12.510786;;-12.825781;;-13.072025;;-13.311248;;-13.580859;;-13.904347;;-14.273722;;-14.639988;;-14.937838;;-15.132119;;-15.233217;;-15.272256;;-15.269774;;-15.225501;;-15.129627;;-14.984592;;-14.824496;;-14.707674;;-14.679137;;-14.73382;;-14.819112;;-14.878788;;-14.878788
-2.5272483;;-2.5272483;;-2.5401778;;-2.5607463;;-2.5876192;;-2.6202335;;-2.6566495;;-2.9333576;;-2.9648785;;-2.9580563;;-2.9313772;;-2.9037526;;-2.888073;;-2.896273;;-2.9188748;;-2.9447846;;-2.9657139;;-2.9813495;;-3.01023;;-3.0553979;;-3.1030177;;-3.1454858;;-3.1806553;;-3.2219476;;-3.2744758;;-3.33007;;-3.3760783;;-3.4078045;;-3.4491788;;-3.5833339;;-3.7996411;;-4.0966343;;-4.4898936;;-5.0015467;;-5.6456541;;-6.4379942;;-7.3850621;;-8.4748934;;-9.6632563;;-10.838492;;-11.761945;;-12.282784;;-12.599904;;-12.882497;;-13.197342;;-13.543959;;-13.905191;;-14.265678;;-14.603898;;-14.889236;;-15.094861;;-15.217208;;-15.277042;;-15.300111;;-15.29822;;-15.267548;;-15.197793;;-15.08769;;-14.960573;;-14.857514;;-14.813337;;-14.830154;;-14.874532;;-14.909467;;-14.909467
-2.5339014;;-2.5339014;;-2.5507095;;-2.5751824;;-2.6062203;;-2.6427974;;-2.9217509;;-2.9648827;;-2.992266;;-2.9742228;;-2.9444572;;-2.9190141;;-2.9085378;;-2.919636;;-2.9415234;;-2.9638206;;-2.9837118;;-3.0243121;;-3.080986;;-3.1466564;;-3.2120997;;-3.2675006;;-3.3114842;;-3.3623166;;-3.4277555;;-3.4973401;;-3.5544077;;-3.5926895;;-3.6314678;;-3.7602739;;-4.0073938;;-4.3604907;;-4.8315348;;-5.4403152;;-6.1936845;;-7.1010061;;-8.1564928;;-9.3242455;;-10.510822;;-11.506027;;-12.09804;;-12.433092;;-12.714404;;-13.060289;;-13.479638;;-13.91601;;-14.312001;;-14.636867;;-14.884205;;-15.060216;;-15.1766;;-15.247692;;-15.288186;;-15.309502;;-15.315063;;-15.301851;;-15.262327;;-15.191881;;-15.100936;;-15.012485;;-14.95344;;-14.932766;;-14.937709;;-14.948249;;-14.948249
-2.5428412;;-2.5428412;;-2.5619847;;-2.5896657;;-2.6245682;;-2.6652506;;-2.9501084;;-2.9975862;;-3.0218882;;-2.9963135;;-2.9633455;;-2.9397807;;-2.9349366;;-2.9476887;;-2.9673396;;-2.9896321;;-3.036705;;-3.1030105;;-3.1818727;;-3.2675591;;-3.351552;;-3.4210434;;-3.4744253;;-3.5360951;;-3.6170489;;-3.7038982;;-3.7750564;;-3.8230378;;-3.8672235;;-3.9851553;;-4.2528565;;-4.6604748;;-5.2096193;;-5.913505;;-6.769348;;-7.7749879;;-8.9057246;;-10.08814;;-11.156576;;-11.8879;;-12.337502;;-12.668687;;-13.014112;;-13.435078;;-13.902028;;-14.339375;;-14.685947;;-14.921616;;-15.063025;;-15.144135;;-15.197494;;-15.240974;;-15.277677;;-15.304646;;-15.319351;;-15.321828;;-15.308059;;-15.272946;;-15.216047;;-15.146823;;-15.084506;;-15.041272;;-15.018725;;-15.010325;;-15.010325
