-21.52784;;-21.52784;;-21.764912;;-24.707883;;-29.540271;;-36.140441;;-44.693306;;-55.507628;;-68.780923;;-84.733763;;-103.60307;;-124.88979;;-147.75369;;-169.90219;;-188.64423;;-214.60605;;-253.21562;;-304.41943;;-368.60203;;-446.46409;;-537.15541;;-638.85958;;-748.71596;;-863.52759;;-982.04155;;-1103.642;;-1225.9427;;-1345.4661;;-1457.7945;;-1558.2006;;-1645.5874;;-1724.759;;-1801.5903;;-1877.3104;;-1949.8363;;-2018.0172;;-2081.5125;;-2138.3602;;-2185.67;;-2222.1506;;-2248.8136;;-2268.2512;;-2283.7845;;-2298.1818;;-2312.8889;;-2329.0103;;-2348.1485;;-2371.1128;;-2396.445;;-2421.1369;;-2442.51;;-2459.1628;;-2470.8086;;-2478.0776;;-2482.6904;;-2487.1102;;-2493.0348;;-2500.0874;;-2506.4315;;-2510.2164;;-2509.7451;;-2503.7813;;-2493.997;;-2486.2003;;-2486.2003
-21.527805;;-21.527805;;-21.738272;;-24.616351;;-29.400167;;-35.948706;;-44.441162;;-55.18501;;-68.388331;;-84.278375;;-103.12209;;-124.48867;;-147.72735;;-171.15492;;-194.34083;;-227.59589;;-273.31718;;-331.71614;;-403.25993;;-487.26939;;-582.35985;;-686.07235;;-794.45459;;-904.23326;;-1015.0473;;-1126.5757;;-1237.1949;;-1345.4173;;-1448.8951;;-1543.7894;;-1628.7386;;-1707.7239;;-1785.5507;;-1862.5228;;-1936.3886;;-2006.5203;;-2072.7852;;-2132.4129;;-2181.205;;-2217.1165;;-2241.538;;-2258.3335;;-2272.1744;;-2286.5025;;-2302.6557;;-2321.2948;;-2343.5544;;-2369.6398;;-2397.1924;;-2422.1959;;-2441.4765;;-2454.3836;;-2462.5696;;-2468.4917;;-2474.2838;;-2481.4835;;-2490.5846;;-2500.4495;;-2508.728;;-2512.7416;;-2509.5637;;-2497.2335;;-2478.8908;;-2464.6609;;-2464.6609
-21.527704;;-21.527704;;-21.647059;;-24.22115;;-28.793213;;-35.116353;;-43.339054;;-53.754869;;-66.585694;;-82.058034;;-100.48563;;-121.5605;;-144.98646;;-170.24813;;-200.51942;;-241.3767;;-294.10167;;-359.48189;;-437.41442;;-526.36488;;-624.41219;;-727.71986;;-831.50574;;-933.79453;;-1035.757;;-1137.4116;;-1237.7264;;-1336.5275;;-1432.9994;;-1524.4885;;-1609.6237;;-1690.6702;;-1770.2254;;-1847.6398;;-1921.1123;;-1990.8471;;-2057.2077;;-2117.3801;;-2166.6724;;-2202.6385;;-2226.9006;;-2243.9786;;-2259.0328;;-2275.6483;;-2295.0186;;-2317.2425;;-2342.5473;;-2370.4169;;-2398.271;;-2422.1492;;-2439.1549;;-2449.4849;;-2455.9898;;-2461.7017;;-2468.3461;;-2476.8211;;-2487.3515;;-2498.6701;;-2508.0301;;-2511.8727;;-2505.7911;;-2486.5591;;-2458.5621;;-2436.8945;;-2436.8945
-21.527679;;-21.527679;;-21.59626;;-23.859178;;-28.226239;;-34.328613;;-42.285583;;-52.378915;;-64.852073;;-80.063102;;-98.027204;;-118.99931;;-143.12511;;-171.62867;;-207.9235;;-254.32338;;-312.26899;;-382.62685;;-464.31444;;-555.90344;;-654.23178;;-754.14014;;-851.21337;;-945.98536;;-1041.1237;;-1136.9373;;-1232.2685;;-1326.6267;;-1419.6501;;-1510.047;;-1596.8304;;-1680.2886;;-1760.4383;;-1836.046;;-1906.4793;;-1973.028;;-2036.6567;;-2095.1877;;-2144.3055;;-2181.3418;;-2207.5796;;-2227.4154;;-2245.8681;;-2266.3537;;-2289.9309;;-2316.1058;;-2343.863;;-2371.7795;;-2397.7022;;-2419.1156;;-2434.5517;;-2444.907;;-2452.7096;;-2459.8635;;-2467.1064;;-2475.351;;-2485.5291;;-2496.783;;-2506.0755;;-2509.0092;;-2499.9342;;-2474.7127;;-2438.8648;;-2411.3266;;-2411.3266
-21.527813;;-21.527813;;-21.59239;;-23.745562;;-28.015829;;-33.997746;;-41.799511;;-51.697408;;-63.953604;;-78.948233;;-96.776441;;-117.90528;;-143.02323;;-174.03424;;-213.11194;;-262.06654;;-322.34602;;-394.11944;;-476.40366;;-567.35469;;-663.06497;;-758.29082;;-850.40875;;-941.7853;;-1035.5352;;-1131.8681;;-1228.7103;;-1323.9897;;-1416.7481;;-1506.8423;;-1594.1992;;-1677.9609;;-1756.287;;-1827.7613;;-1893.0608;;-1954.5377;;-2013.8034;;-2069.7073;;-2118.7606;;-2157.9163;;-2187.3877;;-2210.9098;;-2233.3386;;-2258.0231;;-2285.8267;;-2315.5374;;-2344.8409;;-2371.5338;;-2394.3941;;-2413.205;;-2428.5134;;-2441.4912;;-2453.0945;;-2463.1193;;-2471.1944;;-2478.5123;;-2486.9056;;-2496.2174;;-2503.6415;;-2504.6352;;-2493.4217;;-2466.1998;;-2429.0755;;-2401.0775;;-2401.0775
-21.528529;;-21.528529;;-21.634527;;-23.91193;;-28.17431;;-34.088981;;-41.764181;;-51.461848;;-63.536898;;-78.015902;;-95.364289;;-115.99695;;-140.81785;;-171.68523;;-210.4764;;-258.82192;;-318.04228;;-388.01786;;-467.88158;;-555.79729;;-648.22032;;-741.05877;;-833.14283;;-926.98078;;-1025.1686;;-1127.4183;;-1230.4088;;-1329.9039;;-1423.508;;-1511.8113;;-1596.4623;;-1677.2129;;-1751.7389;;-1818.4748;;-1878.7106;;-1935.4667;;-1990.9318;;-2044.8122;;-2094.2219;;-2135.5996;;-2167.9655;;-2194.3546;;-2219.6638;;-2247.4265;;-2278.3366;;-2310.4863;;-2340.6918;;-2366.5931;;-2388.0347;;-2406.5549;;-2423.9228;;-2440.9786;;-2456.9597;;-2469.9283;;-2478.8212;;-2484.9873;;-2490.7641;;-2496.741;;-2500.9367;;-2499.5945;;-2488.2296;;-2464.6931;;-2434.6928;;-2412.8403;;-2412.8403
-21.531464;;-21.531464;;-21.838453;;-24.537096;;-28.908638;;-34.788753;;-42.288672;;-51.616614;;-63.016417;;-76.502379;;-92.384491;;-110.86233;;-132.67737;;-160.16575;;-195.70561;;-240.80044;;-296.60947;;-363.23502;;-439.80821;;-524.99269;;-616.11379;;-710.11144;;-806.16914;;-906.21112;;-1012.0875;;-1122.7637;;-1233.4808;;-1337.6707;;-1431.1399;;-1515.1067;;-1593.8961;;-1669.6024;;-1740.4351;;-1804.2156;;-1861.7298;;-1916.0913;;-1969.8707;;-2023.057;;-2072.7453;;-2114.9976;;-2148.3246;;-2175.4772;;-2201.4328;;-2229.9912;;-2261.9079;;-2295.0045;;-2326.0435;;-2353.2805;;-2377.2979;;-2399.715;;-2421.6933;;-2443.1186;;-2462.3027;;-2476.8813;;-2485.8715;;-2490.767;;-2494.1158;;-2497.1033;;-2498.5909;;-2495.9073;;-2486.4948;;-2470.2251;;-2451.5601;;-2438.7713;;-2438.7713
-21.54809;;-21.54809;;-22.682506;;-26.018937;;-30.781994;;-36.895165;;-44.407528;;-53.266753;;-63.698195;;-75.578133;;-89.125608;;-104.18613;;-120.9118;;-142.92709;;-173.84818;;-214.43963;;-265.56707;;-327.92327;;-400.89107;;-483.95913;;-575.48064;;-672.87428;;-774.61307;;-881.85726;;-995.93873;;-1114.8606;;-1232.1939;;-1339.2333;;-1430.4413;;-1508.202;;-1580.1458;;-1651.3543;;-1720.8067;;-1785.0677;;-1843.3123;;-1898.0046;;-1951.8405;;-2004.8263;;-2053.8;;-2094.7896;;-2126.5877;;-2152.1081;;-2176.3208;;-2203.2471;;-2234.0698;;-2266.983;;-2299.304;;-2330.0899;;-2360.0705;;-2389.6277;;-2417.9789;;-2443.6473;;-2464.7707;;-2479.674;;-2488.1379;;-2492.0657;;-2494.3103;;-2496.4139;;-2497.5133;;-2495.5343;;-2489.379;;-2480.2086;;-2471.1025;;-2465.4876;;-2465.4876
-21.796735;;-21.796735;;-24.300635;;-28.385019;;-33.788809;;-40.483383;;-48.279361;;-57.121617;;-66.413845;;-75.919722;;-86.387552;;-97.731949;;-109.15977;;-125.22152;;-151.77053;;-188.04074;;-234.54802;;-292.34238;;-361.41241;;-441.91147;;-533.30908;;-633.8816;;-741.55445;;-856.06512;;-977.65924;;-1102.994;;-1223.984;;-1330.5012;;-1417.0002;;-1487.8778;;-1553.8833;;-1622.7102;;-1693.9183;;-1762.3974;;-1824.7635;;-1881.804;;-1935.9912;;-1987.7699;;-2034.4131;;-2072.4844;;-2101.3429;;-2124.0057;;-2145.2059;;-2169.1657;;-2197.9052;;-2230.5005;;-2264.7467;;-2299.7752;;-2335.9369;;-2372.5459;;-2407.2166;;-2437.1603;;-2460.297;;-2475.7062;;-2484.095;;-2488.0523;;-2490.9275;;-2494.417;;-2497.4629;;-2498.0437;;-2495.5972;;-2491.4791;;-2487.7032;;-2485.6141;;-2485.6141
-23.190649;;-23.190649;;-26.519719;;-31.386424;;-37.59197;;-45.004043;;-53.368451;;-62.332226;;-70.491439;;-76.657264;;-83.76181;;-92.035987;;-99.614988;;-110.20758;;-133.19514;;-165.844;;-208.3844;;-261.93275;;-327.14017;;-404.55499;;-494.64549;;-596.86213;;-709.63899;;-831.07801;;-958.89153;;-1087.8643;;-1208.6556;;-1310.9391;;-1390.7155;;-1454.8131;;-1516.3242;;-1584.7392;;-1659.9845;;-1735.2088;;-1803.9245;;-1864.373;;-1918.4157;;-1967.5416;;-2010.6224;;-2045.5525;;-2072.1627;;-2092.9053;;-2111.7399;;-2133.0504;;-2160.0215;;-2192.7951;;-2229.1222;;-2267.2553;;-2307.0225;;-2347.897;;-2387.3812;;-2421.8167;;-2448.2732;;-2465.7413;;-2475.46;;-2480.6932;;-2485.2495;;-2490.9265;;-2496.6364;;-2500.429;;-2501.6176;;-2500.9036;;-2499.5193;;-2498.5466;;-2498.5466
-25.285158;;-25.285158;;-29.115316;;-34.654077;;-41.640926;;-49.805651;;-58.820208;;-67.944635;;-74.47424;;-77.161722;;-81.546126;;-87.865024;;-93.389619;;-99.169239;;-119.28348;;-149.02009;;-188.35242;;-238.41153;;-300.37903;;-375.0058;;-463.47909;;-566.12212;;-682.00899;;-808.40834;;-940.30072;;-1069.8654;;-1186.8226;;-1282.2038;;-1354.6722;;-1413.0645;;-1471.711;;-1540.9732;;-1620.8085;;-1702.8035;;-1777.6784;;-1841.2908;;-1894.8516;;-1941.0188;;-1980.8096;;-2013.9673;;-2040.6054;;-2061.855;;-2080.3264;;-2100.4374;;-2126.5051;;-2159.5416;;-2196.9715;;-2236.0354;;-2276.394;;-2318.6508;;-2361.2883;;-2400.2354;;-2431.3004;;-2452.5741;;-2465.1723;;-2472.5953;;-2478.8196;;-2485.8959;;-2493.3554;;-2499.7957;;-2504.2259;;-2506.2789;;-2506.4069;;-2505.887;;-2505.887
-27.282524;;-27.282524;;-31.507702;;-37.595704;;-45.230188;;-54.029502;;-63.56077;;-72.704133;;-77.168138;;-77.388436;;-80.045847;;-85.382178;;-90.299259;;-92.737839;;-110.28878;;-137.73386;;-174.69977;;-222.22856;;-281.87166;;-354.44761;;-441.43255;;-543.59016;;-660.33669;;-788.73554;;-922.18275;;-1050.0596;;-1161.2363;;-1249.5007;;-1316.4404;;-1371.8442;;-1429.8873;;-1500.6543;;-1583.7022;;-1669.5807;;-1747.5718;;-1812.514;;-1865.4627;;-1909.8403;;-1948.2249;;-1981.8192;;-2010.7069;;-2034.5041;;-2054.4569;;-2074.8372;;-2100.5487;;-2133.0783;;-2169.8845;;-2208.0148;;-2247.385;;-2289.591;;-2334.0488;;-2376.674;;-2412.4459;;-2438.4761;;-2455.1033;;-2465.2633;;-2472.6982;;-2479.9254;;-2487.6705;;-2495.5936;;-2502.6334;;-2507.3238;;-2509.1229;;-2509.2322;;-2509.2322
-28.8857;;-28.8857;;-33.389881;;-39.860618;;-47.932297;;-57.125593;;-66.893866;;-75.790203;;-78.457732;;-77.587874;;-79.34216;;-84.158183;;-89.185912;;-90.736986;;-105.25038;;-130.78906;;-166.02782;;-211.76206;;-269.56685;;-340.48114;;-425.90746;;-526.83756;;-642.88144;;-771.15026;;-904.4599;;-1030.282;;-1136.9143;;-1221.2051;;-1286.9501;;-1343.5643;;-1403.4988;;-1475.4524;;-1558.5501;;-1643.4811;;-1720.0203;;-1783.634;;-1835.7686;;-1879.9797;;-1919.164;;-1954.8569;;-1986.7858;;-2013.6263;;-2035.857;;-2057.3278;;-2082.7198;;-2113.7981;;-2148.8684;;-2185.6695;;-2224.1814;;-2265.926;;-2310.6718;;-2354.9661;;-2394.1027;;-2424.6926;;-2445.8056;;-2459.0485;;-2467.5547;;-2474.2646;;-2481.1768;;-2489.3453;;-2498.1473;;-2505.2487;;-2508.903;;-2509.8557;;-2509.8557
-30.245011;;-30.245011;;-34.943557;;-41.670758;;-50.010461;;-59.382574;;-69.223137;;-77.373271;;-79.15254;;-78.44187;;-79.878772;;-84.200028;;-89.332903;;-91.672764;;-102.22253;;-125.96278;;-159.6441;;-203.7268;;-259.71198;;-328.85263;;-412.37586;;-511.43058;;-625.81393;;-752.88544;;-885.64619;;-1011.1574;;-1117.5144;;-1203.3783;;-1273.4121;;-1335.4326;;-1398.8977;;-1470.5121;;-1549.7163;;-1629.0702;;-1700.5101;;-1760.9513;;-1812.1531;;-1857.1475;;-1898.1091;;-1936.0024;;-1970.2733;;-1999.6103;;-2024.3071;;-2047.348;;-2072.559;;-2102.1019;;-2135.7417;;-2172.0808;;-2210.4613;;-2251.3654;;-2294.714;;-2338.4665;;-2379.1639;;-2413.2395;;-2438.3357;;-2454.5837;;-2464.3773;;-2470.6618;;-2476.2268;;-2483.5516;;-2492.9799;;-2501.7623;;-2506.9995;;-2508.7655;;-2508.7655
-31.675799;;-31.675799;;-36.532259;;-43.453707;;-51.961261;;-61.3589;;-70.919946;;-78.100009;;-80.18933;;-80.62007;;-82.265099;;-85.99353;;-90.683141;;-93.660078;;-99.90263;;-121.74966;;-153.706;;-195.925;;-249.81895;;-316.87189;;-398.0726;;-494.71016;;-606.82881;;-732.23832;;-864.71446;;-992.24864;;-1102.92;;-1195.2362;;-1273.3751;;-1342.9168;;-1409.9409;;-1479.4033;;-1552.0292;;-1623.6285;;-1689.0287;;-1746.3079;;-1796.851;;-1842.6398;;-1884.7908;;-1923.7151;;-1959.1922;;-1990.6622;;-2018.3055;;-2043.7641;;-2069.7436;;-2098.8393;;-2132.0923;;-2168.5049;;-2206.5087;;-2245.7327;;-2286.7126;;-2329.1354;;-2370.6542;;-2407.1974;;-2435.0845;;-2453.5575;;-2464.6142;;-2470.8215;;-2475.0273;;-2480.7208;;-2489.4061;;-2498.5308;;-2504.5436;;-2506.8491;;-2506.8491
-33.346321;;-33.346321;;-38.346202;;-45.419936;;-53.984164;;-63.3423;;-72.23806;;-78.607344;;-81.923918;;-84.024724;;-86.296498;;-89.473372;;-93.224541;;-96.088631;;-98.917222;;-118.26065;;-148.17763;;-188.39375;;-240.09885;;-304.96052;;-383.77666;;-477.90567;;-587.6841;;-711.45687;;-843.99544;;-974.75404;;-1091.798;;-1191.9507;;-1278.0911;;-1353.9681;;-1423.1875;;-1489.4753;;-1555.2484;;-1619.8044;;-1680.6101;;-1736.1765;;-1786.8135;;-1833.1735;;-1875.5285;;-1914.3576;;-1950.4828;;-1984.3992;;-2015.9783;;-2045.2704;;-2073.7288;;-2103.946;;-2137.4058;;-2173.088;;-2209.1637;;-2245.5962;;-2284.1738;;-2325.9674;;-2368.8595;;-2407.5953;;-2437.1961;;-2456.6392;;-2468.2015;;-2474.316;;-2477.5037;;-2481.4589;;-2488.4011;;-2496.4252;;-2502.1188;;-2504.4983;;-2504.4983
-35.324456;;-35.324456;;-40.461966;;-47.658268;;-56.223714;;-65.044319;;-73.066428;;-79.253938;;-83.991264;;-87.691872;;-90.740915;;-93.635463;;-96.617456;;-99.308583;;-101.04448;;-116.11323;;-143.82647;;-182.24258;;-232.08816;;-294.98326;;-371.85334;;-463.93721;;-571.86554;;-694.46357;;-827.37458;;-961.30147;;-1084.0199;;-1189.839;;-1280.3368;;-1358.8119;;-1427.9645;;-1490.8622;;-1551.0553;;-1610.4783;;-1668.6631;;-1724.308;;-1776.4369;;-1824.189;;-1867.0417;;-1905.8222;;-1942.6663;;-1979.3083;;-2015.5357;;-2049.9768;;-2082.5423;;-2114.9784;;-2148.4978;;-2182.2594;;-2215.1887;;-2248.4231;;-2284.9332;;-2326.5175;;-2370.8225;;-2411.3427;;-2441.7857;;-2460.8315;;-2471.471;;-2476.9235;;-2479.754;;-2482.9944;;-2488.4274;;-2494.6483;;-2499.0977;;-2501.0059;;-2501.0059
-37.722922;;-37.722922;;-42.789858;;-49.953157;;-58.240556;;-66.380845;;-73.554296;;-79.960426;;-85.718237;;-90.50059;;-94.18783;;-97.160888;;-100.15041;;-103.4393;;-105.88925;;-115.27488;;-140.90772;;-177.77581;;-226.11535;;-287.42669;;-362.89079;;-453.51233;;-560.18187;;-682.10293;;-815.55405;;-952.00678;;-1078.3997;;-1186.0587;;-1275.9708;;-1352.6725;;-1419.5368;;-1479.3503;;-1535.7017;;-1591.7936;;-1648.8669;;-1706.2561;;-1762.0028;;-1813.4847;;-1858.8804;;-1898.8722;;-1936.615;;-1975.3486;;-2015.6402;;-2055.3797;;-2092.6594;;-2127.5798;;-2160.9173;;-2192.7201;;-2223.2849;;-2254.5827;;-2289.6828;;-2330.3249;;-2374.2053;;-2414.535;;-2444.1597;;-2461.0952;;-2469.0363;;-2473.0237;;-2476.4695;;-2481.0073;;-2486.4599;;-2491.2298;;-2494.0552;;-2495.1083;;-2495.1083
-42.482218;;-42.482218;;-46.786744;;-53.460082;;-60.901954;;-67.942896;;-74.437737;;-80.868621;;-86.930017;;-92.064919;;-95.999621;;-99.182599;;-102.80818;;-107.38234;;-111.02934;;-115.35793;;-138.84939;;-174.15528;;-221.07174;;-280.93375;;-355.14625;;-444.45816;;-549.96032;;-671.14765;;-804.73702;;-942.58324;;-1070.3956;;-1176.3156;;-1261.863;;-1334.1124;;-1397.8598;;-1455.7074;;-1510.4387;;-1565.3354;;-1622.9032;;-1683.5386;;-1744.7864;;-1802.2479;;-1852.3538;;-1894.98;;-1933.7163;;-1973.2985;;-2015.8449;;-2059.4236;;-2100.5755;;-2137.5874;;-2170.9709;;-2202.1376;;-2232.7236;;-2264.6291;;-2299.7349;;-2338.8538;;-2379.8868;;-2416.855;;-2442.8112;;-2455.3885;;-2458.9964;;-2460.9784;;-2465.9957;;-2473.7185;;-2480.8868;;-2485.1157;;-2486.6218;;-2486.8894;;-2486.8894
-49.62387;;-49.62387;;-53.318389;;-59.182471;;-65.480453;;-71.466289;;-77.346947;;-83.134577;;-88.478645;;-92.975167;;-96.43082;;-99.447718;;-103.56987;;-109.21008;;-113.65114;;-115.11962;;-136.26331;;-169.91309;;-215.27493;;-273.44474;;-345.95048;;-433.39927;;-536.99674;;-656.47275;;-788.89862;;-926.46251;;-1054.0277;;-1156.8667;;-1237.5899;;-1306.0579;;-1368.2966;;-1426.5794;;-1482.542;;-1538.8406;;-1598.5755;;-1663.0466;;-1729.7074;;-1792.9857;;-1847.9542;;-1893.6232;;-1933.5263;;-1973.2743;;-2016.3262;;-2061.4395;;-2104.5545;;-2142.9217;;-2177.0147;;-2209.309;;-2242.2243;;-2277.0329;;-2313.8839;;-2352.0278;;-2389.1176;;-2420.3425;;-2440.1574;;-2446.9141;;-2445.8878;;-2446.1515;;-2453.0732;;-2464.2523;;-2473.5274;;-2477.8646;;-2478.8221;;-2478.8392;;-2478.8392
-58.526243;;-58.526243;;-61.822045;;-66.993125;;-72.655943;;-78.569063;;-84.10051;;-88.446967;;-91.716848;;-94.23827;;-96.165773;;-98.258606;;-102.07611;;-107.72402;;-112.05735;;-112.54864;;-131.82191;;-163.76839;;-207.17724;;-262.98205;;-332.76267;;-417.12384;;-517.33005;;-633.36088;;-762.75498;;-898.46744;;-1025.9635;;-1128.6672;;-1208.7498;;-1277.7202;;-1342.1328;;-1403.6599;;-1462.8617;;-1521.7733;;-1583.7412;;-1650.6105;;-1720.0492;;-1786.3436;;-1844.2519;;-1892.3716;;-1933.8478;;-1974.1315;;-2016.9263;;-2061.5804;;-2104.6126;;-2143.569;;-2179.1087;;-2213.9644;;-2250.5438;;-2289.2908;;-2328.733;;-2366.482;;-2399.6803;;-2424.8165;;-2438.6558;;-2441.1525;;-2437.9433;;-2437.9986;;-2446.1898;;-2458.8233;;-2468.6162;;-2472.7713;;-2473.7156;;-2473.981;;-2473.981
-68.211995;;-68.336619;;-71.336463;;-76.05959;;-82.002176;;-88.76358;;-94.419587;;-97.119427;;-97.285664;;-96.544959;;-95.928108;;-96.386227;;-99.117643;;-103.78177;;-107.36532;;-107.95741;;-125.57534;;-155.48805;;-196.30798;;-248.8616;;-314.75857;;-394.72007;;-490.04569;;-601.07522;;-726.0823;;-859.4709;;-989.08323;;-1098.1704;;-1185.0716;;-1260.4797;;-1330.671;;-1396.6601;;-1458.4938;;-1518.3219;;-1580.0279;;-1645.9414;;-1714.2521;;-1780.052;;-1838.7485;;-1888.847;;-1932.6208;;-1974.2928;;-2016.7583;;-2059.7761;;-2101.3457;;-2140.3588;;-2177.8122;;-2216.0297;;-2256.7343;;-2299.3136;;-2340.8169;;-2377.6543;;-2407.0976;;-2427.5767;;-2438.5796;;-2441.398;;-2440.5103;;-2442.4905;;-2450.6565;;-2461.4708;;-2468.9712;;-2471.6816;;-2472.363;;-2472.8765;;-2472.8765
-77.374286;;-77.501558;;-80.081838;;-84.981518;;-92.289973;;-100.61945;;-106.74239;;-107.78474;;-104.52211;;-99.978938;;-96.314032;;-94.747462;;-95.986809;;-99.174714;;-101.87914;;-103.28033;;-118.95537;;-146.47951;;-184.27517;;-233.08205;;-294.48928;;-369.60687;;-459.66383;;-565.46958;;-686.19618;;-817.99464;;-951.76515;;-1072.4623;;-1172.6732;;-1259.1695;;-1336.8608;;-1406.2722;;-1468.0915;;-1525.6371;;-1583.6575;;-1645.0049;;-1708.7559;;-1771.4795;;-1829.764;;-1881.9672;;-1928.8281;;-1972.5494;;-2014.817;;-2055.9046;;-2095.6644;;-2134.6445;;-2174.1752;;-2215.8498;;-2260.3376;;-2305.825;;-2348.1466;;-2383.257;;-2409.5227;;-2427.7843;;-2439.7805;;-2447.0321;;-2451.5899;;-2456.5454;;-2463.4451;;-2469.9662;;-2472.9834;;-2473.0434;;-2472.9959;;-2473.6095;;-2473.6095
-83.465336;;-83.465336;;-86.16961;;-92.196993;;-101.44346;;-111.51876;;-118.22769;;-117.76889;;-111.67092;;-103.92567;;-97.516355;;-93.986407;;-93.616201;;-95.221317;;-97.153287;;-99.922735;;-114.07736;;-139.30641;;-174.15254;;-219.35164;;-276.51171;;-347.40158;;-433.12108;;-534.76127;;-652.21687;;-783.02824;;-920.57604;;-1052.5707;;-1168.1277;;-1267.7669;;-1353.2284;;-1424.7127;;-1484.6501;;-1538.105;;-1590.4906;;-1645.1158;;-1702.3424;;-1760.6278;;-1817.8522;;-1872.0695;;-1922.1708;;-1968.1717;;-2010.6897;;-2050.5988;;-2089.3542;;-2128.8456;;-2170.559;;-2215.1425;;-2262.0634;;-2308.7196;;-2350.7451;;-2384.5833;;-2409.8108;;-2428.6664;;-2443.5762;;-2455.4554;;-2464.4378;;-2471.2065;;-2476.1049;;-2478.0046;;-2476.5051;;-2474.1647;;-2473.8249;;-2474.8908;;-2474.8908
-86.439721;;-86.439721;;-89.386662;;-96.358523;;-106.91321;;-118.10571;;-125.22606;;-123.9944;;-116.50607;;-107.12155;;-99.103779;;-94.131651;;-92.282792;;-92.349975;;-93.611519;;-98.079478;;-112.18334;;-135.67114;;-168.04606;;-210.22492;;-263.84487;;-330.97487;;-413.29204;;-511.64383;;-626.25256;;-755.51333;;-894.53059;;-1033.7754;;-1162.4831;;-1275.3604;;-1368.9796;;-1442.6878;;-1501.0727;;-1550.864;;-1597.6992;;-1645.3771;;-1695.8828;;-1749.5308;;-1805.1836;;-1860.5425;;-1913.0264;;-1961.047;;-2004.5793;;-2044.9383;;-2084.4213;;-2125.4749;;-2169.3296;;-2215.5162;;-2262.5197;;-2308.1144;;-2349.4677;;-2384.2805;;-2412.1113;;-2434.1031;;-2451.4808;;-2464.7128;;-2474.0565;;-2480.0441;;-2482.6837;;-2481.4464;;-2477.5822;;-2474.819;;-2475.555;;-2477.7287;;-2477.7287
-88.458404;;-88.586504;;-90.79646;;-97.174709;;-107.3503;;-118.24052;;-125.16804;;-124.28391;;-117.35164;;-108.30971;;-100.25815;;-94.784445;;-91.866414;;-90.672085;;-91.526937;;-98.004594;;-113.1061;;-135.57893;;-165.84784;;-205.34864;;-255.94352;;-319.71777;;-398.8674;;-494.28135;;-605.99036;;-732.90957;;-871.37384;;-1014.1555;;-1152.0391;;-1276.023;;-1377.4057;;-1454.0139;;-1512.0618;;-1559.411;;-1601.8203;;-1643.8473;;-1689.1386;;-1739.2886;;-1793.4665;;-1848.9772;;-1902.473;;-1951.7288;;-1996.704;;-2039.0406;;-2080.9922;;-2124.4277;;-2169.6659;;-2215.2615;;-2259.6417;;-2302.5129;;-2343.9987;;-2382.9804;;-2417.0106;;-2443.7317;;-2462.2476;;-2473.5564;;-2479.9034;;-2483.1878;;-2483.6832;;-2481.2066;;-2477.736;;-2476.9208;;-2479.9168;;-2483.4444;;-2483.4444
-89.724602;;-89.85336;;-90.845041;;-95.561362;;-104.27018;;-113.89703;;-120.01186;;-119.69096;;-114.40517;;-107.21874;;-100.53524;;-95.541983;;-92.258248;;-90.506769;;-91.636168;;-100.17427;;-116.51593;;-138.94822;;-167.64956;;-204.54956;;-252.42257;;-313.57497;;-390.11313;;-483.46826;;-593.14721;;-718.26645;;-855.87174;;-1000.0174;;-1142.3326;;-1272.0651;;-1377.6578;;-1455.8239;;-1513.4009;;-1558.8082;;-1598.2057;;-1637.0396;;-1679.9756;;-1728.9188;;-1782.6249;;-1837.9323;;-1891.3179;;-1940.7502;;-1986.7743;;-2031.4475;;-2076.4159;;-2122.002;;-2167.069;;-2209.7582;;-2249.7599;;-2289.7947;;-2333.0515;;-2378.6016;;-2420.5287;;-2452.2155;;-2471.1709;;-2479.9373;;-2483.198;;-2484.1051;;-2483.1741;;-2480.6962;;-2479.0999;;-2481.2111;;-2486.5311;;-2491.0598;;-2491.0598
-89.545825;;-89.675017;;-89.634456;;-92.848689;;-100.05268;;-108.16882;;-113.15232;;-113.14618;;-109.66868;;-104.88612;;-100.22264;;-96.368939;;-93.54802;;-92.2295;;-94.34599;;-104.15481;;-121.30123;;-144.11471;;-172.27266;;-207.43231;;-253.78279;;-313.95206;;-389.84815;;-483.07909;;-592.85893;;-718.13221;;-855.89678;;-999.97337;;-1141.4017;;-1269.074;;-1371.9633;;-1447.3129;;-1502.0151;;-1545.0029;;-1583.2898;;-1622.5435;;-1666.7953;;-1717.0166;;-1771.304;;-1826.3943;;-1879.1175;;-1928.0152;;-1974.3138;;-2020.4349;;-2067.36;;-2113.801;;-2157.3227;;-2196.3126;;-2232.3905;;-2271.0065;;-2317.169;;-2369.139;;-2417.7477;;-2453.3657;;-2473.1121;;-2481.3087;;-2484.2097;;-2485.125;;-2484.2943;;-2482.3937;;-2482.2718;;-2486.1481;;-2492.5161;;-2497.2811;;-2497.2811
-87.834092;;-87.96349;;-87.506878;;-89.999341;;-96.213073;;-103.05547;;-106.99824;;-107.20819;;-105.33194;;-102.73509;;-99.981276;;-97.491871;;-95.790407;;-95.698277;;-98.940951;;-108.93844;;-126.06247;;-148.85865;;-176.95032;;-212.27885;;-259.49588;;-321.09195;;-398.87395;;-494.35724;;-606.53397;;-734.07102;;-873.18284;;-1016.0531;;-1151.7199;;-1269.8349;;-1362.8765;;-1430.0247;;-1478.341;;-1518.0845;;-1557.7018;;-1601.6448;;-1650.7486;;-1703.7377;;-1758.6127;;-1813.1713;;-1865.211;;-1913.6913;;-1959.8792;;-2006.0927;;-2052.9915;;-2098.7167;;-2140.5539;;-2177.4946;;-2212.3749;;-2251.5832;;-2300.1652;;-2355.4831;;-2407.104;;-2444.821;;-2466.3356;;-2476.8768;;-2482.7291;;-2486.3673;;-2487.387;;-2486.4719;;-2486.5866;;-2489.9385;;-2495.3391;;-2499.3703;;-2499.3703
-85.220314;;-85.349837;;-85.037932;;-87.532472;;-93.322352;;-99.357499;;-102.66398;;-103.15098;;-102.48246;;-101.44723;;-100.13083;;-98.937776;;-98.621001;;-99.969906;;-104.08422;;-113.44236;;-129.60907;;-151.804;;-180.29095;;-218.00445;;-268.34722;;-333.34292;;-414.89034;;-514.12823;;-630.03195;;-760.93109;;-901.81458;;-1042.3955;;-1169.0081;;-1273.4524;;-1353.1354;;-1409.2493;;-1449.2943;;-1485.7038;;-1528.6447;;-1580.0448;;-1635.6164;;-1691.173;;-1745.6488;;-1799.2132;;-1851.0268;;-1899.8975;;-1946.1148;;-1991.2567;;-2036.2044;;-2080.0859;;-2121.2217;;-2159.0892;;-2196.066;;-2237.2206;;-2286.3317;;-2340.6638;;-2391.1058;;-2429.223;;-2453.5683;;-2468.6907;;-2479.3414;;-2486.8567;;-2490.5593;;-2491.0469;;-2490.9176;;-2492.4975;;-2495.7346;;-2498.4408;;-2498.4408
-82.403687;;-82.533274;;-82.697034;;-85.651804;;-91.51367;;-97.319043;;-100.43409;;-101.05463;;-100.88961;;-100.6605;;-100.36979;;-100.36029;;-101.34064;;-103.86716;;-108.51106;;-116.96405;;-131.58841;;-153.25912;;-183.70782;;-225.3254;;-279.89579;;-349.25607;;-435.39877;;-538.67026;;-658.46152;;-792.50888;;-934.36562;;-1071.1234;;-1187.4161;;-1278.7062;;-1346.676;;-1393.7712;;-1427.644;;-1462.2133;;-1508.5383;;-1566.009;;-1625.9714;;-1682.2253;;-1735.2588;;-1787.8275;;-1840.2043;;-1890.3898;;-1936.9144;;-1980.2587;;-2022.0525;;-2063.5404;;-2104.8118;;-2145.4024;;-2185.9118;;-2228.8698;;-2276.5343;;-2327.0103;;-2374.0727;;-2412.0464;;-2439.8802;;-2460.0946;;-2475.1418;;-2485.6658;;-2491.5881;;-2493.7849;;-2494.2918;;-2495.1434;;-2497.0268;;-2498.7954;;-2498.7954
-79.8007;;-79.930448;;-80.596701;;-84.11998;;-90.365907;;-96.46529;;-99.752564;;-100.24349;;-99.866569;;-99.845675;;-100.34855;;-101.42841;;-103.45609;;-106.79071;;-111.74656;;-119.4804;;-132.88582;;-155.88519;;-190.07187;;-236.07652;;-295.25036;;-369.47031;;-460.07565;;-567.18479;;-690.32422;;-826.37415;;-967.3351;;-1098.2678;;-1204.8508;;-1286.6368;;-1347.7463;;-1391.2315;;-1424.1393;;-1459.4554;;-1507.2049;;-1565.5261;;-1624.7987;;-1679.0261;;-1730.0267;;-1781.9747;;-1835.5089;;-1887.4794;;-1934.4772;;-1975.9615;;-2014.5298;;-2053.532;;-2094.5204;;-2136.8437;;-2179.4533;;-2222.8366;;-2268.3194;;-2315.1644;;-2359.7632;;-2398.3553;;-2429.4164;;-2453.2718;;-2470.7211;;-2482.5399;;-2489.7348;;-2493.7613;;-2496.2747;;-2498.5783;;-2501.0383;;-2502.8393;;-2502.8393
-77.480381;;-77.610431;;-78.500851;;-82.237707;;-88.71919;;-95.295174;;-99.120495;;-99.700777;;-99.082094;;-99.124181;;-100.25152;;-102.21091;;-105.00933;;-108.8918;;-114.09624;;-121.50059;;-135.89895;;-163.11328;;-201.94909;;-252.85927;;-317.28401;;-396.77222;;-491.7472;;-602.69203;;-728.44508;;-864.66586;;-1001.7115;;-1124.3523;;-1222.5479;;-1298.6452;;-1357.302;;-1401.8135;;-1438.1058;;-1476.1546;;-1523.24;;-1577.5292;;-1631.6988;;-1681.8459;;-1730.4619;;-1781.7326;;-1836.1088;;-1889.4993;;-1936.9961;;-1977.3698;;-2013.8592;;-2050.7714;;-2090.1003;;-2131.2489;;-2172.9731;;-2215.2898;;-2259.2898;;-2304.8836;;-2349.5424;;-2389.7045;;-2422.7767;;-2447.8943;;-2465.6853;;-2477.6465;;-2485.6212;;-2491.5216;;-2496.8038;;-2501.8328;;-2505.9737;;-2508.3299;;-2508.3299
-75.407402;;-75.537647;;-76.308081;;-79.691183;;-85.89592;;-92.733529;;-97.3827;;-98.813187;;-98.684869;;-99.067449;;-100.62959;;-103.12135;;-106.43182;;-110.72013;;-116.14561;;-124.07991;;-143.98219;;-176.68081;;-221.08069;;-278.00666;;-349.00244;;-434.4698;;-535.06928;;-650.41851;;-777.85133;;-911.01637;;-1038.9582;;-1149.9746;;-1240.1723;;-1312.5853;;-1370.8281;;-1417.8372;;-1458.4872;;-1499.6935;;-1545.7362;;-1595.0349;;-1643.3062;;-1689.0535;;-1734.9607;;-1784.6383;;-1838.4001;;-1891.9296;;-1939.7133;;-1980.1563;;-2016.3578;;-2052.0919;;-2088.8387;;-2126.5153;;-2165.1896;;-2205.769;;-2249.3835;;-2295.6946;;-2341.8231;;-2383.4308;;-2417.0775;;-2441.8532;;-2459.139;;-2471.1612;;-2480.126;;-2488.0808;;-2496.1467;;-2503.6794;;-2509.1393;;-2511.7864;;-2511.7864
-73.629422;;-73.759687;;-74.354933;;-77.160706;;-82.753086;;-89.565285;;-95.106189;;-98.002986;;-99.097293;;-100.10247;;-101.91047;;-104.63819;;-108.30858;;-112.94459;;-118.57984;;-130.22493;;-157.05626;;-195.77928;;-246.57913;;-310.78564;;-389.34362;;-482.60704;;-590.69608;;-711.61074;;-839.80408;;-965.07055;;-1077.2316;;-1173.2792;;-1254.6638;;-1323.7423;;-1382.1518;;-1431.5617;;-1475.7154;;-1519.5096;;-1565.2651;;-1611.4821;;-1655.8089;;-1698.2203;;-1741.3006;;-1788.1321;;-1839.2601;;-1891.1031;;-1938.5981;;-1979.9301;;-2017.2202;;-2052.8638;;-2087.5895;;-2122.0153;;-2157.8493;;-2197.1153;;-2240.7873;;-2287.7046;;-2334.3392;;-2376.0535;;-2409.4111;;-2433.8582;;-2451.2512;;-2464.0659;;-2474.559;;-2484.6692;;-2494.9858;;-2504.0326;;-2509.9135;;-2512.4075;;-2512.4075
-71.82809;;-71.95799;;-72.732937;;-75.37163;;-80.54118;;-87.299866;;-93.662197;;-98.087044;;-100.55408;;-102.21998;;-104.18839;;-107.07454;;-111.08929;;-116.03754;;-122.16849;;-140.48403;;-172.82788;;-217.30097;;-274.62669;;-346.39394;;-432.96379;;-534.90742;;-651.40947;;-778.46754;;-906.41808;;-1019.4445;;-1112.4964;;-1192.6954;;-1264.8985;;-1330.7503;;-1389.9081;;-1442.0851;;-1489.2354;;-1534.7562;;-1580.312;;-1624.9118;;-1667.2395;;-1707.6873;;-1748.2785;;-1791.4729;;-1838.3074;;-1886.7884;;-1933.1248;;-1975.2425;;-2013.8547;;-2050.1646;;-2084.654;;-2118.4111;;-2153.7744;;-2192.9294;;-2236.2898;;-2282.0771;;-2326.9701;;-2367.2542;;-2400.2516;;-2425.4802;;-2444.3447;;-2458.793;;-2470.7872;;-2482.1678;;-2493.4238;;-2502.9762;;-2508.9839;;-2511.4445;;-2511.4445
-69.004342;;-69.004342;;-70.688277;;-73.976423;;-79.311963;;-86.253955;;-93.377038;;-99.092038;;-102.74874;;-105.04876;;-107.26434;;-110.39233;;-114.71691;;-119.78017;;-127.04204;;-150.56891;;-187.18673;;-236.33381;;-299.1687;;-377.16221;;-470.57076;;-579.89096;;-703.47902;;-835.4826;;-962.20439;;-1063.509;;-1141.406;;-1209.3105;;-1274.2055;;-1337.6729;;-1398.1431;;-1453.4343;;-1503.2351;;-1549.4116;;-1593.7981;;-1636.6976;;-1677.755;;-1717.1459;;-1755.7508;;-1795.1115;;-1836.8535;;-1880.9699;;-1925.2105;;-1967.2114;;-2006.5017;;-2043.8866;;-2080.2194;;-2116.5421;;-2154.3218;;-2194.5747;;-2236.9358;;-2279.8618;;-2321.4206;;-2359.6238;;-2392.7196;;-2419.8804;;-2441.2665;;-2457.4568;;-2469.6774;;-2480.1078;;-2490.3859;;-2499.881;;-2506.666;;-2509.8794;;-2509.8794
-64.604528;;-64.604528;;-67.544061;;-72.191611;;-78.293871;;-85.710169;;-93.570074;;-100.38648;;-105.14097;;-108.18086;;-110.81473;;-114.19259;;-118.54056;;-123.16578;;-131.00396;;-156.96293;;-195.95513;;-247.76754;;-313.72751;;-395.11618;;-492.27075;;-605.53029;;-732.7663;;-867.09819;;-992.78349;;-1089.2265;;-1161.5678;;-1224.4163;;-1285.9458;;-1348.3816;;-1409.9393;;-1467.3872;;-1518.7321;;-1564.6077;;-1607.1679;;-1648.0707;;-1687.7863;;-1725.9932;;-1762.3095;;-1797.5488;;-1834.0936;;-1873.6872;;-1915.2381;;-1956.2632;;-1995.8571;;-2035.0598;;-2075.0864;;-2116.2661;;-2158.2036;;-2200.1187;;-2241.1562;;-2280.8448;;-2319.1195;;-2355.5935;;-2389.1809;;-2418.572;;-2442.4484;;-2459.6236;;-2470.4413;;-2477.9505;;-2485.918;;-2495.2162;;-2503.46;;-2508.0701;;-2508.0701
-59.593763;;-59.593763;;-63.900927;;-70.131931;;-77.313223;;-85.360366;;-93.891393;;-101.66993;;-107.51295;;-111.42327;;-114.53466;;-117.9408;;-121.75203;;-125.15375;;-131.95805;;-158.14965;;-197.42909;;-249.50978;;-315.69197;;-397.12109;;-494.16852;;-607.12732;;-733.84345;;-867.59912;;-993.62884;;-1093.8696;;-1170.7521;;-1236.1755;;-1298.5857;;-1361.2503;;-1423.0567;;-1480.9336;;-1532.5616;;-1578.0331;;-1619.3784;;-1658.6148;;-1696.2843;;-1731.4487;;-1763.2096;;-1792.9979;;-1824.6258;;-1860.719;;-1900.2172;;-1940.6479;;-1981.5163;;-2024.1843;;-2069.4557;;-2116.3104;;-2162.5309;;-2206.1143;;-2246.3567;;-2283.9851;;-2320.2381;;-2355.6184;;-2389.4419;;-2420.1315;;-2445.3808;;-2462.8094;;-2472.1835;;-2477.151;;-2482.9739;;-2491.7032;;-2500.7764;;-2506.3566;;-2506.3566
-55.728288;;-55.728288;;-61.196336;;-68.72312;;-76.917771;;-85.533852;;-94.550321;;-103.03058;;-109.78372;;-114.51124;;-118.02031;;-121.1957;;-124.01872;;-125.73629;;-130.45982;;-155.51856;;-193.6189;;-244.22722;;-308.50649;;-387.50482;;-481.56761;;-591.03433;;-714.04083;;-844.83929;;-971.48055;;-1079.5744;;-1166.8341;;-1240.0724;;-1306.6798;;-1370.8164;;-1432.6079;;-1490.1719;;-1541.9847;;-1588.0309;;-1629.526;;-1667.5737;;-1701.7396;;-1730.2693;;-1753.0974;;-1774.8288;;-1802.1418;;-1837.3832;;-1877.4981;;-1919.4608;;-1963.6963;;-2011.7462;;-2063.1349;;-2115.2138;;-2164.8555;;-2210.0735;;-2250.7092;;-2288.0163;;-2323.5493;;-2358.0759;;-2391.1652;;-2421.3968;;-2446.5965;;-2464.4531;;-2474.3914;;-2479.3151;;-2484.1135;;-2491.4355;;-2499.6268;;-2504.9913;;-2504.9913
-53.898896;;-53.898896;;-59.978256;;-68.444275;;-77.351506;;-86.322257;;-95.48532;;-104.20229;;-111.42836;;-116.75443;;-120.66267;;-123.71886;;-125.76982;;-126.29463;;-128.92242;;-151.87516;;-187.97155;;-236.22453;;-297.55437;;-372.94002;;-462.59406;;-566.90748;;-684.38779;;-810.44793;;-936.11721;;-1050.5162;;-1148.3167;;-1231.2115;;-1304.2353;;-1371.5307;;-1434.5104;;-1492.971;;-1546.5055;;-1594.9035;;-1638.0932;;-1675.5481;;-1705.0831;;-1723.8414;;-1733.7708;;-1745.1399;;-1769.0723;;-1806.6933;;-1850.8013;;-1896.6017;;-1945.4725;;-1999.2888;;-2056.1913;;-2112.2389;;-2164.43;;-2211.5897;;-2253.8099;;-2291.9572;;-2327.2556;;-2360.4449;;-2391.3117;;-2419.2377;;-2443.5099;;-2462.8098;;-2475.7667;;-2483.0294;;-2487.8256;;-2493.3037;;-2499.6019;;-2504.0589;;-2504.0589
-53.10254;;-53.10254;;-59.623391;;-68.621627;;-78.040711;;-87.16241;;-96.064769;;-104.4632;;-111.67265;;-117.4403;;-122.01619;;-125.59365;;-127.89489;;-128.69967;;-130.49931;;-149.56923;;-182.85815;;-228.15483;;-285.9333;;-357.20561;;-441.85629;;-540.2356;;-651.16277;;-771.04046;;-893.25608;;-1009.7671;;-1114.6299;;-1206.1719;;-1286.4939;;-1358.7239;;-1425.1384;;-1487.0875;;-1545.0095;;-1598.2184;;-1645.2627;;-1683.9311;;-1710.2048;;-1720.2633;;-1718.3875;;-1720.6242;;-1742.2805;;-1783.006;;-1831.2668;;-1880.1591;;-1931.8528;;-1988.9735;;-2049.0915;;-2107.7218;;-2162.3165;;-2212.2096;;-2256.9932;;-2296.5085;;-2331.3247;;-2361.9878;;-2388.7688;;-2412.8472;;-2435.9604;;-2457.6983;;-2474.9509;;-2485.4924;;-2490.9863;;-2495.2573;;-2500.1186;;-2503.8512;;-2503.8512
-51.687666;;-51.687666;;-58.536199;;-67.973994;;-77.916493;;-87.220525;;-95.622223;;-103.35282;;-110.32434;;-116.59026;;-122.2614;;-127.19391;;-131.03672;;-133.80333;;-137.33473;;-150.98341;;-180.10634;;-221.38011;;-274.67587;;-340.91204;;-420.05965;;-511.93068;;-615.62008;;-728.34344;;-845.22913;;-960.31874;;-1068.2718;;-1165.9615;;-1253.0853;;-1331.2508;;-1402.9616;;-1470.6488;;-1535.3012;;-1595.793;;-1649.5208;;-1692.7669;;-1720.2943;;-1728.3257;;-1722.8743;;-1722.2526;;-1742.638;;-1782.7216;;-1829.7388;;-1876.618;;-1926.3558;;-1982.4736;;-2042.9406;;-2103.3085;;-2160.9149;;-2214.568;;-2262.7296;;-2303.9712;;-2337.9288;;-2364.8743;;-2386.1637;;-2405.6358;;-2427.5495;;-2451.6499;;-2472.6794;;-2486.1334;;-2492.8407;;-2497.0617;;-2501.4087;;-2504.7507;;-2504.7507
-49.403608;;-49.403608;;-56.376826;;-66.04329;;-76.423066;;-86.115537;;-94.134596;;-101.24923;;-108.11478;;-115.05484;;-122.07188;;-128.83924;;-135.01932;;-140.75151;;-147.51432;;-159.64452;;-182.98447;;-218.35841;;-265.53265;;-325.00645;;-397.62485;;-482.61517;;-579.01493;;-684.77797;;-796.31499;;-908.9595;;-1017.9924;;-1119.8346;;-1212.6942;;-1296.7267;;-1374.0754;;-1447.7021;;-1519.1933;;-1587.5818;;-1649.6609;;-1700.4986;;-1734.3942;;-1748.7252;;-1750.1473;;-1754.4791;;-1774.3595;;-1808.3779;;-1846.9489;;-1885.8751;;-1929.1794;;-1980.9564;;-2039.9475;;-2101.8016;;-2162.8805;;-2220.5711;;-2272.0581;;-2314.8217;;-2347.6484;;-2370.8385;;-2387.2738;;-2403.1017;;-2423.8408;;-2448.6546;;-2471.0382;;-2485.8702;;-2493.8441;;-2498.9101;;-2503.4112;;-2506.5386;;-2506.5386
-47.095998;;-47.095998;;-54.002714;;-63.651095;;-74.243657;;-84.396328;;-92.3972;;-99.205843;;-106.20317;;-113.84192;;-122.04163;;-130.46629;;-138.90949;;-147.60449;;-157.67455;;-171.58499;;-192.15854;;-221.33574;;-261.04898;;-312.73854;;-377.31987;;-455.42807;;-545.80713;;-646.65833;;-755.19131;;-867.31278;;-978.31584;;-1084.0912;;-1181.8739;;-1270.8005;;-1352.4469;;-1429.8857;;-1505.4871;;-1579.2662;;-1648.2228;;-1706.7594;;-1749.2153;;-1774.2927;;-1788.0373;;-1801.1155;;-1820.8597;;-1846.5116;;-1873.8915;;-1903.0577;;-1938.9845;;-1985.8515;;-2042.9236;;-2105.7222;;-2169.2875;;-2229.461;;-2282.493;;-2325.3929;;-2356.8361;;-2377.801;;-2392.4236;;-2407.3461;;-2427.1872;;-2450.2065;;-2470.5029;;-2484.4412;;-2493.2115;;-2499.7223;;-2505.0945;;-2508.3915;;-2508.3915
-45.546781;;-45.546781;;-52.36851;;-61.954444;;-72.667384;;-83.207041;;-91.487075;;-98.223921;;-105.39251;;-113.46188;;-122.29831;;-131.69575;;-141.68449;;-152.62265;;-165.35387;;-181.2863;;-201.66373;;-227.23529;;-260.08255;;-304.25656;;-362.15247;;-434.53677;;-521.62611;;-621.30129;;-730.91552;;-846.42141;;-962.3385;;-1073.2017;;-1175.1696;;-1267.0704;;-1350.4694;;-1428.5359;;-1504.3821;;-1579.2922;;-1651.071;;-1714.2799;;-1763.7325;;-1798.7052;;-1823.5217;;-1844.0159;;-1863.6718;;-1882.9989;;-1902.3492;;-1924.808;;-1955.6642;;-1998.8069;;-2053.6549;;-2115.5852;;-2178.7909;;-2238.2425;;-2289.9288;;-2331.131;;-2361.2143;;-2382.16;;-2398.4157;;-2415.0778;;-2434.3222;;-2453.7724;;-2469.6949;;-2481.2557;;-2490.4462;;-2498.796;;-2505.7286;;-2509.7083;;-2509.7083
-44.989181;;-44.989181;;-51.815174;;-61.442222;;-72.323945;;-83.194766;;-91.790855;;-98.407977;;-105.5297;;-113.63172;;-122.51891;;-132.15786;;-142.86412;;-155.12797;;-169.57746;;-186.92961;;-207.50994;;-231.19439;;-259.34159;;-297.93955;;-352.05595;;-422.49547;;-509.44067;;-611.9634;;-726.58033;;-849.17142;;-973.02075;;-1090.228;;-1195.3808;;-1287.7651;;-1369.9922;;-1445.8347;;-1518.9723;;-1591.5101;;-1662.1084;;-1726.284;;-1779.7591;;-1821.4969;;-1853.3858;;-1878.0678;;-1897.8286;;-1914.7916;;-1931.5619;;-1951.935;;-1980.5976;;-2020.8843;;-2072.2548;;-2130.365;;-2189.5552;;-2244.9534;;-2292.9872;;-2331.6159;;-2360.9601;;-2383.4467;;-2402.7521;;-2421.661;;-2440.1404;;-2455.9591;;-2467.882;;-2477.5172;;-2487.254;;-2497.3189;;-2505.7441;;-2510.4521;;-2510.4521
-44.923293;;-44.923293;;-51.799316;;-61.387266;;-72.578129;;-83.714429;;-92.540629;;-98.87614;;-105.71758;;-113.61162;;-122.26156;;-131.72967;;-142.58184;;-155.42554;;-170.70217;;-188.65758;;-209.07941;;-231.31826;;-256.49641;;-292.43628;;-346.21308;;-417.95271;;-507.66909;;-614.92425;;-736.07769;;-867.01949;;-1000.0623;;-1124.6556;;-1232.9349;;-1324.4516;;-1403.4681;;-1475.1056;;-1543.8092;;-1612.1335;;-1679.4605;;-1742.6376;;-1798.3277;;-1844.4966;;-1880.507;;-1907.3979;;-1928.1091;;-1946.2735;;-1964.8382;;-1986.522;;-2014.6502;;-2051.8724;;-2097.9302;;-2149.4234;;-2201.7496;;-2250.9767;;-2294.4186;;-2330.7137;;-2360.1004;;-2384.3173;;-2405.5886;;-2425.1016;;-2442.2053;;-2455.6084;;-2465.7454;;-2475.12;;-2485.6903;;-2496.7162;;-2505.6906;;-2510.5755;;-2510.5755
-44.365638;;-44.365638;;-51.203975;;-60.763676;;-72.010759;;-83.327117;;-92.519772;;-98.712101;;-105.2703;;-112.95096;;-121.37878;;-130.60496;;-141.32582;;-154.22248;;-169.60584;;-187.42862;;-207.16283;;-227.9752;;-251.32571;;-287.37275;;-342.96498;;-417.28422;;-510.44903;;-622.17202;;-749.20197;;-887.7045;;-1029.5977;;-1162.2942;;-1274.8771;;-1366.0765;;-1441.462;;-1507.9012;;-1571.0948;;-1634.3386;;-1697.99;;-1760.1663;;-1817.8142;;-1867.3832;;-1906.2651;;-1935.1288;;-1958.1911;;-1980.0509;;-2002.91;;-2027.5685;;-2055.6548;;-2089.2699;;-2128.8576;;-2172.4252;;-2216.8025;;-2259.2607;;-2298.101;;-2332.4081;;-2361.833;;-2386.6383;;-2407.6469;;-2425.7156;;-2441.0344;;-2453.4651;;-2463.8931;;-2474.2646;;-2485.5736;;-2496.5907;;-2505.0678;;-2509.5243;;-2509.5243
-42.810342;;-42.810342;;-49.457052;;-58.78638;;-69.909864;;-81.328383;;-91.211521;;-97.805964;;-104.29849;;-111.86086;;-120.18583;;-129.26485;;-139.74509;;-152.29501;;-167.1858;;-184.27023;;-202.8958;;-222.29874;;-244.84573;;-282.78913;;-340.55132;;-417.10341;;-512.87888;;-627.65114;;-758.79535;;-902.88642;;-1051.9935;;-1192.5802;;-1310.9182;;-1403.7311;;-1476.9061;;-1538.7282;;-1596.3398;;-1654.3509;;-1714.6055;;-1776.2381;;-1835.7084;;-1887.9187;;-1929.2799;;-1960.8041;;-1987.5576;;-2014.2373;;-2041.9049;;-2069.5509;;-2097.4403;;-2127.5052;;-2161.0519;;-2197.3447;;-2234.464;;-2270.8247;;-2305.5498;;-2337.7625;;-2366.1784;;-2389.7579;;-2408.7027;;-2424.4289;;-2438.2893;;-2450.7886;;-2462.3356;;-2473.7242;;-2485.1205;;-2495.3699;;-2502.8899;;-2506.7671;;-2506.7671
-40.786261;;-40.786261;;-47.170409;;-56.17518;;-67.088194;;-78.552142;;-89.183376;;-96.681031;;-103.35368;;-110.90523;;-119.25811;;-128.33718;;-138.54425;;-150.39227;;-164.1868;;-179.90647;;-197.06132;;-215.19558;;-238.09177;;-278.49443;;-337.92097;;-415.78068;;-512.8584;;-628.92718;;-762.02034;;-909.12893;;-1062.8074;;-1209.6578;;-1334.4188;;-1431.4017;;-1505.5161;;-1565.3667;;-1619.1066;;-1672.8753;;-1730.1724;;-1790.8773;;-1850.9205;;-1904.5481;;-1948.3078;;-1983.4769;;-2014.6543;;-2045.5918;;-2076.4602;;-2105.526;;-2132.6925;;-2160.0698;;-2189.4014;;-2220.4484;;-2252.0822;;-2283.7356;;-2315.0922;;-2344.922;;-2371.1193;;-2392.2116;;-2408.6972;;-2422.6705;;-2435.9793;;-2448.9982;;-2461.3278;;-2472.8487;;-2483.4767;;-2492.5955;;-2499.3023;;-2502.8671;;-2502.8671
-39.107679;;-39.107679;;-45.272412;;-54.003061;;-64.725645;;-76.179887;;-87.285634;;-95.718042;;-102.74524;;-110.43586;;-118.97369;;-128.19304;;-138.11684;;-148.97923;;-161.15213;;-174.94732;;-190.30364;;-207.34939;;-231.62326;;-274.20354;;-334.62865;;-412.84126;;-509.88976;;-625.39561;;-757.99527;;-905.02824;;-1059.764;;-1210.0066;;-1341.0529;;-1445.2331;;-1524.8478;;-1587.1301;;-1640.4128;;-1692.1063;;-1747.0256;;-1805.6528;;-1864.2359;;-1917.8872;;-1964.1036;;-2003.6578;;-2039.0703;;-2072.353;;-2103.5787;;-2131.872;;-2157.8361;;-2183.7118;;-2210.8793;;-2238.786;;-2266.6909;;-2294.8751;;-2323.396;;-2350.6879;;-2374.3721;;-2393.3287;;-2408.6138;;-2422.3973;;-2436.0745;;-2449.42;;-2461.5551;;-2472.2064;;-2481.5955;;-2489.6745;;-2495.9004;;-2499.4016;;-2499.4016
-37.803227;;-37.803227;;-43.780047;;-52.270443;;-62.776619;;-74.122971;;-85.424546;;-94.605427;;-102.15902;;-110.17222;;-119.01226;;-128.41534;;-138.03885;;-147.82339;;-158.21674;;-169.94001;;-183.45809;;-199.59207;;-225.69975;;-269.82981;;-330.68116;;-408.51808;;-504.47349;;-617.76541;;-747.56172;;-891.42236;;-1043.5276;;-1193.8804;;-1330.3723;;-1444.4264;;-1534.2294;;-1603.7793;;-1660.5576;;-1712.6729;;-1765.8436;;-1821.4163;;-1877.1168;;-1930.0543;;-1978.7333;;-2022.5126;;-2060.9356;;-2094.2573;;-2123.437;;-2149.6239;;-2174.4573;;-2199.7512;;-2225.8729;;-2251.7157;;-2276.8387;;-2302.1425;;-2327.9535;;-2352.7735;;-2374.6406;;-2393.1061;;-2409.3671;;-2424.7574;;-2439.4273;;-2452.4867;;-2463.3453;;-2472.5157;;-2480.8095;;-2488.2828;;-2494.2306;;-2497.6303;;-2497.6303
-36.146148;;-36.146148;;-41.859618;;-49.999119;;-60.00227;;-71.212295;;-82.562447;;-92.510402;;-100.78236;;-109.15579;;-118.18917;;-127.63652;;-136.96365;;-145.90771;;-154.9458;;-165.10145;;-177.20499;;-192.65714;;-220.36764;;-265.44897;;-326.42424;;-403.7094;;-498.22323;;-608.78341;;-734.80089;;-873.87174;;-1021.1368;;-1169.3387;;-1309.7818;;-1433.9533;;-1536.1195;;-1616.0273;;-1679.1064;;-1733.3463;;-1785.2446;;-1837.6627;;-1890.5356;;-1942.9139;;-1993.6105;;-2040.2343;;-2079.8191;;-2111.6138;;-2137.9747;;-2162.1408;;-2186.3326;;-2211.3342;;-2236.3882;;-2260.2022;;-2282.8218;;-2305.5367;;-2328.7789;;-2351.3542;;-2372.0806;;-2391.2885;;-2410.067;;-2428.3476;;-2444.4712;;-2456.8866;;-2465.9777;;-2473.7283;;-2481.5364;;-2488.9997;;-2494.8365;;-2498.0266;;-2498.0266
-33.826816;;-33.826816;;-39.162909;;-46.793376;;-56.239555;;-67.010772;;-78.270907;;-88.914369;;-97.874822;;-106.27453;;-115.02391;;-124.18737;;-133.2991;;-141.96498;;-150.54943;;-160.11733;;-171.56251;;-186.58846;;-215.40952;;-261.09012;;-322.24557;;-399.40573;;-493.10321;;-602.19691;;-725.94919;;-861.75314;;-1005.1991;;-1151.0655;;-1293.3913;;-1424.5446;;-1536.7984;;-1626.4094;;-1696.0554;;-1752.7611;;-1803.7643;;-1853.8617;;-1905.0108;;-1957.1381;;-2008.575;;-2055.8453;;-2095.0649;;-2125.3226;;-2149.8163;;-2172.8044;;-2196.4775;;-2220.6709;;-2244.0592;;-2265.7066;;-2286.2093;;-2306.9236;;-2328.0706;;-2348.5164;;-2367.6892;;-2386.913;;-2407.7453;;-2429.0371;;-2447.1165;;-2459.5663;;-2467.8058;;-2475.2341;;-2483.5237;;-2491.5814;;-2497.5673;;-2500.6133;;-2500.6133
-31.331267;;-31.331267;;-36.256613;;-43.327841;;-52.145916;;-62.368267;;-73.321502;;-84.172353;;-93.343922;;-101.0697;;-108.82046;;-117.2941;;-126.30624;;-135.34897;;-144.47701;;-154.46606;;-165.98254;;-180.93843;;-210.92768;;-257.35926;;-319.13258;;-396.96697;;-491.31138;;-601.28737;;-726.12023;;-862.90638;;-1006.6345;;-1151.8986;;-1293.9207;;-1426.7605;;-1543.2352;;-1638.2317;;-1712.1588;;-1770.6912;;-1821.4484;;-1870.6529;;-1921.2165;;-1972.7739;;-2023.0475;;-2068.8473;;-2107.0929;;-2137.0462;;-2161.4011;;-2183.9232;;-2206.4865;;-2228.8146;;-2250.0053;;-2269.8656;;-2289.2422;;-2309.0259;;-2328.7831;;-2346.9442;;-2363.0986;;-2379.8054;;-2400.221;;-2423.28;;-2443.6889;;-2457.8318;;-2467.4234;;-2476.3738;;-2486.0811;;-2494.9492;;-2501.0906;;-2504.0187;;-2504.0187
-29.270268;;-29.270268;;-33.840665;;-40.418724;;-48.656973;;-58.292756;;-68.711783;;-79.153362;;-87.745971;;-94.058796;;-100.30757;;-107.86861;;-116.82758;;-126.62253;;-136.93116;;-147.99059;;-160.0336;;-175.62265;;-207.63997;;-255.50355;;-318.71774;;-398.34542;;-494.9598;;-608.10553;;-737.1481;;-878.94167;;-1027.166;;-1173.9044;;-1313.7394;;-1443.1372;;-1557.534;;-1652.5793;;-1727.7609;;-1787.6424;;-1839.442;;-1889.3625;;-1939.9255;;-1990.0482;;-2037.5147;;-2080.6036;;-2117.8578;;-2148.5494;;-2173.8532;;-2196.1107;;-2216.9045;;-2236.6714;;-2255.6782;;-2274.589;;-2294.1104;;-2314.1765;;-2333.3165;;-2349.1826;;-2361.1738;;-2373.0597;;-2390.28;;-2413.0659;;-2435.4213;;-2452.428;;-2465.0556;;-2476.5637;;-2487.6538;;-2496.6813;;-2502.3928;;-2504.9516;;-2504.9516
-27.823148;;-27.823148;;-32.110737;;-38.283276;;-46.015449;;-55.062254;;-64.803645;;-74.427724;;-81.739594;;-86.270054;;-91.029585;;-97.791549;;-106.73418;;-117.26972;;-128.82446;;-141.09432;;-153.85117;;-171.38808;;-206.23168;;-256.23493;;-321.64402;;-403.95354;;-503.86694;;-621.4175;;-756.09903;;-904.50769;;-1058.8761;;-1207.6903;;-1343.7055;;-1466.4218;;-1574.8858;;-1666.6862;;-1741.6163;;-1803.4661;;-1858.0534;;-1909.9875;;-1960.6164;;-2008.6527;;-2052.8533;;-2093.2084;;-2129.5241;;-2160.842;;-2186.8848;;-2208.7042;;-2227.7704;;-2245.4105;;-2262.984;;-2281.7208;;-2302.0119;;-2322.8496;;-2341.8115;;-2355.9127;;-2364.3529;;-2371.5679;;-2384.6482;;-2405.3865;;-2428.1416;;-2447.2049;;-2462.2787;;-2475.3634;;-2486.5145;;-2494.5122;;-2499.0962;;-2501.0501;;-2501.0501
-26.664985;;-26.664985;;-30.696346;;-36.495268;;-43.747394;;-52.205962;;-61.228338;;-69.925888;;-75.807259;;-78.870201;;-82.659486;;-88.985505;;-97.940691;;-108.90877;;-121.26336;;-134.40888;;-147.9063;;-168.62138;;-206.01494;;-258.09411;;-325.65919;;-410.56392;;-513.58441;;-635.18652;;-774.91357;;-929.07897;;-1088.6086;;-1238.3789;;-1369.3396;;-1484.7264;;-1587.059;;-1675.8115;;-1751.3467;;-1816.5738;;-1875.1743;;-1929.5261;;-1980.083;;-2026.2813;;-2068.2312;;-2106.9021;;-2142.4395;;-2173.668;;-2199.6793;;-2220.9627;;-2239.0507;;-2255.8283;;-2273.0455;;-2291.8184;;-2312.1415;;-2332.661;;-2350.8231;;-2363.7097;;-2370.5702;;-2375.6752;;-2386.0843;;-2404.2735;;-2425.6035;;-2444.5362;;-2459.8559;;-2472.5223;;-2482.3662;;-2488.8;;-2492.3275;;-2493.8949;;-2493.8949
-25.369561;;-25.369561;;-29.113152;;-34.499595;;-41.236224;;-48.977222;;-57.464088;;-65.456292;;-70.605218;;-73.076;;-76.552596;;-82.74857;;-91.599396;;-102.51511;;-114.98718;;-128.42449;;-142.51832;;-165.91632;;-204.71043;;-257.83635;;-326.45727;;-412.64443;;-517.23681;;-640.98194;;-783.46085;;-940.8215;;-1103.1316;;-1252.4445;;-1378.5408;;-1488.6425;;-1587.9054;;-1676.7378;;-1755.297;;-1825.075;;-1887.6145;;-1943.7866;;-1994.2245;;-2039.6732;;-2081.1479;;-2119.533;;-2154.6826;;-2185.5326;;-2211.3423;;-2232.5223;;-2250.5817;;-2267.5303;;-2284.9088;;-2303.132;;-2321.6937;;-2339.5779;;-2355.123;;-2366.2277;;-2372.5333;;-2377.879;;-2388.1756;;-2405.2696;;-2425.0689;;-2442.6819;;-2456.7612;;-2467.9944;;-2476.4725;;-2482.1005;;-2485.5191;;-2487.282;;-2487.282
-23.913776;;-23.913776;;-27.32527;;-32.25394;;-38.448179;;-45.640036;;-53.612307;;-61.309449;;-66.847008;;-69.796199;;-73.51541;;-79.570985;;-87.935009;;-98.238771;;-110.20764;;-123.3898;;-137.61863;;-161.7531;;-200.40774;;-253.03004;;-320.94565;;-406.31155;;-510.07699;;-633.11123;;-775.12736;;-932.42529;;-1095.0382;;-1243.8322;;-1367.5278;;-1476.2929;;-1576.9456;;-1669.8624;;-1753.986;;-1828.8897;;-1894.5657;;-1951.7274;;-2002.176;;-2047.9111;;-2090.1035;;-2128.9456;;-2163.9991;;-2194.7339;;-2220.9424;;-2242.9108;;-2261.6978;;-2279.0197;;-2296.0924;;-2312.7003;;-2327.939;;-2341.2938;;-2352.0965;;-2359.0905;;-2362.871;;-2368.2218;;-2380.6803;;-2400.2918;;-2421.4654;;-2439.0752;;-2452.2571;;-2462.4256;;-2470.4309;;-2476.4627;;-2480.7402;;-2483.1404;;-2483.1404
-22.695074;;-22.695074;;-25.744177;;-30.227764;;-35.938622;;-42.718917;;-50.376366;;-58.099988;;-64.646297;;-68.784355;;-72.890987;;-78.576085;;-86.135098;;-95.558783;;-106.78223;;-119.44443;;-133.21241;;-155.9432;;-192.9416;;-243.55449;;-309.05892;;-391.58567;;-492.28143;;-611.9973;;-750.7148;;-905.24869;;-1066.5412;;-1216.3706;;-1341.7412;;-1453.2025;;-1558.7203;;-1658.3992;;-1749.6019;;-1829.9129;;-1898.3717;;-1956.3278;;-2006.9765;;-2053.2311;;-2096.1304;;-2135.2532;;-2170.1087;;-2200.8582;;-2227.8613;;-2251.1572;;-2271.0056;;-2288.479;;-2304.5765;;-2319.0189;;-2330.8447;;-2339.5299;;-2344.2146;;-2343.6929;;-2340.5735;;-2343.489;;-2359.7557;;-2386.5646;;-2413.7814;;-2434.1906;;-2447.6941;;-2457.412;;-2465.4754;;-2472.3702;;-2477.7382;;-2480.8;;-2480.8
-22.061968;;-22.061968;;-24.747247;;-28.894003;;-34.279326;;-40.82314;;-48.330362;;-56.147692;;-63.385075;;-68.457808;;-72.714725;;-77.975217;;-84.897496;;-93.719889;;-104.42149;;-116.61143;;-129.68486;;-149.19915;;-183.21934;;-230.59203;;-292.36126;;-370.52941;;-466.5533;;-581.14138;;-714.66284;;-864.75574;;-1024.0169;;-1176.908;;-1308.479;;-1426.0703;;-1538.3038;;-1645.5181;;-1744.0324;;-1829.8914;;-1901.4744;;-1960.694;;-2011.7791;;-2058.38;;-2101.618;;-2140.7063;;-2175.0498;;-2205.3026;;-2232.4026;;-2256.4077;;-2276.994;;-2294.5716;;-2309.9325;;-2323.0244;;-2332.9628;;-2338.4881;;-2337.1668;;-2327.1328;;-2313.9771;;-2312.3594;;-2332.9577;;-2369.5338;;-2405.5524;;-2430.462;;-2444.9802;;-2454.4303;;-2462.4666;;-2469.9683;;-2476.1458;;-2479.7003;;-2479.7003
-21.846681;;-21.846681;;-24.29454;;-28.27009;;-33.496686;;-39.903983;;-47.302054;;-55.069056;;-62.37967;;-67.511976;;-71.572558;;-76.64034;;-83.505817;;-92.308118;;-102.85706;;-114.71462;;-127.20689;;-142.68311;;-172.27912;;-215.32743;;-272.33847;;-345.01478;;-435.21149;;-543.44816;;-670.48877;;-814.99247;;-971.62733;;-1128.5138;;-1270.1837;;-1397.1721;;-1517.377;;-1632.086;;-1737.5763;;-1829.0397;;-1904.2916;;-1965.4831;;-2017.5869;;-2064.9739;;-2108.9193;;-2148.1538;;-2181.6787;;-2210.4421;;-2236.1047;;-2259.2356;;-2279.5688;;-2297.2935;;-2312.9786;;-2326.4703;;-2336.6334;;-2341.2475;;-2336.2494;;-2319.1568;;-2298.0253;;-2292.2852;;-2315.3996;;-2358.7454;;-2401.0592;;-2429.1807;;-2444.3739;;-2453.6397;;-2461.752;;-2469.8457;;-2476.807;;-2480.8812;;-2480.8812
-21.731859;;-21.731859;;-23.953987;;-27.773305;;-32.845467;;-39.082284;;-46.172081;;-53.855477;;-60.916453;;-65.679823;;-69.525234;;-74.78281;;-82.105877;;-91.281151;;-101.8628;;-113.37475;;-125.36013;;-138.08214;;-161.21006;;-198.99176;;-250.522;;-316.95762;;-400.30804;;-501.37972;;-620.99603;;-758.90034;;-911.85403;;-1071.679;;-1224.8764;;-1364.194;;-1493.8133;;-1616.2672;;-1728.8152;;-1826.3755;;-1906.1525;;-1970.3752;;-2024.7582;;-2074.2314;;-2119.8132;;-2159.449;;-2191.7263;;-2218.0248;;-2240.8761;;-2261.6049;;-2280.5184;;-2298.1904;;-2315.0894;;-2330.4386;;-2342.405;;-2348.3139;;-2343.8829;;-2326.6325;;-2304.6986;;-2297.5868;;-2319.0711;;-2361.0348;;-2402.4495;;-2430.0058;;-2444.8809;;-2454.2425;;-2463.0099;;-2472.2004;;-2480.3262;;-2485.1551;;-2485.1551
-21.605268;;-21.605268;;-23.192044;;-26.608601;;-31.289852;;-37.114235;;-43.827866;;-51.181599;;-58.092889;;-63.046126;;-67.12782;;-72.766656;;-80.494937;;-89.886426;;-100.35033;;-111.53311;;-123.24962;;-135.31695;;-151.76436;;-183.53318;;-229.11074;;-289.04278;;-365.05246;;-458.72378;;-570.57543;;-701.24637;;-849.24132;;-1009.4042;;-1171.4336;;-1323.6043;;-1463.5635;;-1594.2481;;-1714.6937;;-1819.9639;;-1906.3336;;-1975.6491;;-2034.0908;;-2086.7862;;-2134.2122;;-2173.7669;;-2204.1821;;-2227.5389;;-2247.1032;;-2264.8127;;-2281.7083;;-2299.1026;;-2317.5293;;-2335.3801;;-2349.969;;-2358.814;;-2358.8852;;-2348.2688;;-2332.7712;;-2327.2837;;-2343.3122;;-2375.907;;-2409.1938;;-2432.363;;-2445.9645;;-2455.7111;;-2465.5974;;-2476.1489;;-2485.504;;-2491.0742;;-2491.0742
-21.552663;;-21.552663;;-22.117864;;-24.748769;;-28.726022;;-33.843877;;-39.962946;;-46.849929;;-53.717873;;-59.600321;;-64.382728;;-69.955292;;-77.078838;;-85.476568;;-95.166976;;-106.49237;;-119.03415;;-132.14936;;-146.29721;;-171.14903;;-210.78316;;-264.54361;;-333.63124;;-420.05997;;-524.55602;;-647.92564;;-789.90498;;-947.42324;;-1112.9834;;-1274.6031;;-1424.1171;;-1562.9721;;-1692.2279;;-1807.6036;;-1903.9354;;-1981.2953;;-2045.1587;;-2100.6683;;-2148.5536;;-2186.8637;;-2215.1957;;-2236.138;;-2253.0962;;-2268.3428;;-2283.6605;;-2301.04;;-2321.0456;;-2341.4318;;-2358.8995;;-2371.338;;-2377.2555;;-2375.5237;;-2369.0285;;-2366.593;;-2376.2946;;-2396.7566;;-2418.9697;;-2436.0073;;-2447.876;;-2458.0945;;-2469.0335;;-2480.4704;;-2490.3396;;-2496.1149;;-2496.1149
-21.537569;;-21.537569;;-21.658662;;-22.913816;;-25.989539;;-30.299569;;-35.689075;;-41.930221;;-48.812415;;-55.49651;;-61.145238;;-65.819148;;-70.776975;;-76.652422;;-84.924456;;-96.302699;;-110.391;;-126.12576;;-142.38351;;-162.86106;;-197.28411;;-245.64612;;-308.82868;;-388.66014;;-486.68838;;-603.32824;;-739.02032;;-891.99242;;-1056.7462;;-1222.9112;;-1379.6431;;-1525.5491;;-1663.2196;;-1789.7434;;-1898.3342;;-1985.5424;;-2054.5146;;-2110.7293;;-2156.9649;;-2193.4346;;-2220.7394;;-2241.0641;;-2257.1343;;-2271.4355;;-2286.5219;;-2304.6637;;-2326.1308;;-2348.4188;;-2368.2032;;-2383.6397;;-2394.0456;;-2398.8536;;-2399.1164;;-2399.2865;;-2404.5089;;-2415.5749;;-2428.699;;-2440.4096;;-2450.6702;;-2461.2374;;-2472.8856;;-2484.5597;;-2494.1221;;-2499.5051;;-2499.5051
-21.530708;;-21.530708;;-21.568416;;-21.862726;;-23.765475;;-27.262609;;-31.942813;;-37.681839;;-44.191565;;-51.172126;;-57.371838;;-61.027224;;-63.077949;;-66.379878;;-73.393434;;-84.36568;;-98.869338;;-116.40733;;-135.83032;;-157.44629;;-188.61378;;-233.05239;;-291.78972;;-366.53848;;-459.41812;;-570.87226;;-701.4604;;-850.23585;;-1013.0495;;-1181.1176;;-1342.8194;;-1493.6618;;-1636.908;;-1771.6668;;-1890.2058;;-1985.2314;;-2056.9815;;-2111.7531;;-2155.5537;;-2191.24;;-2219.7859;;-2241.9895;;-2259.3774;;-2274.6403;;-2291.0156;;-2310.587;;-2332.9993;;-2355.8431;;-2376.4436;;-2393.29;;-2405.7177;;-2413.126;;-2415.8324;;-2416.5467;;-2419.2961;;-2425.9816;;-2435.0963;;-2444.4608;;-2453.912;;-2464.573;;-2476.5797;;-2488.3194;;-2497.4887;;-2502.4192;;-2502.4192
-21.528229;;-21.528229;;-21.537441;;-21.602416;;-22.252988;;-24.916664;;-28.916628;;-34.029959;;-40.045913;;-46.529167;;-52.763883;;-56.096385;;-55.516436;;-56.470901;;-62.655447;;-73.269674;;-87.657805;;-105.62116;;-126.78491;;-151.43265;;-183.27683;;-226.40336;;-282.95197;;-355.02023;;-444.97217;;-553.90635;;-682.23882;;-829.48346;;-992.23954;;-1162.4907;;-1327.8182;;-1480.6614;;-1624.3225;;-1760.2167;;-1881.1631;;-1978.0939;;-2049.5954;;-2102.666;;-2145.5124;;-2182.4975;;-2214.355;;-2240.4536;;-2261.1469;;-2279.0217;;-2297.5498;;-2318.4688;;-2340.9808;;-2363.0746;;-2383.0005;;-2399.6427;;-2411.9574;;-2418.6811;;-2419.5632;;-2417.4247;;-2417.7731;;-2424.3355;;-2435.517;;-2447.0866;;-2457.3784;;-2467.8869;;-2479.7064;;-2491.427;;-2500.4858;;-2505.237;;-2505.237
-21.527662;;-21.527662;;-21.529042;;-21.541085;;-21.64772;;-22.988136;;-26.096416;;-30.360551;;-35.563872;;-41.276562;;-46.780198;;-50.152704;;-48.567849;;-47.780587;;-53.86656;;-64.243683;;-78.312748;;-96.164158;;-118.12908;;-145.10455;;-179.49622;;-223.95542;;-281.02787;;-353.29034;;-443.45922;;-553.0287;;-682.64435;;-831.96333;;-997.72145;;-1171.6267;;-1339.4612;;-1490.6211;;-1628.5912;;-1757.2095;;-1871.6423;;-1964.2229;;-2033.7765;;-2086.8692;;-2131.2837;;-2171.2019;;-2207.1892;;-2238.0715;;-2263.3243;;-2284.756;;-2305.4164;;-2326.9754;;-2348.9489;;-2369.9683;;-2388.8472;;-2404.5277;;-2415.4988;;-2419.6209;;-2415.771;;-2407.5573;;-2403.9975;;-2412.3165;;-2429.932;;-2447.7943;;-2460.8128;;-2471.0666;;-2481.847;;-2492.8505;;-2501.5044;;-2506.0356;;-2506.0356
-21.527598;;-21.527598;;-21.5277;;-21.529211;;-21.552183;;-21.814155;;-23.623734;;-26.851913;;-31.06368;;-35.862875;;-40.550455;;-43.437944;;-41.909104;;-40.842687;;-47.147142;;-57.158098;;-70.832531;;-88.474613;;-111.0829;;-139.71025;;-176.28536;;-222.96884;;-282.23626;;-356.87185;;-449.54653;;-561.92317;;-695.14561;;-848.9139;;-1019.7475;;-1198.4107;;-1367.824;;-1513.9676;;-1641.3356;;-1756.6664;;-1859.0423;;-1944.4049;;-2012.4892;;-2067.9555;;-2116.1067;;-2159.9508;;-2200.1897;;-2235.89;;-2265.9376;;-2290.9528;;-2313.2526;;-2334.8708;;-2356.3035;;-2376.8275;;-2395.1773;;-2409.894;;-2419.2215;;-2420.605;;-2412.0763;;-2397.5813;;-2389.4142;;-2398.6707;;-2422.3387;;-2446.7238;;-2462.8942;;-2472.9043;;-2481.9984;;-2491.2731;;-2498.6571;;-2502.5312;;-2502.5312
-21.527597;;-21.527597;;-21.5276;;-21.527747;;-21.533529;;-21.59404;;-22.038683;;-23.959622;;-27.052898;;-30.851714;;-34.690181;;-37.116347;;-35.674944;;-35.476044;;-41.814035;;-51.626038;;-64.949067;;-82.460151;;-105.34356;;-134.71184;;-172.4341;;-220.6199;;-281.77305;;-358.64527;;-453.56577;;-568.65444;;-705.39592;;-863.61581;;-1039.719;;-1223.6096;;-1394.9178;;-1534.5725;;-1648.9169;;-1748.9912;;-1838.7633;;-1917.8892;;-1986.4071;;-2046.3054;;-2099.9133;;-2148.7663;;-2193.5365;;-2233.6613;;-2267.7997;;-2295.707;;-2319.1943;;-2340.8339;;-2362.1004;;-2382.6475;;-2400.8211;;-2414.7773;;-2423.0048;;-2423.3503;;-2413.5106;;-2396.7842;;-2385.9923;;-2393.9349;;-2418.4566;;-2444.7711;;-2462.1983;;-2471.9239;;-2479.3762;;-2486.4119;;-2491.8647;;-2494.7021;;-2494.7021
-21.527597;;-21.527597;;-21.527597;;-21.527612;;-21.528718;;-21.542509;;-21.634907;;-22.135838;;-23.925369;;-26.652509;;-29.595819;;-31.479706;;-30.343002;;-31.475081;;-37.708366;;-47.133551;;-59.984103;;-77.013457;;-99.443778;;-128.40578;;-165.77707;;-213.68476;;-274.65826;;-351.34378;;-446.14148;;-561.4526;;-699.05629;;-859.11912;;-1038.4161;;-1226.9562;;-1402.4869;;-1538.2154;;-1641.2798;;-1728.5707;;-1808.5769;;-1883.8369;;-1954.4377;;-2020.1256;;-2080.531;;-2135.3834;;-2184.8134;;-2228.5988;;-2265.731;;-2295.797;;-2320.3955;;-2342.3783;;-2363.7052;;-2384.2005;;-2402.1222;;-2415.7308;;-2424.0839;;-2425.8522;;-2419.0129;;-2405.6085;;-2395.9033;;-2401.194;;-2420.9702;;-2443.5509;;-2459.5055;;-2468.699;;-2474.8958;;-2479.8271;;-2483.3375;;-2485.1493;;-2485.1493
-21.527597;;-21.527597;;-21.527597;;-21.527598;;-21.527706;;-21.529595;;-21.546692;;-21.637619;;-22.035164;;-23.484847;;-25.517819;;-26.88005;;-26.051058;;-28.139337;;-34.041798;;-42.802306;;-54.769704;;-70.705466;;-91.67277;;-119.16918;;-154.61898;;-200.22941;;-258.48152;;-332.05414;;-423.39239;;-535.05125;;-669.11464;;-826.28669;;-1004.2749;;-1194.6144;;-1376.726;;-1516.6593;;-1616.0071;;-1696.8559;;-1771.0578;;-1843.7051;;-1916.2275;;-1987.5868;;-2055.0456;;-2116.0468;;-2169.7866;;-2216.4788;;-2255.9217;;-2287.9909;;-2314.0945;;-2336.9047;;-2358.3925;;-2378.6059;;-2396.3143;;-2410.3811;;-2420.2923;;-2425.2395;;-2423.7687;;-2416.8923;;-2411.201;;-2414.6591;;-2428.0716;;-2444.4934;;-2457.3627;;-2465.5398;;-2470.7415;;-2474.2333;;-2476.5504;;-2477.8166;;-2477.8166
-21.527597;;-21.527597;;-21.527597;;-21.527597;;-21.527598;;-21.527711;;-21.529696;;-21.543339;;-21.595207;;-21.776244;;-22.614426;;-23.451855;;-22.944739;;-25.193735;;-30.508025;;-38.349512;;-49.095963;;-63.467638;;-82.455882;;-107.46593;;-139.81117;;-181.5683;;-235.07879;;-303.01797;;-387.83264;;-492.09963;;-618.1588;;-767.3025;;-938.46142;;-1125.6243;;-1312.7133;;-1466.3196;;-1573.1598;;-1655.8084;;-1728.3007;;-1798.6309;;-1871.5363;;-1946.9214;;-2020.3465;;-2087.0751;;-2145.2521;;-2195.2352;;-2237.4236;;-2271.995;;-2300.1755;;-2324.3092;;-2346.2254;;-2366.284;;-2384.1208;;-2399.439;;-2411.8646;;-2420.5457;;-2424.503;;-2424.3594;;-2423.7891;;-2427.4009;;-2436.3198;;-2447.345;;-2456.8068;;-2463.5798;;-2468.3178;;-2471.7834;;-2474.3373;;-2475.8309;;-2475.8309
-21.527597;;-21.527597;;-21.527597;;-21.527597;;-21.527597;;-21.527598;;-21.527718;;-21.52878;;-21.533179;;-21.544056;;-21.570902;;-21.641513;;-21.5974;;-22.878594;;-27.31825;;-34.065124;;-43.417401;;-56.008522;;-72.72176;;-94.699053;;-123.50104;;-160.62957;;-208.35597;;-269.2056;;-345.64917;;-440.14701;;-555.17529;;-692.50451;;-852.19455;;-1030.6664;;-1216.8582;;-1385.4232;;-1508.9747;;-1600.6081;;-1676.0953;;-1746.2019;;-1819.3101;;-1897.1607;;-1975.0331;;-2047.3054;;-2111.2676;;-2166.4661;;-2212.8611;;-2250.642;;-2281.1823;;-2306.91;;-2329.6823;;-2350.0947;;-2368.5132;;-2385.4199;;-2400.5286;;-2412.7646;;-2421.4227;;-2427.0479;;-2431.3829;;-2436.3835;;-2442.7618;;-2449.6211;;-2455.8589;;-2461.4625;;-2466.9673;;-2472.2477;;-2476.4437;;-2478.7333;;-2478.7333
-21.527597;;-21.527597;;-21.527597;;-21.527597;;-21.527597;;-21.527597;;-21.527598;;-21.527606;;-21.527641;;-21.527727;;-21.527878;;-21.528113;;-21.528064;;-21.65459;;-24.72835;;-30.240287;;-38.169019;;-48.983389;;-63.427363;;-82.496051;;-107.58217;;-139.99737;;-181.78969;;-235.2526;;-302.84689;;-386.87235;;-489.80175;;-613.70995;;-759.49353;;-925.48326;;-1104.7518;;-1280.1885;;-1422.2149;;-1527.0435;;-1610.5091;;-1684.9815;;-1760.4825;;-1840.4091;;-1921.6362;;-1999.561;;-2070.8888;;-2133.257;;-2185.0922;;-2226.4136;;-2259.2739;;-2286.7536;;-2310.9707;;-2332.599;;-2352.2826;;-2370.9337;;-2388.4908;;-2403.9662;;-2416.8048;;-2427.1728;;-2435.2678;;-2441.2229;;-2445.4359;;-2448.6453;;-2452.0614;;-2457.214;;-2464.6902;;-2472.9398;;-2479.3363;;-2482.4898;;-2482.4898
-21.527597;;-21.527597;;-21.527597;;-21.527597;;-21.527597;;-21.527597;;-21.527597;;-21.527597;;-21.527597;;-21.527597;;-21.527598;;-21.527598;;-21.527602;;-21.530399;;-22.683546;;-27.03964;;-33.686543;;-42.907773;;-55.319601;;-71.781321;;-93.528741;;-121.69415;;-158.1105;;-204.83577;;-264.24772;;-338.55245;;-430.10963;;-541.1537;;-673.13852;;-825.73435;;-994.91538;;-1169.3545;;-1325.2636;;-1444.5647;;-1538.6459;;-1620.4511;;-1699.7516;;-1781.4924;;-1865.6038;;-1949.4191;;-2028.7329;;-2098.6173;;-2155.7864;;-2200.4081;;-2235.584;;-2265.1625;;-2291.5289;;-2315.3785;;-2337.2643;;-2358.0794;;-2378.0563;;-2396.6541;;-2413.2831;;-2427.1792;;-2437.2041;;-2442.7618;;-2444.625;;-2444.7756;;-2446.0216;;-2451.1335;;-2460.7152;;-2471.8103;;-2480.1605;;-2484.0008;;-2484.0008
-21.527597;;-21.527597;;-21.527597;;-21.527597;;-21.527597;;-21.527597;;-21.527597;;-21.527597;;-21.527597;;-21.527597;;-21.527597;;-21.527597;;-21.527597;;-21.527741;;-21.644086;;-24.663992;;-30.14339;;-38.034196;;-48.792317;;-63.148242;;-82.205706;;-106.95167;;-139.0475;;-180.36277;;-233.11597;;-299.56095;;-381.90786;;-482.47355;;-603.08564;;-744.31065;;-904.02256;;-1074.6827;;-1238.7502;;-1371.4029;;-1474.359;;-1561.2587;;-1642.4317;;-1725.1677;;-1812.5641;;-1902.9096;;-1990.0611;;-2066.5179;;-2128.0325;;-2175.5216;;-2213.0838;;-2244.9338;;-2273.5926;;-2299.9637;;-2324.5156;;-2347.86;;-2370.3997;;-2392.0197;;-2411.8041;;-2427.8082;;-2438.1032;;-2442.5207;;-2442.7714;;-2441.3888;;-2441.5592;;-2446.6229;;-2457.3493;;-2469.98;;-2479.2228;;-2483.2175;;-2483.2175
-21.527597;;-21.527597;;-21.527597;;-21.527597;;-21.527597;;-21.527597;;-21.527597;;-21.527597;;-21.527597;;-21.527597;;-21.527597;;-21.527597;;-21.527597;;-21.527621;;-21.534498;;-22.986478;;-27.553226;;-34.451528;;-43.993515;;-56.818971;;-73.811346;;-96.231983;;-125.24225;;-162.70252;;-210.69505;;-271.52821;;-347.34084;;-440.47031;;-552.99092;;-686.04255;;-838.69468;;-1005.7675;;-1173.798;;-1316.8748;;-1424.6637;;-1511.9871;;-1592.4111;;-1676.1906;;-1768.1212;;-1865.6467;;-1960.0634;;-2041.94;;-2106.9242;;-2156.8917;;-2196.4964;;-2229.8848;;-2259.7606;;-2287.6079;;-2314.0863;;-2339.5174;;-2364.2377;;-2388.2235;;-2410.0622;;-2426.9528;;-2436.9133;;-2440.808;;-2441.2881;;-2440.7412;;-2441.5908;;-2446.6849;;-2456.573;;-2467.2627;;-2473.7595;;-2475.6034;;-2475.6034
-21.527597;;-21.527597;;-21.527597;;-21.527597;;-21.527597;;-21.527597;;-21.527597;;-21.527597;;-21.527597;;-21.527597;;-21.527597;;-21.527597;;-21.527597;;-21.527603;;-21.528673;;-21.99841;;-25.845037;;-32.00806;;-40.699675;;-52.484848;;-68.174958;;-88.956881;;-115.91163;;-150.80456;;-195.6155;;-252.65169;;-324.05853;;-412.15422;;-519.16407;;-646.57981;;-794.1998;;-958.25663;;-1127.7377;;-1278.3002;;-1388.9712;;-1475.0574;;-1555.0579;;-1641.3637;;-1738.5659;;-1842.4604;;-1942.4865;;-2028.3132;;-2095.8178;;-2147.4437;;-2187.9237;;-2221.2661;;-2250.5724;;-2278.1117;;-2304.9092;;-2331.1086;;-2356.8276;;-2381.8427;;-2404.3657;;-2421.3999;;-2431.4072;;-2436.0783;;-2438.5426;;-2440.7773;;-2443.7649;;-2448.1661;;-2452.551;;-2452.8322;;-2447.1381;;-2440.5751;;-2440.5751
-21.527597;;-21.527597;;-21.527597;;-21.527597;;-21.527597;;-21.527597;;-21.527597;;-21.527597;;-21.527597;;-21.527597;;-21.527597;;-21.527597;;-21.527597;;-21.527598;;-21.527802;;-21.63846;;-24.716224;;-30.313554;;-38.406362;;-49.474556;;-64.274593;;-83.814709;;-109.37329;;-142.53053;;-185.33185;;-239.77779;;-308.19307;;-392.87237;;-496.14662;;-619.7457;;-763.95266;;-925.93676;;-1096.4126;;-1253.4609;;-1368.8254;;-1455.8905;;-1537.6367;;-1627.1544;;-1728.0615;;-1835.2466;;-1937.7607;;-2025.2178;;-2093.5532;;-2145.2265;;-2184.8958;;-2216.6603;;-2244.0787;;-2269.9821;;-2295.6715;;-2321.2461;;-2346.6142;;-2371.2755;;-2393.3593;;-2410.2513;;-2420.9302;;-2427.1595;;-2431.8298;;-2436.612;;-2440.9811;;-2441.4586;;-2431.6551;;-2407.1539;;-2373.6675;;-2348.4972;;-2348.4972
-21.527597;;-21.527597;;-21.527597;;-21.527597;;-21.527597;;-21.527597;;-21.527597;;-21.527597;;-21.527597;;-21.527597;;-21.527597;;-21.527597;;-21.527597;;-21.527597;;-21.527624;;-21.556732;;-23.958143;;-29.168447;;-36.863466;;-47.461783;;-61.687757;;-80.519521;;-105.20246;;-137.2811;;-178.63321;;-231.62626;;-298.24068;;-380.89995;;-482.02698;;-603.53726;;-746.0734;;-907.49767;;-1079.8728;;-1243.6734;;-1367.0091;;-1458.1447;;-1542.6232;;-1633.604;;-1734.4536;;-1840.628;;-1942.0249;;-2028.5151;;-2095.7189;;-2145.7767;;-2183.3843;;-2212.8986;;-2238.1028;;-2261.9694;;-2285.9281;;-2310.1306;;-2334.3196;;-2357.7844;;-2378.8777;;-2395.6625;;-2407.3742;;-2414.9212;;-2420.1405;;-2424.7101;;-2427.4547;;-2419.8609;;-2387.8997;;-2326.4374;;-2252.9303;;-2201.9456;;-2201.9456
-21.527597;;-21.527597;;-21.527597;;-21.527597;;-21.527597;;-21.527597;;-21.527597;;-21.527597;;-21.527597;;-21.527597;;-21.527597;;-21.527597;;-21.527597;;-21.527597;;-21.5276;;-21.537974;;-23.451622;;-28.404109;;-35.831399;;-46.116325;;-59.965498;;-78.339364;;-102.46386;;-133.98605;;-174.39615;;-226.2824;;-291.96124;;-373.45839;;-473.41206;;-593.8949;;-735.84125;;-897.67383;;-1072.5685;;-1243.129;;-1376.7964;;-1474.3868;;-1561.5977;;-1651.6765;;-1748.892;;-1850.6152;;-1948.4043;;-2032.4201;;-2097.5933;;-2145.5495;;-2181.0734;;-2208.6655;;-2231.9997;;-2253.9928;;-2276.2431;;-2298.9812;;-2321.7422;;-2343.7213;;-2363.7499;;-2380.6014;;-2393.3734;;-2401.4328;;-2405.0202;;-2406.2665;;-2405.0858;;-2389.5733;;-2338.0534;;-2243.9686;;-2135.3449;;-2061.7624;;-2061.7624
-21.527597;;-21.527597;;-21.527597;;-21.527597;;-21.527597;;-21.527597;;-21.527597;;-21.527597;;-21.527597;;-21.527597;;-21.527597;;-21.527597;;-21.527597;;-21.527597;;-21.527598;;-21.531451;;-22.99834;;-27.700903;;-34.85276;;-44.805538;;-58.246362;;-76.114338;;-99.732631;;-130.36098;;-169.95046;;-220.57414;;-284.98127;;-365.06666;;-463.52111;;-582.55811;;-723.38412;;-884.96004;;-1061.5463;;-1237.885;;-1382.8963;;-1488.7857;;-1579.2884;;-1667.7677;;-1760.0059;;-1856.1664;;-1950.0296;;-2032.0471;;-2096.1139;;-2143.0796;;-2177.6548;;-2204.2451;;-2226.2461;;-2246.6201;;-2267.3009;;-2288.5946;;-2309.8236;;-2330.2803;;-2349.4288;;-2366.5582;;-2380.3063;;-2388.4853;;-2389.9248;;-2387.4554;;-2383.5319;;-2366.8369;;-2312.4179;;-2211.2954;;-2093.7724;;-2013.7879;;-2013.7879
-21.527597;;-21.527597;;-21.527597;;-21.527597;;-21.527597;;-21.527597;;-21.527597;;-21.527597;;-21.527597;;-21.527597;;-21.527597;;-21.527597;;-21.527597;;-21.527597;;-21.527597;;-21.528643;;-22.460568;;-26.818951;;-33.581646;;-43.060325;;-55.908797;;-73.029683;;-95.706388;;-125.15564;;-163.28071;;-212.23491;;-274.43788;;-352.16117;;-447.96688;;-564.20047;;-702.34469;;-861.92667;;-1038.3495;;-1218.5957;;-1374.3512;;-1488.9395;;-1582.8466;;-1670.1322;;-1758.3205;;-1850.4466;;-1942.4186;;-2024.7504;;-2090.0563;;-2138.1109;;-2173.292;;-2199.8453;;-2221.0094;;-2239.8749;;-2258.624;;-2277.64;;-2296.4732;;-2315.1791;;-2334.0136;;-2352.2044;;-2367.4757;;-2376.6565;;-2378.1083;;-2375.1559;;-2372.5061;;-2362.9778;;-2325.2128;;-2248.7585;;-2156.7567;;-2093.7576;;-2093.7576
-21.527597;;-21.527597;;-21.527597;;-21.527597;;-21.527597;;-21.527597;;-21.527597;;-21.527597;;-21.527597;;-21.527597;;-21.527597;;-21.527597;;-21.527597;;-21.527597;;-21.527597;;-21.527793;;-21.927411;;-25.774374;;-32.015782;;-40.88219;;-52.966979;;-69.118426;;-90.444091;;-118.33969;;-154.64884;;-201.19923;;-260.55474;;-335.00947;;-427.06895;;-539.19265;;-673.12946;;-828.96729;;-1003.2401;;-1185.1441;;-1349.8144;;-1471.8718;;-1567.5026;;-1653.4239;;-1739.4421;;-1830.6946;;-1924.1383;;-2009.8331;;-2079.0145;;-2130.1988;;-2167.2621;;-2194.5043;;-2215.2833;;-2232.5201;;-2247.9305;;-2261.8739;;-2275.4098;;-2291.2581;;-2311.1072;;-2332.9001;;-2352.074;;-2364.7174;;-2369.8754;;-2371.0829;;-2373.5203;;-2374.4375;;-2359.9562;;-2320.7108;;-2268.6755;;-2231.5564;;-2231.5564
-21.527597;;-21.527597;;-21.527597;;-21.527597;;-21.527597;;-21.527597;;-21.527597;;-21.527597;;-21.527597;;-21.527597;;-21.527597;;-21.527597;;-21.527597;;-21.527597;;-21.527597;;-21.527625;;-21.619225;;-24.647819;;-30.26034;;-38.418935;;-49.617753;;-64.636709;;-84.516059;;-110.57679;;-144.57867;;-188.25963;;-244.1114;;-314.51822;;-401.8774;;-508.71924;;-637.02911;;-787.41982;;-957.51541;;-1138.7182;;-1310.1081;;-1439.5474;;-1535.4825;;-1619.686;;-1705.2364;;-1798.5455;;-1896.4342;;-1987.9644;;-2062.9654;;-2118.6376;;-2158.3592;;-2186.7913;;-2207.5487;;-2222.7372;;-2232.5021;;-2236.9392;;-2240.3873;;-2251.1602;;-2273.7238;;-2303.2842;;-2330.6657;;-2350.3274;;-2362.4715;;-2370.9151;;-2379.8149;;-2388.6771;;-2390.5441;;-2379.4752;;-2359.7923;;-2344.444;;-2344.444
-21.527597;;-21.527597;;-21.527597;;-21.527597;;-21.527597;;-21.527597;;-21.527597;;-21.527597;;-21.527597;;-21.527597;;-21.527597;;-21.527597;;-21.527597;;-21.527597;;-21.527597;;-21.5276;;-21.538351;;-23.447323;;-28.368267;;-35.739552;;-45.940852;;-59.677095;;-77.909264;;-101.98931;;-133.20206;;-173.5403;;-225.25316;;-290.7884;;-372.44181;;-472.74142;;-593.87069;;-736.92994;;-900.61285;;-1078.5642;;-1254.1293;;-1393.9104;;-1492.6776;;-1576.8564;;-1663.4884;;-1760.0896;;-1863.3157;;-1961.4549;;-2043.056;;-2103.9063;;-2146.7884;;-2176.7265;;-2197.4584;;-2209.8975;;-2212.2498;;-2204.4089;;-2194.8234;;-2198.7979;;-2224.5519;;-2264.3266;;-2303.2173;;-2332.7375;;-2353.4358;;-2369.4369;;-2383.8147;;-2396.4913;;-2404.5514;;-2405.7103;;-2401.7763;;-2397.7656;;-2397.7656
-21.527597;;-21.527597;;-21.527597;;-21.527597;;-21.527597;;-21.527597;;-21.527597;;-21.527597;;-21.527597;;-21.527597;;-21.527597;;-21.527597;;-21.527597;;-21.527597;;-21.527597;;-21.527597;;-21.528384;;-22.296167;;-26.465684;;-32.976424;;-42.105051;;-54.471404;;-70.94306;;-92.765885;;-121.10649;;-157.8203;;-205.00404;;-265.09612;;-340.36361;;-433.24898;;-546.09166;;-680.43376;;-835.97615;;-1008.5029;;-1185.6599;;-1339.4414;;-1448.5587;;-1537.1851;;-1626.2409;;-1725.0364;;-1831.4789;;-1934.4054;;-2021.6581;;-2087.5528;;-2133.9167;;-2165.6386;;-2186.1959;;-2195.6571;;-2191.5411;;-2174.4641;;-2155.5952;;-2154.2674;;-2181.388;;-2228.2116;;-2276.6153;;-2315.2638;;-2343.4877;;-2365.1219;;-2382.8887;;-2396.7877;;-2405.5625;;-2409.1689;;-2409.5051;;-2408.973;;-2408.973
-21.527597;;-21.527597;;-21.527597;;-21.527597;;-21.527597;;-21.527597;;-21.527597;;-21.527597;;-21.527597;;-21.527597;;-21.527597;;-21.527597;;-21.527597;;-21.527597;;-21.527597;;-21.527597;;-21.527696;;-21.656645;;-24.780332;;-30.386859;;-38.475164;;-49.533617;;-64.327763;;-83.999753;;-109.60198;;-142.85949;;-185.72672;;-240.52581;;-309.63979;;-395.3865;;-500.22097;;-626.08292;;-773.56873;;-940.36211;;-1118.112;;-1286.6181;;-1415.0453;;-1513.0251;;-1604.9069;;-1703.1058;;-1808.3687;;-1911.3898;;-2000.1687;;-2068.3645;;-2117.4956;;-2152.0234;;-2174.1224;;-2182.9694;;-2177.2467;;-2159.6232;;-2141.3242;;-2139.8358;;-2165.501;;-2211.6533;;-2261.9819;;-2304.4014;;-2336.1686;;-2360.0299;;-2378.8689;;-2393.1107;;-2401.9297;;-2405.7925;;-2406.7683;;-2406.8249;;-2406.8249
-21.527597;;-21.527597;;-21.527597;;-21.527597;;-21.527597;;-21.527597;;-21.527597;;-21.527597;;-21.527597;;-21.527597;;-21.527597;;-21.527597;;-21.527597;;-21.527597;;-21.527597;;-21.527597;;-21.527644;;-21.544201;;-23.413405;;-28.24562;;-35.468227;;-45.444522;;-58.861493;;-76.659894;;-100.16609;;-130.64114;;-170.05025;;-220.61052;;-284.84145;;-365.05774;;-463.7748;;-583.29111;;-724.95311;;-887.96152;;-1067.0238;;-1247.7146;;-1399.5898;;-1509.9044;;-1604.0884;;-1699.2476;;-1798.9778;;-1895.2448;;-1976.659;;-2039.1682;;-2088.0282;;-2128.4271;;-2158.5021;;-2173.7136;;-2173.875;;-2164.6756;;-2156.0378;;-2159.6533;;-2182.6601;;-2221.8293;;-2266.2155;;-2305.4574;;-2335.3736;;-2357.5575;;-2375.1908;;-2389.3133;;-2398.9948;;-2403.9264;;-2405.504;;-2405.6884;;-2405.6884
-21.527597;;-21.527597;;-21.527597;;-21.527597;;-21.527597;;-21.527597;;-21.527597;;-21.527597;;-21.527597;;-21.527597;;-21.527597;;-21.527597;;-21.527597;;-21.527597;;-21.527597;;-21.527597;;-21.527623;;-21.532135;;-22.467473;;-26.71786;;-33.294191;;-42.487166;;-54.931468;;-71.514042;;-93.503914;;-122.10438;;-159.21892;;-207.00515;;-268.01911;;-344.7961;;-439.83852;;-555.71934;;-694.33108;;-855.88472;;-1036.9665;;-1226.5756;;-1398.6392;;-1522.4501;;-1619.1084;;-1711.4595;;-1803.728;;-1886.3101;;-1948.3806;;-1993.2618;;-2037.1574;;-2088.2359;;-2136.3529;;-2167.6142;;-2180.3039;;-2183.3219;;-2186.5277;;-2196.8976;;-2218.3442;;-2249.9939;;-2285.7379;;-2317.896;;-2342.3227;;-2360.1781;;-2374.9287;;-2388.1795;;-2398.8329;;-2405.3964;;-2408.0477;;-2408.5443;;-2408.5443
-21.527597;;-21.527597;;-21.527597;;-21.527597;;-21.527597;;-21.527597;;-21.527597;;-21.527597;;-21.527597;;-21.527597;;-21.527597;;-21.527597;;-21.527597;;-21.527597;;-21.527597;;-21.527597;;-21.527607;;-21.529132;;-21.937705;;-25.685198;;-31.773574;;-40.412975;;-52.188102;;-67.946738;;-88.921062;;-116.28015;;-151.89016;;-197.87758;;-256.78517;;-331.35391;;-424.10231;;-537.74901;;-674.54014;;-835.31643;;-1017.8257;;-1213.2939;;-1399.6034;;-1537.9107;;-1639.569;;-1732.187;;-1818.3869;;-1884.4201;;-1919.8925;;-1939.5799;;-1975.5767;;-2039.9101;;-2111.6818;;-2163.9269;;-2190.7752;;-2204.04;;-2215.7276;;-2231.4526;;-2253.1737;;-2280.4204;;-2309.508;;-2335.0641;;-2353.9746;;-2367.5177;;-2379.2226;;-2391.0602;;-2402.0277;;-2409.8607;;-2413.6261;;-2414.6091;;-2414.6091
-21.527597;;-21.527597;;-21.527597;;-21.527597;;-21.527597;;-21.527597;;-21.527597;;-21.527597;;-21.527597;;-21.527597;;-21.527597;;-21.527597;;-21.527597;;-21.527597;;-21.527602;;-21.527621;;-21.527682;;-21.528217;;-21.677506;;-24.84712;;-30.488197;;-38.635713;;-49.810998;;-64.936526;;-84.86143;;-111.06536;;-145.25278;;-189.5039;;-246.31829;;-318.53654;;-408.72302;;-519.63746;;-653.75996;;-812.38785;;-994.16693;;-1192.1333;;-1387.6638;;-1541.8623;;-1652.7437;;-1750.0758;;-1835.0361;;-1890.1074;;-1905.5057;;-1905.8446;;-1935.5073;;-2008.8117;;-2096.7953;;-2162.998;;-2198.0259;;-2216.0134;;-2232.0538;;-2252.0406;;-2276.0108;;-2302.2291;;-2327.9337;;-2349.7116;;-2365.6326;;-2376.9667;;-2386.9098;;-2397.5614;;-2408.2591;;-2416.5943;;-2421.0202;;-2422.3699;;-2422.3699
-21.527597;;-21.527597;;-21.527597;;-21.527597;;-21.527597;;-21.527597;;-21.527597;;-21.527597;;-21.527597;;-21.527597;;-21.527597;;-21.527597;;-21.527599;;-21.52767;;-21.52824;;-21.530497;;-21.535856;;-21.544259;;-21.59496;;-24.004786;;-29.147876;;-36.735369;;-47.207339;;-61.43339;;-80.211922;;-104.96229;;-137.31789;;-179.27967;;-233.25553;;-302.07238;;-388.3544;;-494.80795;;-624.05701;;-777.76362;;-955.36404;;-1151.56;;-1351.1578;;-1520.0652;;-1643.0044;;-1749.3659;;-1841.5198;;-1900.3341;;-1915.9294;;-1915.0067;;-1943.3458;;-2015.1699;;-2101.3135;;-2165.052;;-2196.8887;;-2212.8092;;-2230.8126;;-2256.4494;;-2285.7646;;-2314.0247;;-2339.1404;;-2359.9282;;-2375.49;;-2386.7261;;-2396.2734;;-2406.2237;;-2416.2798;;-2424.2631;;-2428.5599;;-2429.8664;;-2429.8664
-21.527597;;-21.527597;;-21.527597;;-21.527597;;-21.527597;;-21.527597;;-21.527597;;-21.527597;;-21.527597;;-21.527597;;-21.527597;;-21.527597;;-21.527643;;-21.528595;;-21.535342;;-21.56054;;-21.618785;;-21.71519;;-21.89794;;-23.280399;;-27.795944;;-34.687517;;-44.294152;;-57.412527;;-74.768025;;-97.69094;;-127.71257;;-166.7164;;-216.97967;;-281.1976;;-362.04803;;-462.10267;;-584.02218;;-729.72265;;-899.28301;;-1088.8425;;-1286.3226;;-1463.715;;-1596.7012;;-1714.2156;;-1823.7867;;-1904.9635;;-1943.1876;;-1958.4433;;-1989.6625;;-2051.0789;;-2120.9839;;-2169.8024;;-2190.1319;;-2199.2996;;-2218.0674;;-2251.0279;;-2288.4474;;-2321.0919;;-2347.3849;;-2368.6552;;-2385.0273;;-2396.9467;;-2406.4866;;-2415.6263;;-2424.3539;;-2431.0072;;-2434.4177;;-2435.3618;;-2435.3618
-21.527597;;-21.527597;;-21.527597;;-21.527597;;-21.527597;;-21.527597;;-21.527597;;-21.527597;;-21.527597;;-21.527597;;-21.527597;;-21.527602;;-21.528006;;-21.534169;;-21.573166;;-21.711211;;-22.039145;;-22.751397;;-23.838714;;-24.674769;;-27.242632;;-32.983626;;-41.586898;;-53.305992;;-69.051194;;-89.926858;;-117.33754;;-153.02186;;-199.09357;;-258.07301;;-332.63549;;-425.19424;;-538.33979;;-674.12819;;-833.10016;;-1012.5133;;-1202.79;;-1381.0325;;-1518.5259;;-1645.9756;;-1779.4723;;-1895.5492;;-1969.0221;;-2006.8479;;-2040.9847;;-2089.8339;;-2143.1058;;-2179.187;;-2190.877;;-2194.6409;;-2213.1821;;-2251.0222;;-2294.3018;;-2330.137;;-2357.0795;;-2378.4328;;-2395.2821;;-2407.7045;;-2417.0321;;-2424.8073;;-2431.3021;;-2435.8532;;-2438.1725;;-2438.9126;;-2438.9126
-21.527597;;-21.527597;;-21.527597;;-21.527597;;-21.527597;;-21.527597;;-21.527597;;-21.527597;;-21.527597;;-21.527597;;-21.527623;;-21.527867;;-21.530661;;-21.557388;;-21.703834;;-22.202442;;-23.382384;;-25.247245;;-27.149763;;-28.298775;;-29.359445;;-32.978889;;-39.838637;;-50.007023;;-64.032801;;-82.850943;;-107.71949;;-140.2252;;-182.31447;;-236.3249;;-304.91714;;-390.4067;;-495.24785;;-621.59455;;-770.35617;;-939.70706;;-1122.1258;;-1298.8346;;-1439.2174;;-1574.2787;;-1729.5034;;-1878.7341;;-1985.3232;;-2041.5712;;-2075.7767;;-2115.0715;;-2161.1017;;-2196.936;;-2211.726;;-2217.1235;;-2234.712;;-2270.3692;;-2311.3126;;-2344.739;;-2369.2574;;-2388.8298;;-2405.1001;;-2417.7423;;-2426.9115;;-2433.2551;;-2437.3614;;-2439.9039;;-2441.5618;;-2442.5137;;-2442.5137
-21.527597;;-21.527597;;-21.527597;;-21.527597;;-21.527597;;-21.527597;;-21.527597;;-21.527597;;-21.527597;;-21.527599;;-21.527887;;-21.530475;;-21.546451;;-21.639024;;-22.072832;;-23.451025;;-25.822669;;-28.730687;;-31.44794;;-33.114819;;-34.000853;;-36.497928;;-41.28689;;-48.994029;;-60.857988;;-77.552971;;-100.09943;;-129.8959;;-168.72351;;-218.76156;;-282.58986;;-362.67098;;-461.28362;;-580.73091;;-722.35018;;-885.26525;;-1063.9772;;-1243.6565;;-1394.8764;;-1537.1149;;-1703.99;;-1871.3726;;-1997.8637;;-2065.3805;;-2098.9655;;-2133.3974;;-2179.7202;;-2223.7255;;-2250.062;;-2263.0401;;-2279.4858;;-2306.7598;;-2337.5639;;-2363.016;;-2382.1178;;-2398.2919;;-2413.1922;;-2425.9751;;-2435.3883;;-2441.0308;;-2443.7032;;-2445.0366;;-2446.2754;;-2447.3001;;-2447.3001
-21.527597;;-21.527597;;-21.527597;;-21.527597;;-21.527597;;-21.527597;;-21.527597;;-21.527597;;-21.527597;;-21.527609;;-21.529137;;-21.542855;;-21.610793;;-21.897985;;-23.102575;;-25.643014;;-29.063419;;-32.934515;;-36.563265;;-38.577671;;-39.575543;;-41.895521;;-46.254775;;-52.203794;;-60.419667;;-74.28755;;-94.453487;;-121.88119;;-158.08772;;-205.07896;;-265.32342;;-341.55045;;-435.98888;;-551.10097;;-688.75972;;-849.12161;;-1028.7346;;-1216.8019;;-1389.7171;;-1541.8137;;-1709.0529;;-1877.4079;;-2009.9703;;-2085.9724;;-2124.2113;;-2159.1259;;-2206.2405;;-2255.2537;;-2290.3302;;-2310.1418;;-2325.3144;;-2343.2948;;-2362.6613;;-2379.427;;-2393.1948;;-2406.3794;;-2420.2067;;-2433.2421;;-2443.0917;;-2448.6019;;-2450.5472;;-2450.6946;;-2450.4791;;-2450.4071;;-2450.4071
-21.527597;;-21.527597;;-21.527597;;-21.527597;;-21.527597;;-21.527597;;-21.527597;;-21.527597;;-21.527597;;-21.527638;;-21.532745;;-21.579008;;-21.793667;;-22.652476;;-24.986875;;-28.463361;;-32.775698;;-37.540998;;-41.807022;;-44.2514;;-45.372672;;-47.572422;;-51.522328;;-56.575001;;-62.269338;;-71.723001;;-89.141231;;-114.1176;;-147.72304;;-191.74737;;-248.52164;;-320.85009;;-411.2621;;-522.20642;;-656.06332;;-813.94871;;-994.27045;;-1189.9517;;-1383.8899;;-1552.2314;;-1714.7556;;-1875.4446;;-2009.0357;;-2097.0809;;-2149.2988;;-2191.3837;;-2237.9694;;-2284.2368;;-2319.306;;-2340.6713;;-2354.2672;;-2366.2389;;-2378.4789;;-2390.307;;-2401.8022;;-2414.3641;;-2428.3684;;-2441.7112;;-2451.3807;;-2455.9233;;-2455.9833;;-2453.2057;;-2449.5153;;-2446.948;;-2446.948
-21.527597;;-21.527597;;-21.527597;;-21.527597;;-21.527597;;-21.527597;;-21.527597;;-21.527597;;-21.527598;;-21.527761;;-21.540413;;-21.655227;;-22.227799;;-24.126115;;-27.329877;;-31.525112;;-36.58688;;-41.812605;;-46.500445;;-49.186569;;-50.401852;;-52.265561;;-55.26681;;-58.800921;;-62.672437;;-68.435402;;-82.558864;;-104.56161;;-134.90911;;-175.07939;;-227.20373;;-293.95216;;-378.16719;;-482.2236;;-608.76852;;-759.65626;;-934.75956;;-1129.8604;;-1332.7069;;-1518.2689;;-1679.9622;;-1834.1938;;-1970.6152;;-2075.229;;-2149.9269;;-2208.1275;;-2259.0876;;-2302.3184;;-2333.8717;;-2353.7278;;-2366.1385;;-2376.0009;;-2386.1566;;-2397.3303;;-2409.7944;;-2423.9825;;-2439.0912;;-2452.2745;;-2460.3024;;-2461.823;;-2457.7381;;-2450.2754;;-2442.4584;;-2437.4987;;-2437.4987
-21.527597;;-21.527597;;-21.527597;;-21.527597;;-21.527597;;-21.527597;;-21.527597;;-21.527597;;-21.527645;;-21.528786;;-21.557713;;-21.819456;;-23.250742;;-26.153004;;-30.092568;;-34.855373;;-40.164731;;-45.320653;;-49.512371;;-51.839133;;-53.041277;;-54.405882;;-56.189899;;-58.058738;;-60.405287;;-64.395784;;-74.618423;;-93.170997;;-119.53113;;-154.80786;;-200.85523;;-260.06902;;-335.28863;;-428.87544;;-543.38326;;-681.05677;;-842.72612;;-1026.2515;;-1223.5657;;-1416.1666;;-1582.6756;;-1734.3207;;-1874.2499;;-1995.4806;;-2097.0391;;-2182.0685;;-2251.1546;;-2302.6322;;-2336.8443;;-2357.6766;;-2370.7642;;-2381.1505;;-2391.8684;;-2404.0348;;-2418.0383;;-2433.8225;;-2449.746;;-2462.2261;;-2467.6991;;-2465.135;;-2456.5465;;-2445.6545;;-2436.3463;;-2431.2391;;-2431.2391
-21.527597;;-21.527597;;-21.527597;;-21.527597;;-21.527597;;-21.527597;;-21.527597;;-21.5276;;-21.528011;;-21.534515;;-21.611063;;-22.413879;;-24.995729;;-28.748442;;-33.416996;;-38.72471;;-43.944108;;-48.22083;;-50.883813;;-52.318514;;-53.166948;;-53.938621;;-54.652618;;-55.290861;;-56.632583;;-59.908239;;-66.780939;;-81.535281;;-103.51615;;-133.43378;;-172.78372;;-223.61192;;-288.42606;;-369.59966;;-469.34872;;-589.9695;;-732.78263;;-897.00109;;-1077.6564;;-1262.2918;;-1430.6906;;-1581.4724;;-1723.3864;;-1858.2287;;-1987.3768;;-2107.7894;;-2209.8173;;-2284.7568;;-2332.3279;;-2359.7866;;-2376.1406;;-2388.0271;;-2398.8147;;-2409.8829;;-2422.3766;;-2437.231;;-2453.261;;-2466.13;;-2470.981;;-2466.6778;;-2456.8558;;-2446.8974;;-2440.4234;;-2437.8174;;-2437.8174
-21.527597;;-21.527597;;-21.527597;;-21.527597;;-21.527597;;-21.527597;;-21.527604;;-21.52767;;-21.529734;;-21.554917;;-21.836432;;-23.826133;;-27.282583;;-31.813279;;-37.174718;;-42.957618;;-48.101825;;-50.809192;;-51.418997;;-51.559824;;-51.764898;;-52.001431;;-52.056615;;-52.047886;;-52.901961;;-55.817848;;-61.016152;;-71.148445;;-88.587129;;-113.17807;;-145.93896;;-188.50881;;-242.99396;;-311.65184;;-396.34241;;-499.20356;;-621.76454;;-764.07873;;-923.30538;;-1091.4673;;-1254.1743;;-1404.3464;;-1549.3291;;-1697.6967;;-1853.7705;;-2011.0288;;-2151.492;;-2257.7866;;-2325.6505;;-2363.9632;;-2385.0465;;-2397.4949;;-2405.3421;;-2410.8801;;-2417.347;;-2428.5078;;-2444.914;;-2461.3154;;-2470.263;;-2469.3016;;-2463.0359;;-2457.8504;;-2456.3746;;-2456.9293;;-2456.9293
-21.527597;;-21.527597;;-21.527597;;-21.527597;;-21.527599;;-21.527696;;-21.528512;;-21.531963;;-21.54614;;-21.63304;;-22.654887;;-25.612016;;-29.800681;;-35.027603;;-41.068656;;-47.176459;;-52.133089;;-53.124235;;-51.843341;;-50.663661;;-50.208756;;-50.168802;;-50.100131;;-50.014409;;-50.682083;;-53.137235;;-57.518231;;-63.740528;;-76.132053;;-95.48007;;-122.06905;;-157.0376;;-202.04602;;-259.13405;;-329.96069;;-416.35753;;-519.95559;;-641.40932;;-779.50092;;-929.8373;;-1084.3423;;-1238.0041;;-1395.4048;;-1563.9959;;-1746.5093;;-1933.4524;;-2104.0848;;-2236.7565;;-2323.2976;;-2371.9795;;-2396.5851;;-2407.197;;-2409.1819;;-2406.7754;;-2405.9862;;-2413.4465;;-2431.2532;;-2453.2623;;-2469.4043;;-2475.1554;;-2474.7066;;-2474.5172;;-2476.6362;;-2478.9095;;-2478.9095
-21.527597;;-21.527597;;-21.527597;;-21.527619;;-21.52779;;-21.529319;;-21.538707;;-21.574251;;-21.692322;;-22.092418;;-23.814894;;-27.252767;;-31.89607;;-37.573904;;-43.970737;;-50.241011;;-54.719134;;-54.604027;;-52.450196;;-50.5985;;-49.840966;;-49.892049;;-50.172919;;-50.441269;;-51.075777;;-52.842542;;-56.180118;;-60.941634;;-67.75611;;-81.791587;;-102.86337;;-131.39915;;-168.57739;;-216.0559;;-275.56057;;-348.60292;;-436.93837;;-541.83479;;-663.60623;;-801.14554;;-952.36517;;-1117.6296;;-1299.4855;;-1496.1437;;-1701.5081;;-1904.7134;;-2088.3442;;-2232.8891;;-2328.8768;;-2382.4554;;-2407.0288;;-2414.0599;;-2411.1849;;-2404.6972;;-2401.5562;;-2408.4591;;-2427.3876;;-2452.1888;;-2472.4743;;-2482.7804;;-2486.1531;;-2488.3498;;-2491.4177;;-2493.8155;;-2493.8155
-21.527597;;-21.527597;;-21.527683;;-21.528654;;-21.533728;;-21.553308;;-21.624566;;-21.973328;;-23.136854;;-24.296385;;-25.607594;;-28.531699;;-32.962997;;-38.503245;;-44.698309;;-50.552798;;-54.380159;;-54.633831;;-53.098514;;-51.673372;;-51.223879;;-51.670125;;-52.481257;;-53.230284;;-53.957634;;-55.189979;;-57.543701;;-61.316251;;-66.269719;;-73.552221;;-89.542181;;-113.0398;;-144.50226;;-185.19065;;-236.86654;;-301.22985;;-380.24769;;-476.236;;-591.65971;;-729.21334;;-891.35782;;-1078.6438;;-1287.0853;;-1506.837;;-1724.0744;;-1926.5193;;-2104.0501;;-2243.7629;;-2337.127;;-2388.3357;;-2410.2199;;-2415.8025;;-2414.6447;;-2413.0023;;-2415.1762;;-2424.4752;;-2441.5483;;-2461.9487;;-2478.3167;;-2486.8078;;-2489.9485;;-2492.3527;;-2495.5638;;-2498.0247;;-2498.0247
-21.527603;;-21.527603;;-21.528442;;-21.537319;;-21.580919;;-21.727075;;-22.356886;;-24.165341;;-26.354121;;-27.98458;;-29.086487;;-30.985391;;-34.188765;;-38.719503;;-43.740612;;-48.46767;;-51.94985;;-53.594132;;-53.827441;;-53.65617;;-53.920829;;-54.845653;;-56.135163;;-57.329684;;-58.236987;;-59.180961;;-60.836149;;-63.725371;;-67.701085;;-72.409755;;-85.431783;;-107.23435;;-137.48482;;-177.36668;;-228.85333;;-294.50297;;-377.05595;;-479.14928;;-603.79764;;-753.60145;;-930.00319;;-1131.9819;;-1353.8251;;-1581.9233;;-1794.1925;;-1977.6716;;-2132.8476;;-2253.9297;;-2334.6995;;-2379.6678;;-2401.548;;-2413.0663;;-2422.4699;;-2432.7332;;-2443.5591;;-2454.4638;;-2465.2996;;-2474.5006;;-2479.5563;;-2480.4554;;-2480.8304;;-2484.0894;;-2489.6378;;-2493.884;;-2493.884
-21.527632;;-21.527632;;-21.531585;;-21.572376;;-21.775355;;-22.612889;;-24.76612;;-27.724021;;-30.772748;;-32.824374;;-33.762121;;-35.142397;;-37.092753;;-39.794793;;-42.811906;;-46.263224;;-49.828555;;-52.902956;;-54.972865;;-56.150465;;-57.130756;;-58.415785;;-60.003783;;-61.514571;;-62.596131;;-63.393491;;-64.562573;;-66.634632;;-69.467275;;-76.830705;;-94.692265;;-120.66497;;-155.44938;;-200.73106;;-258.82543;;-332.58035;;-424.76538;;-538.37443;;-676.42365;;-841.1904;;-1033.2287;;-1249.5518;;-1480.3247;;-1703.7759;;-1889.4833;;-2036.0362;;-2155.8484;;-2248.6661;;-2312.9888;;-2355.1492;;-2385.4739;;-2411.5523;;-2435.9946;;-2457.4197;;-2473.0654;;-2481.436;;-2482.8002;;-2478.0396;;-2469.0382;;-2460.5228;;-2458.7075;;-2465.9252;;-2477.6072;;-2486.0356;;-2486.0356
-21.527805;;-21.527805;;-21.540199;;-21.668103;;-22.520945;;-24.910059;;-28.31394;;-32.326526;;-36.249883;;-38.672271;;-39.32581;;-39.840796;;-40.696175;;-41.700583;;-43.297126;;-46.020292;;-49.726401;;-53.595858;;-56.697342;;-58.715542;;-60.082647;;-61.416212;;-63.018502;;-64.663794;;-65.881771;;-66.648346;;-67.543748;;-68.974108;;-73.086256;;-88.286098;;-111.59571;;-143.34361;;-184.97375;;-238.60342;;-306.91171;;-392.76734;;-499.13973;;-629.23783;;-785.83053;;-970.41622;;-1181.7215;;-1412.9984;;-1646.6592;;-1846.0137;;-1985.5508;;-2086.1034;;-2165.1495;;-2228.7113;;-2281.7006;;-2330.0821;;-2376.6515;;-2419.5039;;-2454.8352;;-2479.8542;;-2493.374;;-2495.4636;;-2486.9081;;-2469.5971;;-2448.4534;;-2432.5546;;-2431.035;;-2444.9642;;-2464.9639;;-2478.6536;;-2478.6536
-21.528833;;-21.528833;;-21.563302;;-22.132801;;-24.554303;;-28.187882;;-32.744496;;-37.761453;;-42.513094;;-45.209217;;-44.948162;;-43.99804;;-43.138993;;-43.232321;;-44.756893;;-47.670182;;-51.507784;;-55.475888;;-58.784722;;-61.032637;;-62.379596;;-63.410924;;-64.724758;;-66.367003;;-68.047413;;-70.427867;;-73.658707;;-76.689197;;-85.785316;;-105.92299;;-134.99631;;-173.81383;;-224.19874;;-288.63592;;-370.03513;;-471.1761;;-595.35191;;-745.63392;;-924.21817;;-1131.0897;;-1361.3493;;-1600.9188;;-1817.9633;;-1968.1173;;-2058.7559;;-2118.8838;;-2166.0553;;-2212.1694;;-2265.4687;;-2326.8284;;-2388.4259;;-2440.113;;-2476.2268;;-2496.7016;;-2503.9047;;-2499.3656;;-2483.3869;;-2457.7197;;-2429.1673;;-2409.8541;;-2410.5172;;-2430.5355;;-2456.8286;;-2474.1604;;-2474.1604
-21.533184;;-21.533184;;-21.733038;;-23.802162;;-27.373237;;-32.06026;;-37.636994;;-43.624026;;-49.248026;;-51.623078;;-49.666187;;-46.219137;;-43.695868;;-43.75532;;-46.269135;;-50.032399;;-54.086835;;-57.823267;;-60.884566;;-62.997518;;-64.178209;;-65.43914;;-68.023424;;-72.278774;;-78.043079;;-84.249891;;-89.767833;;-94.151024;;-104.83011;;-129.34647;;-164.82133;;-212.05333;;-273.07422;;-350.68608;;-447.67472;;-566.975;;-711.80284;;-884.54903;;-1085.7853;;-1312.1982;;-1552.527;;-1779.8159;;-1945.485;;-2040.4807;;-2096.8902;;-2136.4549;;-2174.0826;;-2221.5572;;-2283.8831;;-2354.6631;;-2419.6936;;-2467.4534;;-2495.4628;;-2507.8653;;-2509.2327;;-2500.8695;;-2481.8257;;-2453.3683;;-2423.0763;;-2403.8904;;-2406.0983;;-2427.6737;;-2454.6924;;-2472.133;;-2472.133
-21.557333;;-21.557333;;-22.757157;;-25.976842;;-30.479785;;-36.101114;;-42.551971;;-49.467373;;-55.440993;;-56.389049;;-52.174272;;-47.123611;;-43.777208;;-44.395616;;-48.01626;;-52.590782;;-56.749766;;-60.077105;;-62.718723;;-65.411109;;-70.785465;;-76.495152;;-81.619367;;-88.034132;;-96.420572;;-105.46657;;-113.25148;;-119.18399;;-130.08986;;-158.6782;;-201.22581;;-258.07167;;-331.33677;;-424.0514;;-538.65648;;-678.15694;;-845.17916;;-1040.6619;;-1262.0978;;-1499.8925;;-1730.0989;;-1904.5631;;-2004.3218;;-2065.3354;;-2112.0718;;-2156.5534;;-2206.1924;;-2265.835;;-2334.2342;;-2401.9643;;-2456.594;;-2491.4617;;-2508.671;;-2514.4038;;-2512.8902;;-2504.2272;;-2486.5433;;-2460.6015;;-2433.2211;;-2415.734;;-2416.6497;;-2433.9309;;-2455.9007;;-2470.1564;;-2470.1564
-21.850822;;-21.850822;;-24.389799;;-28.428888;;-33.70598;;-40.110528;;-47.261633;;-54.675966;;-60.373967;;-58.921626;;-53.759363;;-48.465458;;-45.378088;;-46.766592;;-50.861118;;-55.54908;;-59.3495;;-62.274074;;-67.875314;;-76.785413;;-86.314885;;-94.918004;;-102.18662;;-110.85153;;-122.0472;;-134.1308;;-144.50193;;-152.34415;;-163.13583;;-194.38209;;-244.17386;;-311.54244;;-398.38206;;-507.78159;;-641.57661;;-802.4844;;-991.90889;;-1208.0965;;-1442.8692;;-1674.7358;;-1856.9542;;-1959.5307;;-2021.1992;;-2075.3545;;-2135.0581;;-2200.1811;;-2267.4774;;-2334.2015;;-2396.4199;;-2448.3262;;-2484.9695;;-2505.839;;-2515.0069;;-2517.4844;;-2515.7626;;-2509.1462;;-2495.7077;;-2475.6059;;-2453.5357;;-2437.739;;-2434.8151;;-2444.1398;;-2457.9848;;-2467.4492;;-2467.4492
-23.157289;;-23.157289;;-26.457951;;-31.263753;;-37.358734;;-44.541454;;-52.560698;;-60.367493;;-65.358917;;-61.845402;;-56.113873;;-51.177657;;-49.032829;;-50.978504;;-54.995029;;-59.102638;;-62.77642;;-70.63997;;-81.879172;;-95.111836;;-108.55999;;-120.21574;;-129.79913;;-141.03871;;-155.55877;;-171.25481;;-184.74875;;-194.9876;;-206.47761;;-237.71544;;-294.07445;;-372.24707;;-473.36204;;-600.2511;;-753.74512;;-935.64342;;-1145.1795;;-1375.9798;;-1610.0787;;-1806.34;;-1923.1341;;-1988.7125;;-2042.8815;;-2108.9487;;-2188.6935;;-2271.0539;;-2344.94;;-2404.664;;-2449.1767;;-2479.9073;;-2499.3631;;-2510.4468;;-2515.9921;;-2518.0997;;-2517.5543;;-2513.7348;;-2505.3181;;-2491.8735;;-2475.5885;;-2461.451;;-2454.5139;;-2455.9153;;-2461.8318;;-2466.6288;;-2466.6288
-24.91283;;-24.91283;;-28.672084;;-34.107857;;-40.961746;;-48.950647;;-57.807029;;-66.26566;;-70.784657;;-65.845988;;-59.476631;;-54.862117;;-53.795068;;-56.089878;;-59.729242;;-63.920052;;-73.0263;;-86.160974;;-102.21998;;-120.03075;;-137.88491;;-153.13605;;-165.43168;;-179.72193;;-198.24466;;-218.31883;;-235.63348;;-248.87661;;-262.37563;;-291.88628;;-351.94685;;-439.71157;;-554.4974;;-698.22178;;-870.16577;;-1070.0811;;-1293.6035;;-1526.9188;;-1737.534;;-1881.7014;;-1970.1314;;-2034.4065;;-2100.6664;;-2180.9963;;-2269.6626;;-2351.9153;;-2416.0223;;-2458.4257;;-2482.4932;;-2495.0727;;-2502.6646;;-2508.7796;;-2513.8594;;-2517.1215;;-2518.1184;;-2516.7313;;-2512.501;;-2504.7445;;-2493.7761;;-2482.0191;;-2473.1515;;-2469.3528;;-2469.5818;;-2470.8459;;-2470.8459
-26.405987;;-26.405987;;-30.505138;;-36.427062;;-43.885474;;-52.552089;;-62.132884;;-71.216934;;-75.587017;;-69.751239;;-62.803314;;-58.353995;;-58.179091;;-60.779142;;-65.002297;;-74.867508;;-89.392536;;-107.70264;;-129.01608;;-152.24813;;-175.38375;;-194.96226;;-210.4787;;-228.28885;;-251.35307;;-276.46712;;-298.28047;;-315.23169;;-332.69087;;-362.27909;;-421.56225;;-514.48667;;-639.68774;;-796.99978;;-983.54899;;-1195.0918;;-1421.8315;;-1639.9731;;-1810.3448;;-1931.0729;;-2024.4934;;-2107.2465;;-2190.2321;;-2274.9443;;-2354.3266;;-2419.238;;-2464.1794;;-2489.0579;;-2498.5163;;-2500.1487;;-2501.2086;;-2505.1001;;-2510.7563;;-2515.4614;;-2517.8222;;-2518.0751;;-2516.5634;;-2512.8308;;-2506.3491;;-2497.9041;;-2489.7801;;-2484.1239;;-2481.3483;;-2480.443;;-2480.443
-27.575243;;-27.575243;;-31.913208;;-38.175076;;-46.051236;;-55.175373;;-65.21796;;-74.627172;;-78.4865;;-72.197481;;-65.098151;;-61.00941;;-61.496263;;-65.407204;;-75.899791;;-91.450714;;-111.47231;;-135.568;;-163.1211;;-192.92573;;-222.33866;;-246.84063;;-265.92542;;-287.59438;;-315.8149;;-346.7888;;-373.95513;;-395.50321;;-417.98068;;-452.39377;;-511.57792;;-603.08837;;-730.06877;;-892.3252;;-1084.7878;;-1296.1274;;-1510.185;;-1698.7214;;-1848.3482;;-1972.2197;;-2083.2295;;-2187.0092;;-2281.1203;;-2359.4012;;-2418.5514;;-2460.177;;-2487.2818;;-2501.4911;;-2504.8081;;-2502.1877;;-2500.1776;;-2502.5853;;-2508.3477;;-2513.9736;;-2517.3012;;-2518.4982;;-2518.4071;;-2517.0699;;-2513.9407;;-2509.0147;;-2503.3407;;-2498.308;;-2494.737;;-2492.8905;;-2492.8905
-28.661021;;-28.661021;;-33.187359;;-39.70871;;-47.884588;;-57.29073;;-67.537282;;-76.866156;;-79.281897;;-72.975994;;-66.419863;;-63.222376;;-65.489792;;-76.063275;;-92.247942;;-113.45383;;-139.68206;;-170.53657;;-205.41824;;-242.88552;;-279.58824;;-309.78339;;-332.89706;;-358.77556;;-392.63373;;-430.13706;;-463.48522;;-490.69499;;-519.64545;;-562.55834;;-627.69964;;-719.78514;;-840.68624;;-992.65374;;-1171.4003;;-1360.7544;;-1546.7844;;-1718.4514;;-1868.8582;;-2000.5848;;-2124.1032;;-2241.8251;;-2342.1837;;-2412.7915;;-2454.3305;;-2478.3976;;-2494.7199;;-2505.0127;;-2507.773;;-2504.821;;-2501.625;;-2502.5585;;-2507.4878;;-2513.1679;;-2516.9943;;-2518.7128;;-2519.2317;;-2519.0289;;-2517.9172;;-2515.7161;;-2512.6919;;-2509.4041;;-2506.4865;;-2504.6948;;-2504.6948
-29.683465;;-29.683465;;-34.369176;;-41.103163;;-49.508057;;-59.084441;;-69.357172;;-78.327457;;-79.07071;;-73.145813;;-67.720475;;-66.44022;;-75.718207;;-91.8638;;-113.66243;;-141.23113;;-174.39765;;-213.00619;;-256.52783;;-303.05513;;-348.23143;;-384.81732;;-412.22328;;-442.30414;;-481.80771;;-526.08224;;-566.28983;;-600.47682;;-637.78688;;-691.40082;;-768.46168;;-867.83985;;-985.16702;;-1115.89;;-1253.9802;;-1403.4148;;-1568.9978;;-1736.0713;;-1882.8743;;-2006.3024;;-2126.3253;;-2250.9278;;-2360.8174;;-2434.0152;;-2470.237;;-2486.8203;;-2498.2515;;-2507.1317;;-2510.5754;;-2508.5567;;-2505.2248;;-2504.8307;;-2508.2163;;-2513.0992;;-2516.9344;;-2518.9303;;-2519.6825;;-2519.8549;;-2519.6232;;-2518.9223;;-2517.7279;;-2516.1245;;-2514.4173;;-2513.2457;;-2513.2457
