-1.5120879;;-1.5120879;;-1.5121977;;-1.5172262;;-1.5275122;;-1.5419678;;-1.5608237;;-1.5847043;;-1.6140431;;-1.6492358;;-1.9548379;;-2.003459;;-2.0523912;;-2.0972528;;-2.1321068;;-2.1747662;;-2.2408174;;-2.3343407;;-2.458823;;-2.6182254;;-2.8144672;;-3.0447461;;-3.3047319;;-3.5900419;;-3.8954177;;-4.2160599;;-4.544353;;-4.8675907;;-5.1702749;;-5.4399331;;-5.6747772;;-5.8837114;;-6.0771799;;-6.2582776;;-6.4237151;;-6.5712555;;-6.7033121;;-6.8227574;;-6.9298722;;-7.0242688;;-7.1060786;;-7.1754881;;-7.2332943;;-7.2811545;;-7.3207252;;-7.3541416;;-7.385702;;-7.4213665;;-7.4649247;;-7.5154764;;-7.5688114;;-7.6197008;;-7.6622081;;-7.6905001;;-7.70287;;-7.7040166;;-7.7009636;;-7.6975114;;-7.6960291;;-7.7010225;;-7.7142571;;-7.7304359;;-7.744156;;-7.757553;;-7.757553
-1.5120881;;-1.5120881;;-1.5124196;;-1.5188074;;-1.52994;;-1.5452902;;-1.5652255;;-1.5904422;;-1.6213914;;-1.658549;;-1.9686604;;-2.0188606;;-2.0697002;;-2.1171546;;-2.1533047;;-2.2002887;;-2.2747763;;-2.3787014;;-2.514211;;-2.6842605;;-2.8892969;;-3.1245531;;-3.3859912;;-3.6676428;;-3.9650731;;-4.2752432;;-4.5909347;;-4.9005331;;-5.189828;;-5.4463889;;-5.6679657;;-5.8655654;;-6.0526881;;-6.233188;;-6.4030361;;-6.5591417;;-6.7015753;;-6.8291762;;-6.9389092;;-7.0295162;;-7.102414;;-7.1603952;;-7.207346;;-7.2474447;;-7.2837221;;-7.3190289;;-7.357545;;-7.4030647;;-7.4555722;;-7.5113382;;-7.5653353;;-7.6129853;;-7.6499665;;-7.6732464;;-7.6842503;;-7.6894481;;-7.6954601;;-7.7040414;;-7.7135514;;-7.7232531;;-7.7323009;;-7.7380404;;-7.7408473;;-7.7486216;;-7.7486216
-1.5120884;;-1.5120884;;-1.5126584;;-1.5197341;;-1.5313526;;-1.5472213;;-1.5677848;;-1.5937856;;-1.6256984;;-1.6640536;;-1.9775885;;-2.0283952;;-2.0810724;;-2.1313898;;-2.1723194;;-2.2296123;;-2.3168502;;-2.4350845;;-2.5859408;;-2.7704354;;-2.9858207;;-3.2277753;;-3.4900074;;-3.7649329;;-4.0492561;;-4.341079;;-4.6345361;;-4.9213286;;-5.1910137;;-5.4322785;;-5.6423526;;-5.8327311;;-6.0175015;;-6.1995489;;-6.3739517;;-6.5379529;;-6.6906903;;-6.8274718;;-6.9413016;;-7.0290904;;-7.0932649;;-7.1400168;;-7.1772964;;-7.2117477;;-7.2468856;;-7.2853878;;-7.3311099;;-7.3860944;;-7.4468412;;-7.506179;;-7.5577539;;-7.5981512;;-7.6268233;;-7.6452824;;-7.6577183;;-7.6699983;;-7.6861721;;-7.7053419;;-7.7232795;;-7.7358372;;-7.739533;;-7.7324142;;-7.7196807;;-7.7173119;;-7.7173119
-1.5120883;;-1.5120883;;-1.5125943;;-1.519514;;-1.5310157;;-1.5467603;;-1.5671786;;-1.5930099;;-1.6247545;;-1.6629588;;-1.9776346;;-2.0280159;;-2.081322;;-2.134562;;-2.1860332;;-2.2602335;;-2.3637557;;-2.4994131;;-2.6679388;;-2.866298;;-3.09159;;-3.3383583;;-3.5969;;-3.8595543;;-4.1251327;;-4.39262;;-4.6578768;;-4.9173359;;-5.1655952;;-5.3934296;;-5.597457;;-5.7872226;;-5.9742484;;-6.1591636;;-6.3365866;;-6.5050609;;-6.6642278;;-6.8074455;;-6.9246109;;-7.0107979;;-7.0693417;;-7.1094887;;-7.142449;;-7.1764856;;-7.2148484;;-7.2591836;;-7.312224;;-7.3745347;;-7.4404968;;-7.5004779;;-7.5469399;;-7.5782967;;-7.5985685;;-7.6136954;;-7.628865;;-7.6477946;;-7.671705;;-7.6979874;;-7.7211317;;-7.7350022;;-7.733146;;-7.711774;;-7.6795738;;-7.6628863;;-7.6628863
-1.512088;;-1.512088;;-1.512375;;-1.5185639;;-1.5295564;;-1.5447591;;-1.5645288;;-1.5895714;;-1.6204204;;-1.6576204;;-1.9721141;;-2.0214775;;-2.0746406;;-2.1318406;;-2.2001935;;-2.292294;;-2.4123838;;-2.5650265;;-2.7485294;;-2.9580893;;-3.1902775;;-3.4359107;;-3.6833351;;-3.9278759;;-4.1720061;;-4.4155598;;-4.6558747;;-4.8925184;;-5.1237299;;-5.3431613;;-5.5474456;;-5.7419395;;-5.932923;;-6.1187148;;-6.2949929;;-6.4623072;;-6.6214715;;-6.7657248;;-6.883831;;-6.9698646;;-7.0277248;;-7.0682451;;-7.1038142;;-7.1430584;;-7.1888642;;-7.2415434;;-7.3016708;;-7.3680843;;-7.4345679;;-7.4917028;;-7.5325671;;-7.5575733;;-7.57365;;-7.5881643;;-7.6052793;;-7.6272441;;-7.6547259;;-7.6848026;;-7.7110812;;-7.7253244;;-7.7174976;;-7.6807638;;-7.6265577;;-7.5930342;;-7.5930342
-1.512088;;-1.512088;;-1.5122529;;-1.5176936;;-1.5281933;;-1.5428651;;-1.561996;;-1.5862633;;-1.6162523;;-1.9219675;;-1.9660534;;-2.0147247;;-2.0692504;;-2.1341301;;-2.2167323;;-2.3221422;;-2.4550118;;-2.6194909;;-2.8115026;;-3.0272438;;-3.2600549;;-3.497384;;-3.7285611;;-3.954835;;-4.1824022;;-4.411679;;-4.6398204;;-4.8656629;;-5.0884307;;-5.305057;;-5.5130897;;-5.7131595;;-5.905325;;-6.0865408;;-6.2552985;;-6.414698;;-6.566999;;-6.7070145;;-6.8243863;;-6.9126767;;-6.974958;;-7.0217699;;-7.0651741;;-7.1134009;;-7.169021;;-7.230915;;-7.2966785;;-7.3629518;;-7.4245851;;-7.4755575;;-7.512414;;-7.5373012;;-7.5563639;;-7.5742259;;-7.592756;;-7.6142185;;-7.6409952;;-7.6712108;;-7.6978148;;-7.7105941;;-7.6965323;;-7.6465495;;-7.5746964;;-7.5280471;;-7.5280471
-1.5120883;;-1.5120883;;-1.5122436;;-1.5174204;;-1.5276874;;-1.5420696;;-1.5608273;;-1.5846247;;-1.6140921;;-1.9205205;;-1.9631702;;-2.011231;;-2.0680004;;-2.1386308;;-2.2278955;;-2.3396457;;-2.4784698;;-2.6460953;;-2.8392376;;-3.0535089;;-3.2797967;;-3.5056979;;-3.7248008;;-3.942661;;-4.1666886;;-4.3970942;;-4.6287616;;-4.856714;;-5.0787435;;-5.2945359;;-5.5037587;;-5.7043302;;-5.8918047;;-6.0627938;;-6.2189075;;-6.3657918;;-6.5072828;;-6.640648;;-6.7575277;;-6.8505583;;-6.9202594;;-6.9755767;;-7.028207;;-7.0862124;;-7.1516995;;-7.2217906;;-7.2910178;;-7.3540621;;-7.4080846;;-7.4525465;;-7.4888857;;-7.5198798;;-7.547908;;-7.5725577;;-7.5930412;;-7.6123449;;-7.6350273;;-7.6609072;;-7.6835249;;-7.692319;;-7.6740008;;-7.6202941;;-7.5464984;;-7.4996854;;-7.4996854
-1.51209;;-1.51209;;-1.5123449;;-1.5178204;;-1.5280684;;-1.542289;;-1.5607424;;-1.5840584;;-1.8820248;;-1.9165778;;-1.9581364;;-2.0046603;;-2.0608785;;-2.1311661;;-2.2201377;;-2.3308956;;-2.4675281;;-2.630462;;-2.8177173;;-3.0247813;;-3.2429573;;-3.4630234;;-3.681806;;-3.9053463;;-4.1398887;;-4.3844011;;-4.6308374;;-4.8688599;;-5.0928038;;-5.3041304;;-5.5066635;;-5.6997479;;-5.8777773;;-6.0370725;;-6.1806516;;-6.315811;;-6.4478041;;-6.5759401;;-6.6933205;;-6.7913544;;-6.8676782;;-6.9295729;;-6.9888019;;-7.0539083;;-7.126572;;-7.2022657;;-7.2733683;;-7.3342389;;-7.384596;;-7.4280857;;-7.4691116;;-7.5097102;;-7.5480528;;-7.5796582;;-7.6020677;;-7.6186805;;-7.6353033;;-7.6535493;;-7.6689134;;-7.6727516;;-7.6548848;;-7.6110512;;-7.5554645;;-7.5242951;;-7.5242951
-1.5120971;;-1.5120971;;-1.5128352;;-1.5193235;;-1.5298339;;-1.5439714;;-1.5620034;;-1.5844305;;-1.8814832;;-1.9115177;;-1.9471954;;-1.9886165;;-2.0379683;;-2.1006984;;-2.1822906;;-2.2861448;;-2.4151946;;-2.5700528;;-2.7495162;;-2.9499776;;-3.1650224;;-3.3878225;;-3.6159742;;-3.854184;;-4.1070014;;-4.3716093;;-4.6364961;;-4.8857183;;-5.1092682;;-5.3100056;;-5.4982574;;-5.6789622;;-5.8478413;;-5.9996964;;-6.1363764;;-6.2654093;;-6.3929939;;-6.5191094;;-6.6368236;;-6.7366388;;-6.8149679;;-6.8784236;;-6.9389376;;-7.0057195;;-7.0805452;;-7.1582506;;-7.2310939;;-7.2948812;;-7.3511449;;-7.403768;;-7.4555792;;-7.5064372;;-7.5523315;;-7.5876701;;-7.6102839;;-7.6238927;;-7.6348689;;-7.6462751;;-7.6556143;;-7.6568613;;-7.6444494;;-7.6189787;;-7.5916589;;-7.5830372;;-7.5830372
-1.5121371;;-1.5121371;;-1.5148645;;-1.5228863;;-1.534338;;-1.5490359;;-1.5670977;;-1.5883979;;-1.882101;;-1.90744;;-1.9355315;;-1.9684104;;-2.0056543;;-2.0556231;;-2.1266116;;-2.22055;;-2.3391306;;-2.4844612;;-2.6556749;;-2.8510894;;-3.067086;;-3.2978731;;-3.5393768;;-3.7945805;;-4.0668829;;-4.3511726;;-4.6318414;;-4.8878416;;-5.1058509;;-5.2915356;;-5.4631366;;-5.6328026;;-5.7981001;;-5.9508215;;-6.0889573;;-6.218465;;-6.3458619;;-6.4711725;;-6.5868617;;-6.6833502;;-6.757743;;-6.8170502;;-6.8731941;;-6.9358646;;-7.0078934;;-7.084932;;-7.1606397;;-7.2327399;;-7.3030927;;-7.3726025;;-7.4395157;;-7.5003227;;-7.5506083;;-7.5865158;;-7.6077532;;-7.6190551;;-7.6275204;;-7.6370554;;-7.645867;;-7.6493426;;-7.6454616;;-7.6379012;;-7.6344639;;-7.643664;;-7.643664
-1.5127349;;-1.5127349;;-1.518755;;-1.528575;;-1.5415673;;-1.557663;;-1.5764067;;-1.8658673;;-1.8854717;;-1.9041063;;-1.9249253;;-1.9488338;;-1.9731889;;-2.0088555;;-2.0699955;;-2.154536;;-2.2631108;;-2.3983258;;-2.5605454;;-2.7498071;;-2.9653902;;-3.203647;;-3.459191;;-3.7315663;;-4.0216748;;-4.3212658;;-4.6106302;;-4.8653297;;-5.0719299;;-5.2409226;;-5.3980692;;-5.5618175;;-5.7311104;;-5.8937528;;-6.0415641;;-6.1764456;;-6.3043976;;-6.4265275;;-6.5363479;;-6.6255923;;-6.692723;;-6.7450117;;-6.7938136;;-6.8492451;;-6.9161717;;-6.9923558;;-7.0725552;;-7.1546857;;-7.2396653;;-7.3258455;;-7.4075906;;-7.4783337;;-7.5331507;;-7.5700083;;-7.5908856;;-7.6021896;;-7.61225;;-7.6253463;;-7.6391533;;-7.6492252;;-7.6548486;;-7.6601645;;-7.670287;;-7.6883827;;-7.6883827
-1.5160862;;-1.5160862;;-1.5240903;;-1.5357913;;-1.5507112;;-1.5685319;;-1.5886424;;-1.8795188;;-1.8938676;;-1.9025777;;-1.9151026;;-1.9316995;;-1.9467342;;-1.9692939;;-2.0220837;;-2.0983561;;-2.198113;;-2.3238436;;-2.477308;;-2.6594651;;-2.8718357;;-3.1138992;;-3.3816551;;-3.6704848;;-3.9752883;;-4.2835321;;-4.5723409;;-4.8167897;;-5.0071843;;-5.1597954;;-5.3059872;;-5.4685507;;-5.6473872;;-5.826072;;-5.988976;;-6.131837;;-6.2592441;;-6.374806;;-6.4758786;;-6.5574331;;-6.6190417;;-6.6666372;;-6.7097127;;-6.7587639;;-6.8214254;;-6.8979929;;-6.9830591;;-7.0724937;;-7.1658386;;-7.2619575;;-7.3548805;;-7.4359949;;-7.4983916;;-7.5398654;;-7.563692;;-7.5779807;;-7.5921329;;-7.6106992;;-7.6311817;;-7.6492469;;-7.6640167;;-7.6780645;;-7.6945012;;-7.715533;;-7.715533
-1.5211221;;-1.5211221;;-1.5303309;;-1.5436476;;-1.560446;;-1.5800764;;-1.60175;;-1.8937787;;-1.9032378;;-1.9027561;;-1.9080977;;-1.9190936;;-1.9287662;;-1.9394387;;-1.9852268;;-2.0546847;;-2.1472581;;-2.2652192;;-2.4113754;;-2.5873595;;-2.796038;;-3.0390047;;-3.3142675;;-3.6148949;;-3.929289;;-4.2388622;;-4.5183958;;-4.7461903;;-4.9189899;;-5.0578605;;-5.1970983;;-5.3615809;;-5.5512841;;-5.7461089;;-5.9237207;;-6.0740986;;-6.2002475;;-6.3085999;;-6.4016657;;-6.4789052;;-6.5405426;;-6.5893596;;-6.6315613;;-6.677692;;-6.7381567;;-6.815316;;-6.902923;;-6.9943884;;-7.088879;;-7.1879321;;-7.2879738;;-7.379407;;-7.452383;;-7.5026001;;-7.5330578;;-7.5525175;;-7.5707144;;-7.5927958;;-7.6176961;;-7.6423539;;-7.6651704;;-7.6862361;;-7.706649;;-7.7287805;;-7.7287805
-1.5259243;;-1.5259243;;-1.5360828;;-1.5507202;;-1.5690757;;-1.5902317;;-1.6131477;;-1.9056208;;-1.9103474;;-1.9028792;;-1.902845;;-1.9105594;;-1.9183954;;-1.9208778;;-1.9604691;;-2.024453;;-2.1116458;;-2.2238787;;-2.3647814;;-2.5363463;;-2.7418357;;-2.9835937;;-3.2609598;;-3.5663518;;-3.8843358;;-4.1897612;;-4.4553614;;-4.6660334;;-4.8255473;;-4.9572463;;-5.0950309;;-5.2630817;;-5.4604684;;-5.6645342;;-5.8495653;;-6.0031316;;-6.1278039;;-6.2318508;;-6.321531;;-6.3998199;;-6.4668823;;-6.5218208;;-6.5676077;;-6.6143776;;-6.6739426;;-6.7498161;;-6.8358076;;-6.9247773;;-7.0164559;;-7.1148779;;-7.2187349;;-7.3184343;;-7.402204;;-7.4634046;;-7.5032604;;-7.5291665;;-7.5503297;;-7.5729329;;-7.5987443;;-7.6271382;;-7.6563406;;-7.6838981;;-7.7084441;;-7.731953;;-7.731953
-1.5297788;;-1.5297788;;-1.5406081;;-1.5561657;;-1.5755723;;-1.5976756;;-1.6211614;;-1.9126583;;-1.9126803;;-1.9021539;;-1.899232;;-1.9053552;;-1.9133946;;-1.913706;;-1.9458824;;-2.005255;;-2.0883265;;-2.1963675;;-2.3329748;;-2.5008529;;-2.7029648;;-2.9419221;;-3.2175646;;-3.5226746;;-3.8402985;;-4.1406648;;-4.3953174;;-4.59642;;-4.7530672;;-4.8877185;;-5.0300922;;-5.2010202;;-5.3985472;;-5.6003457;;-5.7819221;;-5.9323392;;-6.0551062;;-6.1588134;;-6.2504673;;-6.3338334;;-6.4082789;;-6.4705778;;-6.5218697;;-6.5712797;;-6.6300721;;-6.702296;;-6.783768;;-6.8691325;;-6.9582832;;-7.0549869;;-7.1589249;;-7.2620506;;-7.3533664;;-7.4251232;;-7.4755037;;-7.508741;;-7.5325365;;-7.5540185;;-7.5779737;;-7.6070736;;-7.6405323;;-7.673871;;-7.7028562;;-7.7282153;;-7.7282153
-1.533047;;-1.533047;;-1.5443436;;-1.5605178;;-1.5805688;;-1.6031021;;-1.8956102;;-1.9133229;;-1.9113635;;-1.9018902;;-1.898435;;-1.9036856;;-1.9122543;;-1.9145846;;-1.9369952;;-1.9917275;;-2.0708497;;-2.1748536;;-2.3071375;;-2.4708799;;-2.6687007;;-2.9033199;;-3.1749927;;-3.4773386;;-3.7936294;;-4.0931153;;-4.3470175;;-4.5518582;;-4.7188228;;-4.8665235;;-5.0174477;;-5.187667;;-5.3759543;;-5.5644547;;-5.7338503;;-5.8767259;;-5.9973388;;-6.1030407;;-6.1990756;;-6.2878245;;-6.3680267;;-6.4364274;;-6.4936915;;-6.5468971;;-6.6051014;;-6.6733873;;-6.7510142;;-6.8347155;;-6.922932;;-7.0170121;;-7.1169853;;-7.2182689;;-7.3128463;;-7.3926146;;-7.4523189;;-7.4926841;;-7.5195576;;-7.5400761;;-7.5608883;;-7.5880317;;-7.6229751;;-7.6602157;;-7.6928473;;-7.7199345;;-7.7199346
-1.536487;;-1.536487;;-1.5481633;;-1.5648045;;-1.5852591;;-1.6078537;;-1.8997296;;-1.912336;;-1.9105454;;-1.9046162;;-1.9025328;;-1.9067935;;-1.9143368;;-1.9182472;;-1.9301363;;-1.9800678;;-2.0547779;;-2.1541404;;-2.281353;;-2.4401313;;-2.6325778;;-2.861549;;-3.127827;;-3.4262726;;-3.7418823;;-4.0460977;;-4.3102469;;-4.5305097;;-4.7169358;;-4.8827457;;-5.0422991;;-5.2074712;;-5.3800158;;-5.5500318;;-5.7050884;;-5.840535;;-5.9597134;;-6.0674812;;-6.1665342;;-6.2578846;;-6.3411261;;-6.4147871;;-6.4792136;;-6.5382413;;-6.5980949;;-6.6649673;;-6.7411887;;-6.8244317;;-6.9110912;;-7.0005005;;-7.0942283;;-7.1918137;;-7.2879337;;-7.3732674;;-7.4394251;;-7.4849614;;-7.5148232;;-7.5351767;;-7.5527725;;-7.5759856;;-7.6089964;;-7.6468188;;-7.681082;;-7.709212;;-7.7092121
-1.5405034;;-1.5405034;;-1.5525246;;-1.5695319;;-1.5901227;;-1.880723;;-1.8999179;;-1.9101951;;-1.9116932;;-1.910532;;-1.9106101;;-1.9139033;;-1.9194094;;-1.9231725;;-1.9267874;;-1.970504;;-2.0400301;;-2.1343932;;-2.2562193;;-2.4097234;;-2.5966085;;-2.8196891;;-3.0803806;;-3.3749474;;-3.6907049;;-4.0025431;;-4.2818739;;-4.5208802;;-4.7264648;;-4.9074934;;-5.0723949;;-5.2300746;;-5.3863213;;-5.5395326;;-5.6836866;;-5.8151932;;-5.9347758;;-6.0440469;;-6.1437323;;-6.2350186;;-6.3200302;;-6.3997762;;-6.4738055;;-6.5420187;;-6.6075988;;-6.6767047;;-6.752832;;-6.8336656;;-6.9150913;;-6.9972359;;-7.08467;;-7.1802719;;-7.2792763;;-7.3695563;;-7.4396094;;-7.4872614;;-7.5182447;;-7.5383391;;-7.5534581;;-7.5723536;;-7.6009119;;-7.6357619;;-7.6689817;;-7.6970069;;-7.697007
-1.5452594;;-1.5452594;;-1.5576115;;-1.5749135;;-1.8652888;;-1.8831197;;-1.8984551;;-1.9078264;;-1.9134075;;-1.9169475;;-1.9196752;;-1.9227317;;-1.9266916;;-1.9302033;;-1.9312468;;-1.9645091;;-2.0285039;;-2.1183712;;-2.2356418;;-2.3843628;;-2.5665667;;-2.7847769;;-3.0410857;;-3.3327868;;-3.649425;;-3.9688194;;-4.2616156;;-4.5141157;;-4.7300916;;-4.9173587;;-5.0821899;;-5.2318143;;-5.3747061;;-5.5156872;;-5.6536853;;-5.7855535;;-5.9088788;;-6.0216373;;-6.1226898;;-6.2141589;;-6.3012004;;-6.3877608;;-6.4730331;;-6.5534761;;-6.6285853;;-6.7024801;;-6.7781856;;-6.853857;;-6.9271926;;-7.0011656;;-7.0831745;;-7.1778746;;-7.2799489;;-7.374218;;-7.446021;;-7.4924721;;-7.5210187;;-7.5393968;;-7.5536027;;-7.5706348;;-7.5951184;;-7.6251038;;-7.6549876;;-7.6816736;;-7.6816736
-1.551026;;-1.551026;;-1.5632084;;-1.580431;;-1.870493;;-1.8846546;;-1.8963778;;-1.9062479;;-1.9148185;;-1.9215655;;-1.9264744;;-1.9301422;;-1.9343923;;-1.9394998;;-1.9425087;;-1.9620885;;-2.0208964;;-2.1068521;;-2.2203646;;-2.3651664;;-2.5438966;;-2.7585384;;-3.0117657;;-3.3018382;;-3.6197848;;-3.9451948;;-4.2466457;;-4.5034296;;-4.7179439;;-4.9010016;;-5.0604579;;-5.2027731;;-5.3364679;;-5.4694803;;-5.6048486;;-5.7410342;;-5.8731726;;-5.9950547;;-6.102499;;-6.1972785;;-6.2867925;;-6.3785589;;-6.4735318;;-6.5664309;;-6.6524528;;-6.7318385;;-6.8066102;;-6.8770949;;-6.9442861;;-7.0131889;;-7.0914502;;-7.1835715;;-7.2843551;;-7.3778695;;-7.4474155;;-7.4884627;;-7.5101454;;-7.5247451;;-7.5403123;;-7.5603613;;-7.5843881;;-7.6101396;;-7.6356882;;-7.6601995;;-7.6601995
-1.5624687;;-1.5624687;;-1.5728181;;-1.8603698;;-1.8745459;;-1.8858708;;-1.8957415;;-1.905943;;-1.9157822;;-1.9238742;;-1.9296965;;-1.9341485;;-1.9400395;;-1.9483604;;-1.9545933;;-1.9621323;;-2.0156639;;-2.0976496;;-2.207507;;-2.3486306;;-2.524292;;-2.7357918;;-2.9862229;;-3.2744892;;-3.5927688;;-3.9214653;;-4.2261575;;-4.4786262;;-4.6826475;;-4.8550816;;-5.0071561;;-5.1446964;;-5.2744881;;-5.4045727;;-5.54127;;-5.685338;;-5.830883;;-5.9673618;;-6.0865185;;-6.1879877;;-6.280098;;-6.3738884;;-6.4740729;;-6.5758622;;-6.670803;;-6.7547686;;-6.8292141;;-6.8977575;;-6.9646154;;-7.034644;;-7.1126106;;-7.2008234;;-7.2945801;;-7.3797521;;-7.4400862;;-7.4701678;;-7.4808749;;-7.4901631;;-7.5092449;;-7.5369339;;-7.5647631;;-7.5884225;;-7.6102322;;-7.6328141;;-7.6328141
-1.5796393;;-1.5796393;;-1.588522;;-1.8751547;;-1.8842345;;-1.8927389;;-1.9014868;;-1.9103749;;-1.918643;;-1.9255209;;-1.9303934;;-1.9344328;;-1.9413125;;-1.9521489;;-1.9604665;;-1.9612603;;-2.0090311;;-2.0867847;;-2.1927706;;-2.3298022;;-2.5014528;;-2.7085131;;-2.9543687;;-3.2385146;;-3.5539851;;-3.8818865;;-4.1858369;;-4.4308036;;-4.6232659;;-4.7866914;;-4.9351369;;-5.0736508;;-5.2063332;;-5.3399005;;-5.4819195;;-5.6353069;;-5.7940384;;-5.9447847;;-6.076015;;-6.1850133;;-6.2799398;;-6.3739224;;-6.4750033;;-6.5800875;;-6.6793864;;-6.7662596;;-6.8420445;;-6.9129456;;-6.9850591;;-7.0617839;;-7.1437398;;-7.2294057;;-7.3134304;;-7.3845357;;-7.4296036;;-7.4450715;;-7.4439733;;-7.4485063;;-7.4716925;;-7.5075731;;-7.5404222;;-7.5638098;;-7.5836677;;-7.6055956;;-7.6055956
-1.6010432;;-1.6010432;;-1.6089673;;-1.894302;;-1.9015556;;-1.9098766;;-1.9182318;;-1.9240058;;-1.9273481;;-1.9293711;;-1.9303808;;-1.9318817;;-1.9375727;;-1.948096;;-1.9558998;;-1.9542812;;-1.9975902;;-2.0712554;;-2.172413;;-2.3038664;;-2.4691886;;-2.6690042;;-2.9066818;;-3.1824933;;-3.4907134;;-3.8141138;;-4.1177662;;-4.3622797;;-4.5531953;;-4.7178049;;-4.8713451;;-5.0174989;;-5.1579539;;-5.2979302;;-5.4455129;;-5.6048845;;-5.7705548;;-5.9289591;;-6.0674936;;-6.1824418;;-6.2809349;;-6.3758266;;-6.4759294;;-6.5795314;;-6.6782863;;-6.7662665;;-6.8451995;;-6.9219595;;-7.0026225;;-7.0885863;;-7.1765627;;-7.2610395;;-7.3353491;;-7.3913602;;-7.4216057;;-7.4263214;;-7.4193274;;-7.4226596;;-7.4482419;;-7.4873036;;-7.521485;;-7.5441996;;-7.5634164;;-7.5859243;;-7.5859243
-1.6243305;;-1.9008181;;-1.9057787;;-1.9141269;;-1.923564;;-1.9351115;;-1.944551;;-1.9465854;;-1.9424634;;-1.9364854;;-1.9309977;;-1.9279824;;-1.9304787;;-1.9381458;;-1.9438969;;-1.9423643;;-1.9816742;;-2.0504438;;-2.1453284;;-2.2690944;;-2.4252945;;-2.6148746;;-2.8408482;;-3.104715;;-3.4024168;;-3.7201648;;-4.028738;;-4.2884913;;-4.495704;;-4.6756838;;-4.8429398;;-4.9997541;;-5.1466571;;-5.2890622;;-5.4361975;;-5.5935152;;-5.7567906;;-5.9143099;;-6.0548529;;-6.1744024;;-6.2780451;;-6.3758541;;-6.4747745;;-6.5740864;;-6.6689681;;-6.7567734;;-6.8400086;;-6.924583;;-7.0149357;;-7.1099031;;-7.2026038;;-7.2845604;;-7.3494491;;-7.3938462;;-7.4168553;;-7.4219149;;-7.4199834;;-7.4272557;;-7.452054;;-7.4862171;;-7.5148144;;-7.533983;;-7.5521973;;-7.5753439;;-7.5753439
-1.6463593;;-1.9249205;;-1.927503;;-1.9347719;;-1.9484341;;-1.9648612;;-1.97568;;-1.9736027;;-1.9611187;;-1.9457341;;-1.9324647;;-1.9242072;;-1.9229788;;-1.9269179;;-1.9302209;;-1.9303302;;-1.9647486;;-2.0276549;;-2.1153227;;-2.2302683;;-2.3759738;;-2.5543063;;-2.7677168;;-3.0191123;;-3.3065556;;-3.6204683;;-3.9389796;;-4.2264701;;-4.4654562;;-4.6719013;;-4.8570407;;-5.0221889;;-5.1692588;;-5.3063277;;-5.4447645;;-5.5914515;;-5.7441527;;-5.8945071;;-6.0340108;;-6.1582625;;-6.2688487;;-6.3711101;;-6.4691022;;-6.5633789;;-6.6535304;;-6.7409392;;-6.8289;;-6.9215388;;-7.020766;;-7.1225322;;-7.2169965;;-7.2945042;;-7.3513577;;-7.3900384;;-7.4151031;;-7.4305066;;-7.4413349;;-7.4552294;;-7.4762675;;-7.4993881;;-7.5169066;;-7.5296268;;-7.545833;;-7.5693414;;-7.5693414
-1.661004;;-1.661004;;-1.9428768;;-1.953078;;-1.9714766;;-1.9921598;;-2.0041219;;-1.9980099;;-1.9782676;;-1.9551292;;-1.9352949;;-1.9222589;;-1.9170544;;-1.9170464;;-1.9181945;;-1.9213722;;-1.951908;;-2.0091378;;-2.0898861;;-2.1963075;;-2.3321717;;-2.5006977;;-2.7038647;;-2.9453203;;-3.2249687;;-3.5366256;;-3.8642356;;-4.1787533;;-4.4543158;;-4.6921462;;-4.8959448;;-5.0661906;;-5.2088598;;-5.3362665;;-5.4614861;;-5.5923974;;-5.7296967;;-5.8694467;;-6.0061227;;-6.1347073;;-6.2525283;;-6.3597392;;-6.4578143;;-6.5488416;;-6.6361956;;-6.7244839;;-6.8174166;;-6.9168428;;-7.0217713;;-7.1262162;;-7.2197758;;-7.2939195;;-7.347915;;-7.3877452;;-7.4196654;;-7.4460553;;-7.4673227;;-7.4851864;;-7.5007753;;-7.511974;;-7.5180394;;-7.5247449;;-7.5400761;;-7.5648038;;-7.5648039
-1.6681553;;-1.6681553;;-1.951092;;-1.9641002;;-1.9855042;;-2.0083965;;-2.0206734;;-2.0125018;;-1.9895307;;-1.9625046;;-1.9387737;;-1.9221823;;-1.913267;;-1.9093889;;-1.9086051;;-1.9156854;;-1.9461295;;-1.9992669;;-2.0743246;;-2.1736024;;-2.3011475;;-2.4608643;;-2.6561683;;-2.8897597;;-3.1626631;;-3.4707104;;-3.8020603;;-4.1339941;;-4.4409327;;-4.7103867;;-4.9336869;;-5.1092638;;-5.2483269;;-5.3672784;;-5.4795741;;-5.5940658;;-5.7153156;;-5.8437203;;-5.9761279;;-6.1068664;;-6.2298366;;-6.3413513;;-6.4413318;;-6.5329628;;-6.6216573;;-6.7133439;;-6.8111881;;-6.9143278;;-7.0193656;;-7.1211236;;-7.2128627;;-7.2891189;;-7.349186;;-7.3964507;;-7.4342823;;-7.4638965;;-7.4859242;;-7.501616;;-7.5112139;;-7.5140357;;-7.5136805;;-7.5189543;;-7.5366225;;-7.5640198;;-7.5640198
-1.6730087;;-1.9499955;;-1.9538022;;-1.9661595;;-1.9868253;;-2.0086349;;-2.0202168;;-2.0128644;;-1.991323;;-1.9650913;;-1.9411319;;-1.9231515;;-1.9113838;;-1.9041972;;-1.9023252;;-1.9142724;;-1.9472203;;-1.9981669;;-2.0684283;;-2.1614013;;-2.2818788;;-2.433671;;-2.6214199;;-2.8480237;;-3.114137;;-3.4168766;;-3.7471329;;-4.0875945;;-4.4163844;;-4.7122485;;-4.9540058;;-5.136539;;-5.2750684;;-5.388543;;-5.4904832;;-5.5914771;;-5.7000494;;-5.8196327;;-5.9479169;;-6.0783809;;-6.2031672;;-6.3170771;;-6.4199748;;-6.5158768;;-6.6101047;;-6.7071861;;-6.8081559;;-6.9097693;;-7.0084259;;-7.1035631;;-7.1955302;;-7.2817239;;-7.3566605;;-7.4153355;;-7.4559789;;-7.4809745;;-7.4956849;;-7.504629;;-7.508631;;-7.5077884;;-7.5075715;;-7.5168959;;-7.5396806;;-7.5702977;;-7.5702977
-1.676053;;-1.954139;;-1.9538428;;-1.9621568;;-1.9796555;;-1.9983175;;-2.007841;;-2.0017761;;-1.9842188;;-1.9623322;;-1.9413232;;-1.9242314;;-1.911415;;-1.9026843;;-1.9014123;;-1.9184169;;-1.9545386;;-2.0057102;;-2.0724959;;-2.1594173;;-2.2732764;;-2.4186867;;-2.6002062;;-2.8220175;;-3.0834414;;-3.3820277;;-3.7105247;;-4.054443;;-4.3938436;;-4.703192;;-4.9548583;;-5.1411812;;-5.278833;;-5.387914;;-5.4826773;;-5.5758636;;-5.6784339;;-5.7945902;;-5.9210998;;-6.0504095;;-6.1743151;;-6.288084;;-6.3929891;;-6.4940062;;-6.5951007;;-6.6970556;;-6.7974394;;-6.8920065;;-6.9801498;;-7.0684736;;-7.1646963;;-7.2667417;;-7.3608011;;-7.4315375;;-7.4733166;;-7.4922373;;-7.4994195;;-7.5024587;;-7.5027079;;-7.5012721;;-7.5047494;;-7.5203779;;-7.5483589;;-7.5813554;;-7.5813554
-1.6756232;;-1.9546905;;-1.9517851;;-1.9560473;;-1.9699443;;-1.9850382;;-1.9918851;;-1.9864802;;-1.9730367;;-1.9565811;;-1.9401579;;-1.9256508;;-1.9138091;;-1.906003;;-1.9070476;;-1.927158;;-1.9655179;;-2.0179022;;-2.083555;;-2.1664077;;-2.2764418;;-2.4192825;;-2.5993088;;-2.8210413;;-3.0828464;;-3.3819906;;-3.7110691;;-4.0549993;;-4.3922899;;-4.6965571;;-4.9417076;;-5.1213288;;-5.2520917;;-5.3553617;;-5.4473008;;-5.5411416;;-5.6463767;;-5.7650049;;-5.8922454;;-6.0203988;;-6.1421448;;-6.2540687;;-6.3591445;;-6.4631844;;-6.5685946;;-6.6723656;;-6.7689194;;-6.8545896;;-6.9333472;;-7.0183372;;-7.12166;;-7.2393145;;-7.3496608;;-7.4300518;;-7.4738359;;-7.4914351;;-7.4977348;;-7.500632;;-7.500832;;-7.5003069;;-7.5065264;;-7.5256244;;-7.5556853;;-7.5891648;;-7.5891649
-1.6715077;;-1.9514675;;-1.9477382;;-1.9500118;;-1.9614638;;-1.9736954;;-1.9783032;;-1.9730196;;-1.9630642;;-1.9514906;;-1.9393555;;-1.927938;;-1.9186941;;-1.9137837;;-1.9176162;;-1.9383888;;-1.9767423;;-2.0291066;;-2.0947149;;-2.1781314;;-2.2901832;;-2.436234;;-2.6208498;;-2.848092;;-3.1156516;;-3.4201776;;-3.7525772;;-4.0937758;;-4.417346;;-4.6987332;;-4.9202543;;-5.0800523;;-5.195311;;-5.2906143;;-5.3855163;;-5.4901958;;-5.6065001;;-5.7311005;;-5.8591213;;-5.9854589;;-6.1050637;;-6.2154743;;-6.3197798;;-6.4236244;;-6.5286207;;-6.6304719;;-6.7228942;;-6.8036586;;-6.8796257;;-6.9661801;;-7.0755113;;-7.2015042;;-7.319409;;-7.4051159;;-7.4533373;;-7.4766218;;-7.4900095;;-7.4993626;;-7.5037932;;-7.5051878;;-7.5111944;;-7.5282387;;-7.5555063;;-7.5870865;;-7.5870866
-1.6652234;;-1.946179;;-1.9430548;;-1.9454006;;-1.9557573;;-1.9663371;;-1.969477;;-1.9645299;;-1.9570321;;-1.9486703;;-1.9396031;;-1.9310638;;-1.9251151;;-1.9237326;;-1.9295815;;-1.9488235;;-1.9849586;;-2.0360194;;-2.102701;;-2.1919982;;-2.3115391;;-2.4656286;;-2.6592711;;-2.8955463;;-3.1719665;;-3.4844774;;-3.8210523;;-4.1567346;;-4.458556;;-4.707166;;-4.8965906;;-5.0296553;;-5.1248308;;-5.2118578;;-5.3143535;;-5.4364529;;-5.5676531;;-5.6977892;;-5.8243488;;-5.9478874;;-6.0665101;;-6.1773609;;-6.2812653;;-6.38214;;-6.4821301;;-6.5793715;;-6.670061;;-6.7530997;;-6.8342316;;-6.9256684;;-7.0365636;;-7.1605989;;-7.2761195;;-7.3630993;;-7.4183004;;-7.4526759;;-7.4776267;;-7.4962789;;-7.5069899;;-7.511339;;-7.5159857;;-7.5279541;;-7.5495102;;-7.5777156;;-7.5777156
-1.6584515;;-1.9403895;;-1.9388878;;-1.9427505;;-1.9530279;;-1.9631763;;-1.9657111;;-1.9608736;;-1.9539306;;-1.9470509;;-1.9401506;;-1.9341309;;-1.9312765;;-1.932702;;-1.9398341;;-1.9567186;;-1.9891671;;-2.0392362;;-2.1110649;;-2.209872;;-2.3394179;;-2.5038435;;-2.7084721;;-2.9543941;;-3.239929;;-3.5598028;;-3.8985565;;-4.224928;;-4.5018693;;-4.7187763;;-4.87981;;-4.9910795;;-5.0713726;;-5.1536154;;-5.2636563;;-5.3997267;;-5.5408679;;-5.6721523;;-5.7948704;;-5.9156852;;-6.0352256;;-6.1487386;;-6.2529139;;-6.3490979;;-6.441246;;-6.5326168;;-6.6236337;;-6.7133074;;-6.8031132;;-6.8991854;;-7.0070388;;-7.1222784;;-7.2301363;;-7.3171398;;-7.3809551;;-7.4276854;;-7.463248;;-7.489125;;-7.5050408;;-7.513113;;-7.5185745;;-7.5279357;;-7.5456589;;-7.5713403;;-7.5713404
-1.6521931;;-1.9353257;;-1.9355503;;-1.9409041;;-1.9520556;;-1.9627838;;-1.9654654;;-1.960027;;-1.951942;;-1.9450767;;-1.9398069;;-1.9363395;;-1.9357777;;-1.939155;;-1.9470734;;-1.962171;;-1.9920351;;-2.0458266;;-2.1267697;;-2.2359838;;-2.3763812;;-2.5523902;;-2.7676766;;-3.0226588;;-3.3160995;;-3.6405291;;-3.9767779;;-4.288813;;-4.5422519;;-4.7359772;;-4.8804035;;-4.9829523;;-5.0607909;;-5.1443756;;-5.2572392;;-5.3947014;;-5.5336498;;-5.65967;;-5.7771631;;-5.8960955;;-6.0178751;;-6.135141;;-6.2400041;;-6.331386;;-6.4156219;;-6.5009729;;-6.5913912;;-6.6854105;;-6.7805654;;-6.8780451;;-6.9811181;;-7.0881424;;-7.1905964;;-7.279519;;-7.3513656;;-7.4069956;;-7.4483648;;-7.4773137;;-7.4961672;;-7.5083048;;-7.5179271;;-7.5299165;;-7.5483721;;-7.573745;;-7.5737451
-1.6466144;;-1.931217;;-1.9323248;;-1.9382442;;-1.9499203;;-1.9613937;;-1.9650666;;-1.9594918;;-1.9503717;;-1.9431446;;-1.9391663;;-1.9377622;;-1.9388888;;-1.9435876;;-1.9521757;;-1.9668509;;-1.9995111;;-2.0637505;;-2.1558197;;-2.2765375;;-2.4293168;;-2.6179052;;-2.8435955;;-3.1075517;;-3.4070069;;-3.7315564;;-4.0580198;;-4.3497462;;-4.5827637;;-4.7627985;;-4.9012375;;-5.0061949;;-5.0918278;;-5.1814905;;-5.2922171;;-5.4194865;;-5.5457171;;-5.6614847;;-5.7727667;;-5.8894603;;-6.0125708;;-6.1326685;;-6.2383344;;-6.3267955;;-6.4059654;;-6.4863558;;-6.5729727;;-6.6644613;;-6.7578477;;-6.8532036;;-6.9532367;;-7.0577995;;-7.160921;;-7.2540875;;-7.3310924;;-7.3899148;;-7.4321119;;-7.4613027;;-7.4818859;;-7.4982163;;-7.5139354;;-7.5316538;;-7.5533782;;-7.5797363;;-7.5797364
-1.6416304;;-1.9274388;;-1.9290171;;-1.9339481;;-1.9448333;;-1.9564715;;-1.9618025;;-1.9580189;;-1.9497821;;-1.9428431;;-1.9396442;;-1.9394272;;-1.9418406;;-1.9475599;;-1.9568336;;-1.9731746;;-2.0194973;;-2.0969794;;-2.2022099;;-2.3371533;;-2.5055052;;-2.7082856;;-2.9472717;;-3.2215491;;-3.5248323;;-3.8416792;;-4.1458193;;-4.4093058;;-4.6229285;;-4.7941346;;-4.931695;;-5.0425971;;-5.1381781;;-5.2349036;;-5.3426664;;-5.4576014;;-5.569095;;-5.6739071;;-5.7779177;;-5.8899386;;-6.0108193;;-6.1307226;;-6.2367544;;-6.325212;;-6.4036994;;-6.4814353;;-6.5621064;;-6.6456053;;-6.7320896;;-6.8237594;;-6.9234137;;-7.0302671;;-7.1374432;;-7.2345458;;-7.3132345;;-7.3713419;;-7.4122974;;-7.4414985;;-7.4642811;;-7.4853376;;-7.5073204;;-7.5302712;;-7.5542592;;-7.5808409;;-7.580841
-1.6373556;;-1.9239168;;-1.9261417;;-1.9294032;;-1.9386598;;-1.9502151;;-1.9574532;;-1.9568551;;-1.9512131;;-1.9454189;;-1.9424081;;-1.9427363;;-1.9461238;;-1.9525528;;-1.9625482;;-1.9884264;;-2.0518557;;-2.1435874;;-2.263903;;-2.4161546;;-2.602373;;-2.8235409;;-3.0801405;;-3.3675192;;-3.6722863;;-3.9698545;;-4.235815;;-4.4631908;;-4.6556329;;-4.8188953;;-4.9568912;;-5.0735425;;-5.1773439;;-5.2799158;;-5.386543;;-5.4934764;;-5.5949764;;-5.6908555;;-5.787106;;-5.8914014;;-6.0053069;;-6.1207548;;-6.2258529;;-6.316363;;-6.3975381;;-6.4752829;;-6.5514249;;-6.6275102;;-6.707639;;-6.7966639;;-6.896992;;-7.0058704;;-7.1147638;;-7.2125062;;-7.290739;;-7.3481409;;-7.3892922;;-7.4202645;;-7.446565;;-7.4726401;;-7.4997188;;-7.5255591;;-7.5494844;;-7.5749494;;-7.5749495
-1.6330247;;-1.9195428;;-1.9223127;;-1.9258068;;-1.9346744;;-1.9463564;;-1.95527;;-1.9579441;;-1.9552547;;-1.9507962;;-1.9478555;;-1.9484951;;-1.9526838;;-1.960006;;-1.9713666;;-2.0138476;;-2.0907734;;-2.1961344;;-2.3318026;;-2.501881;;-2.7069246;;-2.9484758;;-3.2248742;;-3.5266364;;-3.8304991;;-4.0984353;;-4.3184386;;-4.5077978;;-4.67829;;-4.8338517;;-4.9735549;;-5.0966955;;-5.2076374;;-5.3141458;;-5.4198088;;-5.5222725;;-5.6179496;;-5.7080555;;-5.7972928;;-5.8921667;;-5.9953187;;-6.1024043;;-6.2045485;;-6.2969308;;-6.3813835;;-6.460999;;-6.5369713;;-6.6118699;;-6.6913079;;-6.7805831;;-6.8806826;;-6.9873575;;-7.0925098;;-7.1871451;;-7.2647151;;-7.3240478;;-7.3686763;;-7.4034909;;-7.4332256;;-7.4621437;;-7.4912093;;-7.5175303;;-7.5406179;;-7.5652551;;-7.5652552
-1.6262356;;-1.6262356;;-1.9174316;;-1.92388;;-1.933518;;-1.9455628;;-1.9558549;;-1.9612178;;-1.9611253;;-1.9580308;;-1.9555272;;-1.9564118;;-1.9614431;;-1.9693556;;-1.9837184;;-2.0391897;;-2.1263803;;-2.2426996;;-2.3912403;;-2.5758248;;-2.7968157;;-3.055613;;-3.3486751;;-3.6619395;;-3.9625525;;-4.2022165;;-4.3858764;;-4.5458684;;-4.6989565;;-4.8487974;;-4.9914443;;-5.1217357;;-5.2387306;;-5.3464359;;-5.4487878;;-5.5462305;;-5.637888;;-5.7244153;;-5.8082424;;-5.8934317;;-5.9840726;;-6.0804739;;-6.1774825;;-6.2696452;;-6.3559253;;-6.4384501;;-6.5192053;;-6.6006646;;-6.6863449;;-6.7787553;;-6.8769357;;-6.9771771;;-7.0747081;;-7.1645932;;-7.2425596;;-7.3066157;;-7.3572956;;-7.3961921;;-7.4263115;;-7.4526746;;-7.4790591;;-7.5045394;;-7.5283805;;-7.5540538;;-7.5540539
-1.6156572;;-1.6156572;;-1.9108531;;-1.9212005;;-1.9328935;;-1.9457083;;-1.9574469;;-1.9651005;;-1.9675151;;-1.9661522;;-1.9647056;;-1.9659229;;-1.9710595;;-1.9782351;;-1.9944932;;-2.0557024;;-2.1483825;;-2.2708961;;-2.4265734;;-2.6188527;;-2.8484102;;-3.1162944;;-3.4177698;;-3.7362967;;-4.0341845;;-4.2621104;;-4.4325126;;-4.580465;;-4.7254863;;-4.872778;;-5.0178097;;-5.1529467;;-5.2731473;;-5.3794851;;-5.4764895;;-5.5680936;;-5.6555202;;-5.7385842;;-5.8165735;;-5.8916583;;-5.9696307;;-6.0550741;;-6.1456528;;-6.2356315;;-6.3229145;;-6.4100588;;-6.4999886;;-6.5935103;;-6.6896303;;-6.786486;;-6.8819591;;-6.9747799;;-7.0647047;;-7.1505976;;-7.2298645;;-7.2993762;;-7.3560602;;-7.3972346;;-7.4237905;;-7.4428802;;-7.4633507;;-7.4876635;;-7.5139026;;-7.5421036;;-7.5421036
-1.6036098;;-1.6036098;;-1.9028156;;-1.9171457;;-1.9316238;;-1.945346;;-1.9588024;;-1.9690354;;-1.9739388;;-1.97473;;-1.9745187;;-1.9758829;;-1.9798202;;-1.9841955;;-1.9980195;;-2.0595128;;-2.1526112;;-2.2755699;;-2.4315185;;-2.6235112;;-2.8525317;;-3.1194225;;-3.4193081;;-3.7361718;;-4.0347253;;-4.2717715;;-4.4530866;;-4.6071454;;-4.7541503;;-4.9018247;;-5.047284;;-5.1831323;;-5.303385;;-5.4076928;;-5.5006205;;-5.5870886;;-5.6689476;;-5.7442851;;-5.8111641;;-5.8729864;;-5.9390377;;-6.0161317;;-6.1019858;;-6.1907306;;-6.281289;;-6.3769766;;-6.4798079;;-6.5873407;;-6.694215;;-6.7955078;;-6.88945;;-6.9775862;;-7.0628;;-7.1462068;;-7.2261248;;-7.2988027;;-7.3587272;;-7.4003929;;-7.4233377;;-7.4361303;;-7.4511032;;-7.4732982;;-7.5004591;;-7.5303071;;-7.5303071
-1.5943161;;-1.5943161;;-1.8965852;;-1.9138619;;-1.9303296;;-1.9457683;;-1.9608252;;-1.9731702;;-1.980325;;-1.983075;;-1.9840282;;-1.9851287;;-1.9865112;;-1.9867846;;-1.9955463;;-2.0540832;;-2.1439168;;-2.2631315;;-2.4143692;;-2.6003133;;-2.8219673;;-3.0802321;;-3.3709341;;-3.6804823;;-3.9803969;;-4.2362528;;-4.4424376;;-4.6151495;;-4.772027;;-4.9229683;;-5.0680899;;-5.2025863;;-5.3222564;;-5.4267233;;-5.5188968;;-5.601797;;-5.6747832;;-5.7339328;;-5.7791462;;-5.8214299;;-5.8771522;;-5.9524306;;-6.0400188;;-6.1326381;;-6.2314735;;-6.340358;;-6.4582011;;-6.5786765;;-6.6941982;;-6.7997831;;-6.894902;;-6.9824397;;-7.0660236;;-7.1474355;;-7.2255841;;-7.2970482;;-7.356759;;-7.3993649;;-7.4235182;;-7.4359539;;-7.4481334;;-7.4663852;;-7.4904978;;-7.5192683;;-7.5192684
-1.5899177;;-1.5899177;;-1.6045343;;-1.9132536;;-1.9310671;;-1.9477766;;-1.9634727;;-1.9767274;;-1.9852544;;-1.9895841;;-1.9916613;;-1.9926217;;-1.9922289;;-1.9893666;;-1.9929447;;-2.0460828;;-2.130665;;-2.2440364;;-2.3881205;;-2.5653318;;-2.776185;;-3.0218419;;-3.2990462;;-3.5970672;;-3.8945539;;-4.1654752;;-4.3969061;;-4.5926828;;-4.764642;;-4.9226468;;-5.0699234;;-5.2055727;;-5.3282318;;-5.4372889;;-5.532796;;-5.6137943;;-5.6753565;;-5.7107673;;-5.7247394;;-5.7420418;;-5.7898007;;-5.8710312;;-5.9684518;;-6.0705452;;-6.1808012;;-6.30387;;-6.4353325;;-6.5657264;;-6.6877066;;-6.7982083;;-6.8972942;;-6.9869301;;-7.0699167;;-7.1479896;;-7.220634;;-7.2864349;;-7.3437843;;-7.3897268;;-7.4208834;;-7.4387334;;-7.4507083;;-7.4641566;;-7.482889;;-7.5089927;;-7.5089927
-1.5880031;;-1.5880031;;-1.6036811;;-1.91423;;-1.9327769;;-1.9495647;;-1.9652027;;-1.9778411;;-1.9866731;;-1.9922799;;-1.9960509;;-1.9985421;;-1.9988977;;-1.9965088;;-1.9978311;;-2.0412587;;-2.1188066;;-2.2247765;;-2.3602332;;-2.5275237;;-2.7262185;;-2.9574022;;-3.2186486;;-3.5017067;;-3.7908016;;-4.0666984;;-4.3149354;;-4.5311952;;-4.7201581;;-4.8892401;;-5.0437536;;-5.1866578;;-5.3188145;;-5.4386391;;-5.542825;;-5.6263208;;-5.6796875;;-5.6939172;;-5.6793996;;-5.6748251;;-5.7173273;;-5.8062487;;-5.9138996;;-6.0237688;;-6.1412063;;-6.2726478;;-6.412272;;-6.5492222;;-6.6772371;;-6.7944917;;-6.899777;;-6.9926042;;-7.0742133;;-7.145958;;-7.2085229;;-7.2648587;;-7.3191978;;-7.370699;;-7.4120069;;-7.4375976;;-7.4511311;;-7.4614884;;-7.4762024;;-7.5001682;;-7.5001682
-1.5846013;;-1.5846013;;-1.6010671;;-1.9130536;;-1.9325656;;-1.9494514;;-1.9642444;;-1.9753001;;-1.9838318;;-1.9911175;;-1.9977451;;-2.0037863;;-2.0079564;;-2.0102253;;-2.0153951;;-2.0454511;;-2.1126723;;-2.2086944;;-2.3332474;;-2.4884034;;-2.6737853;;-2.8890696;;-3.1327002;;-3.3984488;;-3.6746668;;-3.9469984;;-4.2023498;;-4.4328603;;-4.6374782;;-4.8199349;;-4.9861195;;-5.1417334;;-5.289153;;-5.4257575;;-5.5454326;;-5.6394424;;-5.6954504;;-5.7046037;;-5.6814467;;-5.6701291;;-5.7098154;;-5.7974931;;-5.9025059;;-6.0079901;;-6.1212574;;-6.2507789;;-6.3916711;;-6.5331253;;-6.6685515;;-6.7948611;;-6.9081641;;-7.004881;;-7.0841055;;-7.1465564;;-7.1955559;;-7.240399;;-7.2915086;;-7.3484347;;-7.3986531;;-7.4311032;;-7.4474633;;-7.4577163;;-7.4710181;;-7.493887;;-7.4938869
-1.5791098;;-1.5791098;;-1.5958754;;-1.9086873;;-1.929246;;-1.947151;;-1.9603778;;-1.9701608;;-1.9788203;;-1.9883078;;-1.9985965;;-2.0090804;;-2.0189286;;-2.0283635;;-2.0410187;;-2.0670062;;-2.1200132;;-2.2016399;;-2.3113533;;-2.4502473;;-2.6198267;;-2.8183475;;-3.0441836;;-3.2930292;;-3.5562483;;-3.8223817;;-4.0798545;;-4.3196734;;-4.5372633;;-4.73289;;-4.9116458;;-5.0805898;;-5.243577;;-5.3983784;;-5.5374889;;-5.6492962;;-5.7203623;;-5.7445653;;-5.7379646;;-5.738778;;-5.7776459;;-5.8511873;;-5.9363991;;-6.0233219;;-6.1216821;;-6.2412551;;-6.3789577;;-6.5241889;;-6.6680108;;-6.8038999;;-6.9249474;;-7.0249755;;-7.1010425;;-7.1539448;;-7.1906873;;-7.2263038;;-7.274222;;-7.3325763;;-7.385787;;-7.421402;;-7.4407491;;-7.4532887;;-7.4672205;;-7.4897712;;-7.4897711
-1.5735616;;-1.5735616;;-1.5901673;;-1.9036009;;-1.924933;;-1.9434422;;-1.9561562;;-1.9654194;;-1.9749244;;-1.9865106;;-1.9999249;;-2.0143857;;-2.0296386;;-2.0461214;;-2.0664712;;-2.0962559;;-2.1423103;;-2.2089468;;-2.3007584;;-2.4208436;;-2.570916;;-2.7526707;;-2.9637335;;-3.2004094;;-3.4560817;;-3.7205097;;-3.9820593;;-4.2305547;;-4.4591139;;-4.6655707;;-4.8537031;;-5.0309152;;-5.2029814;;-5.3700785;;-5.5252544;;-5.6553367;;-5.7469411;;-5.7970523;;-5.8202839;;-5.8425127;;-5.881558;;-5.9355285;;-5.9944155;;-6.0584432;;-6.1395542;;-6.2477007;;-6.380995;;-6.5285475;;-6.678235;;-6.8198701;;-6.9442585;;-7.0441469;;-7.1162354;;-7.1631131;;-7.1949394;;-7.2278764;;-7.2731338;;-7.3266599;;-7.3745885;;-7.4079625;;-7.4293131;;-7.4457802;;-7.4623198;;-7.4858194;;-7.4858193
-1.5698368;;-1.5698368;;-1.5862382;;-1.9005858;;-1.9224886;;-1.9416296;;-1.9547222;;-1.9639359;;-1.9742059;;-1.9870188;;-2.002089;;-2.0189322;;-2.0375749;;-2.0592778;;-2.0857089;;-2.1200018;;-2.1654285;;-2.2234305;;-2.2988264;;-2.4006588;;-2.534342;;-2.7019725;;-2.904621;;-3.1379009;;-3.395704;;-3.6677375;;-3.9403699;;-4.2002659;;-4.4380429;;-4.6507632;;-4.842212;;-5.0200878;;-5.1920168;;-5.3613373;;-5.5231233;;-5.6645285;;-5.773161;;-5.8473001;;-5.8974906;;-5.9380427;;-5.9774488;;-6.0168247;;-6.0570078;;-6.1054198;;-6.1747025;;-6.2741254;;-6.4021203;;-6.5474963;;-6.6961179;;-6.8356892;;-6.95635;;-7.0514223;;-7.1195637;;-7.165753;;-7.2008696;;-7.2372832;;-7.2804708;;-7.3249538;;-7.3620523;;-7.3896153;;-7.4121677;;-7.4336156;;-7.4547094;;-7.4808178;;-7.4808177
-1.5684962;;-1.5684962;;-1.5849079;;-1.900518;;-1.9224664;;-1.9430045;;-1.9568111;;-1.9658997;;-1.9761434;;-1.9889246;;-2.0040656;;-2.0214413;;-2.0416992;;-2.0662338;;-2.0965137;;-2.1341946;;-2.1800434;;-2.2335701;;-2.2976673;;-2.3858876;;-2.5098883;;-2.6720993;;-2.8737343;;-3.1132277;;-3.3825062;;-3.6709654;;-3.9619618;;-4.2363061;;-4.4809042;;-4.6939409;;-4.8817514;;-5.0535396;;-5.2184291;;-5.3818608;;-5.5409563;;-5.6849562;;-5.8034695;;-5.8941013;;-5.9616845;;-6.0128335;;-6.0531175;;-6.0874944;;-6.1221035;;-6.1659976;;-6.2303163;;-6.3229742;;-6.4425973;;-6.5786527;;-6.7173212;;-6.8466647;;-6.9578398;;-7.0460721;;-7.1117863;;-7.1609855;;-7.2025512;;-7.2435904;;-7.2842981;;-7.3195613;;-7.3467408;;-7.3695844;;-7.3936442;;-7.41987;;-7.4456437;;-7.4747427;;-7.4747425
-1.5683378;;-1.5683378;;-1.5848697;;-1.6079219;;-1.9234975;;-1.9455762;;-1.9601473;;-1.9687301;;-1.9783687;;-1.9904292;;-2.0046903;;-2.0215138;;-2.0421068;;-2.0678756;;-2.1001189;;-2.1393018;;-2.1848545;;-2.2348832;;-2.2917747;;-2.3730542;;-2.4953042;;-2.6596924;;-2.8672338;;-3.1175275;;-3.4019213;;-3.7098236;;-4.0222256;;-4.3135404;;-4.564813;;-4.7749118;;-4.9542068;;-5.1153148;;-5.2692955;;-5.4226943;;-5.5741688;;-5.7159204;;-5.8399086;;-5.9414836;;-6.0194699;;-6.0765755;;-6.1198559;;-6.1578297;;-6.1973927;;-6.24493;;-6.3082044;;-6.3936621;;-6.5005117;;-6.6204914;;-6.7422239;;-6.856138;;-6.955747;;-7.0377137;;-7.1027638;;-7.1552063;;-7.2007022;;-7.2423714;;-7.2790866;;-7.3081105;;-7.3306331;;-7.3526901;;-7.3789619;;-7.40825;;-7.4365823;;-7.4675329;;-7.4675327
-1.566997;;-1.566997;;-1.5834384;;-1.6064226;;-1.922706;;-1.9455922;;-1.9615423;;-1.9698121;;-1.9787756;;-1.9901587;;-2.0035582;;-2.0197274;;-2.0401198;;-2.0662033;;-2.0986681;;-2.1376785;;-2.1817033;;-2.2283499;;-2.280325;;-2.360991;;-2.4865273;;-2.6560926;;-2.8711709;;-3.1316624;;-3.4296621;;-3.7551317;;-4.0881431;;-4.3981897;;-4.6590014;;-4.8676129;;-5.0376545;;-5.1859626;;-5.3267446;;-5.4680352;;-5.6106586;;-5.749997;;-5.8788457;;-5.9889666;;-6.074434;;-6.1370004;;-6.1866554;;-6.234173;;-6.2846241;;-6.3397395;;-6.4032368;;-6.4801761;;-6.5714713;;-6.6721064;;-6.7743963;;-6.8715951;;-6.9595885;;-7.0360736;;-7.1003596;;-7.1534001;;-7.1974636;;-7.2349458;;-7.266737;;-7.2928069;;-7.3155556;;-7.3398018;;-7.3680564;;-7.3980156;;-7.4264958;;-7.4581723;;-7.4581721
-1.5632576;;-1.5632576;;-1.5792383;;-1.6016686;;-1.9182758;;-1.9414999;;-1.9590788;;-1.9687161;;-1.9774298;;-1.9884138;;-2.0014527;;-2.0172036;;-2.037275;;-2.0628758;;-2.0944143;;-2.1318182;;-2.1733139;;-2.2163129;;-2.2655846;;-2.3497607;;-2.4793634;;-2.6533527;;-2.8739646;;-3.1413148;;-3.4487515;;-3.7871255;;-4.136857;;-4.4651972;;-4.7391696;;-4.9511051;;-5.1154278;;-5.2525404;;-5.3798333;;-5.5085137;;-5.6429248;;-5.7810264;;-5.9145338;;-6.0315086;;-6.1236251;;-6.1933684;;-6.2526132;;-6.3122821;;-6.374746;;-6.4374406;;-6.5007373;;-6.5692279;;-6.6459175;;-6.7289426;;-6.8135467;;-6.8957531;;-6.9732843;;-7.0440754;;-7.1052422;;-7.1545754;;-7.1929627;;-7.2241177;;-7.2515921;;-7.2771323;;-7.3020877;;-7.3284266;;-7.3569203;;-7.3856293;;-7.4133244;;-7.4454961;;-7.4454959
-1.5583912;;-1.5583912;;-1.5737405;;-1.5953906;;-1.912248;;-1.9355233;;-1.9547529;;-1.9666014;;-1.9758336;;-1.9867404;;-1.9999785;;-2.0158354;;-2.0354767;;-2.0597531;;-2.0891793;;-2.123349;;-2.1611644;;-2.2007321;;-2.2500698;;-2.338948;;-2.4714186;;-2.6476457;;-2.8707882;;-3.1408517;;-3.4525888;;-3.7977619;;-4.1579119;;-4.5007155;;-4.7895432;;-5.0110107;;-5.1772863;;-5.3094253;;-5.4273247;;-5.5457944;;-5.6731418;;-5.8092433;;-5.9446039;;-6.0656788;;-6.1643646;;-6.2436324;;-6.3141205;;-6.3845247;;-6.4551107;;-6.5215248;;-6.5832938;;-6.6453818;;-6.7120233;;-6.7824363;;-6.8536812;;-6.9242507;;-6.9932791;;-7.0578105;;-7.1130651;;-7.1558333;;-7.1875284;;-7.2136545;;-7.2390431;;-7.2651537;;-7.2912662;;-7.3172881;;-7.3437902;;-7.3704227;;-7.3975683;;-7.430867;;-7.4308668
-1.5543554;;-1.5543554;;-1.5691772;;-1.5901682;;-1.9071012;;-1.9307991;;-1.9509643;;-1.9648045;;-1.9751242;;-1.9864482;;-2.0004062;;-2.0169554;;-2.0359822;;-2.0583995;;-2.0841761;;-2.1137702;;-2.1468275;;-2.1832522;;-2.2349806;;-2.3279773;;-2.4616654;;-2.6379456;;-2.8605835;;-3.1289853;;-3.4391903;;-3.7838288;;-4.1460002;;-4.4963343;;-4.7996735;;-5.0379539;;-5.2171295;;-5.3549866;;-5.4717742;;-5.5852557;;-5.7070658;;-5.8386482;;-5.9711948;;-6.0931538;;-6.1985772;;-6.2890215;;-6.3702015;;-6.4467103;;-6.5185072;;-6.5832832;;-6.6424141;;-6.7012071;;-6.7628401;;-6.825814;;-6.8880051;;-6.950073;;-7.0120499;;-7.0700924;;-7.1188292;;-7.1557675;;-7.1838405;;-7.2086806;;-7.2343018;;-7.2602871;;-7.2849237;;-7.3080348;;-7.3313389;;-7.3558111;;-7.3830611;;-7.4181974;;-7.4181971
-1.5512191;;-1.5512191;;-1.5655891;;-1.5860025;;-1.9029745;;-1.9268356;;-1.9476455;;-1.9631469;;-1.9746484;;-1.9873187;;-2.0023704;;-2.0197031;;-2.0382493;;-2.0579922;;-2.0795388;;-2.1041716;;-2.132552;;-2.1660397;;-2.2211007;;-2.3165363;;-2.4501618;;-2.6248963;;-2.8446155;;-3.1074785;;-3.4107371;;-3.7474146;;-4.1027209;;-4.4526743;;-4.768527;;-5.0301245;;-5.2335711;;-5.3888353;;-5.5140182;;-5.6286341;;-5.7466566;;-5.8715843;;-5.9980302;;-6.1191074;;-6.2311601;;-6.3322585;;-6.4210489;;-6.4980418;;-6.565277;;-6.6253286;;-6.6821456;;-6.7399903;;-6.7994479;;-6.8576947;;-6.9134087;;-6.9685331;;-7.0238444;;-7.0756975;;-7.1195386;;-7.154599;;-7.1842948;;-7.2122934;;-7.2392829;;-7.2634841;;-7.2839502;;-7.3026887;;-7.3227528;;-7.3459283;;-7.3737954;;-7.4106908;;-7.4106906
-1.547235;;-1.547235;;-1.5609718;;-1.5805415;;-1.604592;;-1.9205847;;-1.9424643;;-1.9598499;;-1.9731848;;-1.9870573;;-2.0031873;;-2.0208693;;-2.0387068;;-2.0562626;;-2.0743617;;-2.0951052;;-2.1198773;;-2.1508411;;-2.2083679;;-2.3048018;;-2.4378357;;-2.6106913;;-2.8267262;;-3.0830159;;-3.3770425;;-3.70179;;-4.0448769;;-4.3890719;;-4.7139699;;-4.9996211;;-5.2326848;;-5.4128311;;-5.5532342;;-5.6732815;;-5.7888533;;-5.9069655;;-6.0274085;;-6.1478701;;-6.2653073;;-6.3736174;;-6.4655203;;-6.5391975;;-6.6000976;;-6.6558039;;-6.7116345;;-6.7693162;;-6.8267584;;-6.880553;;-6.9306167;;-6.9797661;;-7.0288971;;-7.0751104;;-7.1157514;;-7.151964;;-7.1868756;;-7.2207625;;-7.2500578;;-7.2715438;;-7.2866106;;-7.3008151;;-7.318907;;-7.3422113;;-7.3711294;;-7.4092678;;-7.4092676
-1.5416587;;-1.5416587;;-1.5544882;;-1.572834;;-1.5955453;;-1.9111012;;-1.9337313;;-1.9534766;;-1.9690542;;-1.9834002;;-1.9990406;;-2.0160829;;-2.0333568;;-2.0501655;;-2.0668999;;-2.0860989;;-2.1087112;;-2.1375591;;-2.1962422;;-2.2929029;;-2.4256013;;-2.5978042;;-2.8118364;;-3.0645791;;-3.3529797;;-3.669378;;-4.0027087;;-4.3408303;;-4.6699949;;-4.9723286;;-5.2296563;;-5.4332049;;-5.5896388;;-5.7160842;;-5.8301434;;-5.9433733;;-6.0603086;;-6.1807185;;-6.3002677;;-6.4104373;;-6.5018205;;-6.5722365;;-6.6292245;;-6.6827943;;-6.7381352;;-6.794575;;-6.8487285;;-6.8980146;;-6.9435664;;-6.9883399;;-7.032577;;-7.0735303;;-7.1100448;;-7.1455631;;-7.1842784;;-7.2240808;;-7.2567601;;-7.2769586;;-7.2886291;;-7.3008692;;-7.3193664;;-7.3440802;;-7.3745125;;-7.4136876;;-7.4136874
-1.5356586;;-1.5356586;;-1.5475006;;-1.5645019;;-1.5857031;;-1.9001865;;-1.9224777;;-1.9442917;;-1.9610726;;-1.9743335;;-1.9877584;;-2.0031812;;-2.0202092;;-2.0378833;;-2.0559296;;-2.0755557;;-2.0974633;;-2.1249237;;-2.1850437;;-2.2822735;;-2.4158602;;-2.5895911;;-2.8051987;;-3.0599863;;-3.3507274;;-3.6690364;;-4.0025623;;-4.3389352;;-4.6672922;;-4.9737529;;-5.2413403;;-5.4580632;;-5.625155;;-5.756429;;-5.8704595;;-5.9821004;;-6.098087;;-6.217473;;-6.334462;;-6.4413903;;-6.530927;;-6.6012079;;-6.6585701;;-6.7119206;;-6.7654595;;-6.8183171;;-6.8681269;;-6.9141047;;-6.9576822;;-7.0007539;;-7.0420169;;-7.0774664;;-7.1062388;;-7.1347989;;-7.1712484;;-7.2138125;;-7.2503883;;-7.273005;;-7.2865086;;-7.3013466;;-7.3224593;;-7.3490509;;-7.3807303;;-7.4205221;;-7.4205218
-1.5307034;;-1.5307034;;-1.541692;;-1.5575075;;-1.5773146;;-1.8907897;;-1.9122421;;-1.9336868;;-1.9502812;;-1.9606918;;-1.9707281;;-1.9840327;;-2.001066;;-2.0207278;;-2.0413381;;-2.0629088;;-2.0850214;;-2.1126965;;-2.1762995;;-2.2760018;;-2.4126421;;-2.5906677;;-2.8118317;;-3.074111;;-3.3747504;;-3.7047254;;-4.0487356;;-4.3885085;;-4.711694;;-5.0100796;;-5.2729291;;-5.490079;;-5.6605004;;-5.7954462;;-5.912487;;-6.0262734;;-6.1425777;;-6.2587609;;-6.3691962;;-6.4699517;;-6.5576676;;-6.6304884;;-6.6910211;;-6.7446819;;-6.7950031;;-6.842824;;-6.8885499;;-6.9332587;;-6.9781766;;-7.0226043;;-7.0627758;;-7.0927486;;-7.1110601;;-7.1270237;;-7.1544678;;-7.1945284;;-7.2337532;;-7.2613553;;-7.2807019;;-7.3006105;;-7.3244135;;-7.351229;;-7.3824345;;-7.4219946;;-7.4219944
-1.5272241;;-1.5272241;;-1.5375327;;-1.5523733;;-1.5709636;;-1.8837365;;-1.9041188;;-1.9236102;;-1.9376737;;-1.9445778;;-1.9513967;;-1.9630652;;-1.980503;;-2.0018141;;-2.0250916;;-2.0489112;;-2.0716897;;-2.102595;;-2.171738;;-2.2758332;;-2.4174497;;-2.6020007;;-2.8311972;;-3.1041569;;-3.418225;;-3.7638199;;-4.1224747;;-4.4672752;;-4.7815143;;-5.0641201;;-5.3130331;;-5.5226143;;-5.6927336;;-5.8328557;;-5.9569976;;-6.0759882;;-6.1927955;;-6.3040362;;-6.406818;;-6.5014487;;-6.5875478;;-6.6627335;;-6.7259636;;-6.7795908;;-6.8269429;;-6.8709546;;-6.9144201;;-6.9597756;;-7.0075177;;-7.0546039;;-7.0947275;;-7.1204841;;-7.1298115;;-7.1336897;;-7.1496026;;-7.1827752;;-7.2207733;;-7.2512854;;-7.2748282;;-7.2973828;;-7.3206919;;-7.3447993;;-7.3737573;;-7.4126309;;-7.4126307
-1.5244396;;-1.5244396;;-1.5341321;;-1.5480744;;-1.5655106;;-1.8776016;;-1.8969783;;-1.9137961;;-1.9243757;;-1.9285378;;-1.9337673;;-1.9450991;;-1.962663;;-1.9848978;;-2.0097084;;-2.0349669;;-2.0584988;;-2.0957772;;-2.1699087;;-2.2783195;;-2.4250182;;-2.615886;;-2.8528801;;-3.1358672;;-3.4620798;;-3.8213683;;-4.1925056;;-4.5398363;;-4.8422248;;-5.1075619;;-5.3419886;;-5.5444464;;-5.7163671;;-5.8649799;;-5.9991114;;-6.1241792;;-6.241093;;-6.3480863;;-6.4457013;;-6.536781;;-6.6217289;;-6.697482;;-6.7616113;;-6.8150613;;-6.861308;;-6.9044387;;-6.9482059;;-6.9947381;;-7.043477;;-7.0905136;;-7.1290322;;-7.1517569;;-7.1568775;;-7.1547506;;-7.1627891;;-7.1878754;;-7.2202942;;-7.2483017;;-7.270618;;-7.290858;;-7.3103694;;-7.3305756;;-7.3574291;;-7.3960909;;-7.3960907
-1.521325;;-1.521325;;-1.5303257;;-1.5432762;;-1.559473;;-1.5780846;;-1.888846;;-1.9038768;;-1.9125898;;-1.9156041;;-1.9212336;;-1.9326347;;-1.9501549;;-1.9722094;;-1.9969364;;-2.0222446;;-2.0463377;;-2.0889786;;-2.1654716;;-2.2759001;;-2.4250839;;-2.6194668;;-2.8607289;;-3.149232;;-3.4821997;;-3.8492547;;-4.2273359;;-4.573898;;-4.8649845;;-5.1179107;;-5.3451187;;-5.5480459;;-5.7275852;;-5.8874398;;-6.031295;;-6.161136;;-6.2779604;;-6.3833569;;-6.4801841;;-6.5710685;;-6.6557132;;-6.7313292;;-6.7959124;;-6.8502163;;-6.8974629;;-6.9420905;;-6.9873347;;-7.0335955;;-7.078844;;-7.1199922;;-7.152489;;-7.17077;;-7.1740164;;-7.1715631;;-7.1780741;;-7.1987991;;-7.22542;;-7.2481343;;-7.2655785;;-7.2809996;;-7.2964868;;-7.3146445;;-7.3418448;;-7.3814656;;-7.3814654
-1.5178249;;-1.5178249;;-1.5260271;;-1.537877;;-1.5527697;;-1.570061;;-1.8802659;;-1.8947228;;-1.9045533;;-1.9091189;;-1.9154338;;-1.9270149;;-1.9434945;;-1.9640117;;-1.9873509;;-2.011586;;-2.035231;;-2.0786752;;-2.1541415;;-2.2629081;;-2.410676;;-2.6036607;;-2.8435548;;-3.130764;;-3.4628902;;-3.8301795;;-4.2093717;;-4.5550915;;-4.8407761;;-5.090726;;-5.3214433;;-5.5345218;;-5.7277621;;-5.9002242;;-6.0519679;;-6.1844448;;-6.301586;;-6.4079905;;-6.506893;;-6.5992599;;-6.6842069;;-6.760261;;-6.8266507;;-6.8837464;;-6.9336888;;-6.9801702;;-7.0256365;;-7.0687841;;-7.1066838;;-7.1372144;;-7.1583449;;-7.1666357;;-7.1632626;;-7.1600247;;-7.1706343;;-7.1958558;;-7.2238065;;-7.2445592;;-7.2580502;;-7.2694713;;-7.2829932;;-7.3021253;;-7.3319482;;-7.3734003;;-7.3734001
-1.5148947;;-1.5148947;;-1.5222257;;-1.5330055;;-1.546736;;-1.5630378;;-1.8729181;;-1.8882304;;-1.9008935;;-1.908397;;-1.9156137;;-1.9262609;;-1.9410166;;-1.95941;;-1.9807762;;-2.0033965;;-2.0252655;;-2.0646185;;-2.1355496;;-2.2395201;;-2.3818762;;-2.5686234;;-2.8018342;;-3.0815811;;-3.4062927;;-3.767508;;-4.1440883;;-4.492723;;-4.7827751;;-5.0393651;;-5.2820455;;-5.5117497;;-5.7223546;;-5.908135;;-6.0668487;;-6.2015924;;-6.3195504;;-6.4275538;;-6.528461;;-6.6218273;;-6.706693;;-6.7833463;;-6.8522438;;-6.9131814;;-6.9664346;;-7.0141172;;-7.0579161;;-7.0964213;;-7.1265053;;-7.1460937;;-7.1524556;;-7.1424422;;-7.1221593;;-7.1124255;;-7.1311067;;-7.1722558;;-7.2131127;;-7.2387297;;-7.2512586;;-7.2601667;;-7.2730482;;-7.2942285;;-7.3271438;;-7.3702358;;-7.3702356
-1.5133726;;-1.5133726;;-1.5198288;;-1.5297988;;-1.5427466;;-1.5584798;;-1.8686003;;-1.8850002;;-1.8995781;;-1.9095054;;-1.9170357;;-1.9264365;;-1.9395546;;-1.9565098;;-1.9764859;;-1.9976787;;-2.0174589;;-2.0485522;;-2.1122063;;-2.2086211;;-2.3424663;;-2.5193241;;-2.7420019;;-3.0102404;;-3.3231459;;-3.6743909;;-4.0467181;;-4.4032609;;-4.7085477;;-4.9801478;;-5.2393167;;-5.4874894;;-5.7160389;;-5.9154973;;-6.0820982;;-6.2201795;;-6.3396152;;-6.4488185;;-6.5507952;;-6.6442813;;-6.7281521;;-6.8038411;;-6.8733214;;-6.9363759;;-6.9919048;;-7.0402999;;-7.0827565;;-7.1183624;;-7.1441319;;-7.1562739;;-7.1482352;;-7.1151824;;-7.0705808;;-7.0494585;;-7.0776827;;-7.1411105;;-7.2017246;;-7.2364921;;-7.2497554;;-7.2567284;;-7.2687136;;-7.291332;;-7.3266074;;-7.3709971;;-7.370997
-1.512855;;-1.512855;;-1.5187403;;-1.5282987;;-1.5408649;;-1.5562699;;-1.8668657;;-1.8840331;;-1.8986934;;-1.9087574;;-1.9157329;;-1.92459;;-1.9374236;;-1.9543028;;-1.9738982;;-1.9941459;;-2.0122773;;-2.0337073;;-2.0868102;;-2.1730945;;-2.2959826;;-2.4601944;;-2.6696844;;-2.9236165;;-3.2219181;;-3.5605878;;-3.9273361;;-4.2941023;;-4.6241354;;-4.9187549;;-5.1974544;;-5.4639587;;-5.709646;;-5.9230444;;-6.0988124;;-6.2420107;;-6.36429;;-6.4757578;;-6.5796309;;-6.6735111;;-6.7553624;;-6.8274335;;-6.8934722;;-6.9545597;;-7.0095407;;-7.0583723;;-7.1017203;;-7.1383794;;-7.1647572;;-7.1747334;;-7.1579549;;-7.1079976;;-7.0440566;;-7.0127556;;-7.04645;;-7.1252336;;-7.1997632;;-7.2408335;;-7.2542219;;-7.2594674;;-7.2708429;;-7.2947523;;-7.3323183;;-7.3783787;;-7.3783786
-1.5125789;;-1.5125789;;-1.5179215;;-1.5271043;;-1.5392992;;-1.5542943;;-1.5713402;;-1.8825286;;-1.8968348;;-1.9055254;;-1.9119512;;-1.921344;;-1.9354338;;-1.9531753;;-1.9727812;;-1.9920605;;-2.0092602;;-2.0244428;;-2.0621167;;-2.1359497;;-2.2459236;;-2.3959348;;-2.5897803;;-2.8275385;;-3.1091574;;-3.4330963;;-3.7918185;;-4.1663686;;-4.5247851;;-4.8496835;;-5.1514567;;-5.4368869;;-5.6998601;;-5.9283555;;-6.1154626;;-6.2663242;;-6.394441;;-6.5112387;;-6.6191564;;-6.7138319;;-6.7923932;;-6.8581985;;-6.9171579;;-6.9721135;;-7.0233688;;-7.0717751;;-7.1177665;;-7.1586535;;-7.1892231;;-7.2022701;;-7.1869343;;-7.1368015;;-7.0709478;;-7.0361452;;-7.0657381;;-7.1406447;;-7.2121018;;-7.2507441;;-7.2621549;;-7.2664559;;-7.2786441;;-7.3050091;;-7.345632;;-7.3937082;;-7.393708
-1.5122745;;-1.5122745;;-1.5160896;;-1.524304;;-1.5355591;;-1.5495626;;-1.5657041;;-1.8769334;;-1.8918175;;-1.90058;;-1.9071802;;-1.9180912;;-1.9335528;;-1.9518919;;-1.9708845;;-1.9896415;;-2.006849;;-2.0210562;;-2.0427864;;-2.1019216;;-2.1977839;;-2.3327452;;-2.5099128;;-2.730946;;-2.9952661;;-3.3031323;;-3.6509992;;-4.0271142;;-4.4075781;;-4.7642235;;-5.0915178;;-5.3971457;;-5.6794123;;-5.9267965;;-6.1302138;;-6.2937301;;-6.4318978;;-6.556643;;-6.6689674;;-6.763119;;-6.8366638;;-6.8947536;;-6.9450507;;-6.991966;;-7.0376122;;-7.0846536;;-7.1336306;;-7.179979;;-7.216475;;-7.2364287;;-7.2318798;;-7.1977759;;-7.1476326;;-7.116837;;-7.1333189;;-7.1856743;;-7.2371989;;-7.264613;;-7.2720848;;-7.2762613;;-7.2904803;;-7.3198704;;-7.3636625;;-7.4135409;;-7.4135407
-1.5121481;;-1.5121481;;-1.513507;;-1.5198324;;-1.5293949;;-1.5416997;;-1.5564117;;-1.8668424;;-1.8828446;;-1.8941696;;-1.9023832;;-1.9133351;;-1.9281395;;-1.9440658;;-1.9610356;;-1.9803571;;-2.0007646;;-2.0185663;;-2.0347432;;-2.0768139;;-2.1580606;;-2.2783048;;-2.4396912;;-2.644481;;-2.8926174;;-3.1844423;;-3.5190686;;-3.8897099;;-4.279484;;-4.6598686;;-5.0111274;;-5.3371113;;-5.6409941;;-5.9129759;;-6.1406999;;-6.3239428;;-6.4753751;;-6.6069267;;-6.7201826;;-6.8108491;;-6.8786243;;-6.9299151;;-6.9728229;;-7.0126447;;-7.0533094;;-7.0991321;;-7.1508541;;-7.2024397;;-7.2452741;;-7.2735102;;-7.2828904;;-7.2701368;;-7.2418338;;-7.2188492;;-7.2204603;;-7.2439545;;-7.2690936;;-7.2815656;;-7.2843175;;-7.2890845;;-7.3052726;;-7.3364466;;-7.3815462;;-7.4320274;;-7.4320273
-1.5121118;;-1.5121118;;-1.5124029;;-1.5154207;;-1.5228156;;-1.5331781;;-1.5461361;;-1.5611416;;-1.8718071;;-1.8865638;;-1.8973765;;-1.9062567;;-1.9158924;;-1.9263886;;-1.9400729;;-1.9603045;;-1.9860019;;-2.0117175;;-2.0330395;;-2.063455;;-2.1311689;;-2.2378317;;-2.3854396;;-2.5755986;;-2.8098344;;-3.0870032;;-3.4078429;;-3.7684888;;-4.157085;;-4.5494461;;-4.919332;;-5.2634102;;-5.5883405;;-5.8876113;;-6.145097;;-6.3522759;;-6.5161295;;-6.6492956;;-6.7582256;;-6.8438116;;-6.9081132;;-6.9566775;;-6.9960121;;-7.0320319;;-7.0705302;;-7.1166205;;-7.170484;;-7.2255185;;-7.2730744;;-7.3080048;;-7.327937;;-7.3309359;;-7.3191558;;-7.302941;;-7.2944915;;-7.2961177;;-7.3000787;;-7.3000054;;-7.298859;;-7.3043725;;-7.3217772;;-7.3530312;;-7.3974114;;-7.4469877;;-7.4469876
-1.5120953;;-1.5120953;;-1.5121859;;-1.5128935;;-1.5174683;;-1.5258764;;-1.537129;;-1.5509272;;-1.5665785;;-1.8778517;;-1.8916184;;-1.8982399;;-1.9004928;;-1.904681;;-1.9168899;;-1.9378667;;-1.9670056;;-1.999513;;-2.0284558;;-2.059413;;-2.117314;;-2.2131488;;-2.349822;;-2.5286449;;-2.7520239;;-3.0184014;;-3.3282539;;-3.6797459;;-4.064285;;-4.4620959;;-4.845287;;-5.2027463;;-5.5424062;;-5.8624224;;-6.1443404;;-6.3705059;;-6.5410922;;-6.670609;;-6.7731661;;-6.8560221;;-6.9221437;;-6.97376;;-7.0145847;;-7.0510202;;-7.0907274;;-7.1384436;;-7.1929514;;-7.2479445;;-7.2964468;;-7.3341124;;-7.3586036;;-7.3679278;;-7.362363;;-7.3480253;;-7.3345503;;-7.3267598;;-7.3220815;;-7.3172309;;-7.3146958;;-7.3205363;;-7.3385292;;-7.3694677;;-7.412801;;-7.4612914;;-7.4612913
-1.5120893;;-1.5120893;;-1.5121115;;-1.5122677;;-1.5138318;;-1.5202361;;-1.5298532;;-1.5421471;;-1.5566112;;-1.5721988;;-1.8824586;;-1.8893948;;-1.8853231;;-1.8842906;;-1.8960839;;-1.9195678;;-1.9516238;;-1.9887514;;-2.0214119;;-2.0563493;;-2.112841;;-2.203371;;-2.3339184;;-2.506446;;-2.7240196;;-2.985934;;-3.2917362;;-3.6403467;;-4.0251618;;-4.4287702;;-4.8218337;;-5.1857441;;-5.5280965;;-5.8522888;;-6.1409918;;-6.3722045;;-6.5422992;;-6.6675707;;-6.7672944;;-6.8523083;;-6.9250607;;-6.9844192;;-7.0313017;;-7.0719501;;-7.1146933;;-7.1636512;;-7.2165613;;-7.2682662;;-7.3140115;;-7.3504507;;-7.3743568;;-7.3820877;;-7.3725031;;-7.352071;;-7.3339327;;-7.3272627;;-7.3289562;;-7.3307505;;-7.3312293;;-7.3371253;;-7.3545616;;-7.3849774;;-7.427699;;-7.4754517;;-7.4754516
-1.5120879;;-1.5120879;;-1.5120913;;-1.5121202;;-1.5123766;;-1.5155993;;-1.5230725;;-1.5333248;;-1.545835;;-1.55957;;-1.5728023;;-1.8758895;;-1.8710097;;-1.8677141;;-1.8817043;;-1.907436;;-1.9423076;;-1.9826231;;-2.0160737;;-2.0539653;;-2.113396;;-2.2043545;;-2.3344794;;-2.50715;;-2.7257005;;-2.990561;;-3.3008968;;-3.6554027;;-4.0476745;;-4.46023;;-4.86004;;-5.2212934;;-5.5516331;;-5.859986;;-6.1344517;;-6.3561947;;-6.5220941;;-6.6475459;;-6.7507471;;-6.8419314;;-6.9231827;;-6.9922098;;-7.0479956;;-7.0949992;;-7.1406523;;-7.1889699;;-7.2386858;;-7.2862306;;-7.328278;;-7.3616455;;-7.3819963;;-7.3835076;;-7.362999;;-7.3288468;;-7.3026099;;-7.3017711;;-7.3207875;;-7.3394353;;-7.3477881;;-7.353696;;-7.3687532;;-7.3969357;;-7.4380331;;-7.4847208;;-7.4847207
-1.5120878;;-1.5120878;;-1.512088;;-1.5120917;;-1.5121469;;-1.5127768;;-1.5171275;;-1.524889;;-1.5350153;;-1.5465539;;-1.5578242;;-1.5647666;;-1.8556515;;-1.8533132;;-1.8698666;;-1.5977538;;-1.6306311;;-1.6730477;;-2.0076746;;-2.0529162;;-2.1159953;;-2.2093094;;-2.3425201;;-2.5199274;;-2.7447406;;-3.0171128;;-3.3375162;;-3.7037905;;-4.1085733;;-4.5324977;;-4.9363291;;-5.2863868;;-5.5925158;;-5.8703205;;-6.1172104;;-6.3229579;;-6.4863897;;-6.6182007;;-6.7306087;;-6.8307923;;-6.9209888;;-6.9996955;;-7.0648063;;-7.1181181;;-7.1654204;;-7.2117134;;-7.2581561;;-7.3028626;;-7.342384;;-7.3726705;;-7.3886649;;-7.3836354;;-7.352422;;-7.304094;;-7.2681427;;-7.2714384;;-7.3070979;;-7.3434081;;-7.3609711;;-7.3673643;;-7.378493;;-7.4019532;;-7.4388764;;-7.4830313;;-7.4830312
-1.5120878;;-1.5120878;;-1.5120878;;-1.5120882;;-1.5121021;;-1.5122475;;-1.5133166;;-1.5179351;;-1.5253722;;-1.5345057;;-1.5437344;;-1.5495676;;-1.5461021;;-1.5456239;;-1.5608622;;-1.5844531;;-1.6164855;;-1.6585872;;-1.9983022;;-2.0510506;;-2.1168063;;-2.2113974;;-2.3464583;;-2.5280166;;-2.7580744;;-3.037636;;-3.3674579;;-3.74552;;-4.163343;;-4.599683;;-5.0079491;;-5.3427512;;-5.6183693;;-5.8604678;;-6.0781287;;-6.2701001;;-6.4358656;;-6.5794973;;-6.7058621;;-6.8182054;;-6.9184962;;-7.0062495;;-7.0791117;;-7.1370544;;-7.1848776;;-7.2290258;;-7.2730962;;-7.3161376;;-7.3539233;;-7.3814657;;-7.3943706;;-7.3868304;;-7.3529022;;-7.3001187;;-7.2592891;;-7.2613523;;-7.301254;;-7.3443629;;-7.3668689;;-7.3739556;;-7.3816189;;-7.3988062;;-7.4291091;;-7.4691504;;-7.4691502
-1.5120878;;-1.5120878;;-1.5120878;;-1.5120878;;-1.5120905;;-1.5121236;;-1.5123458;;-1.5135502;;-1.5178527;;-1.5244096;;-1.5314861;;-1.5360155;;-1.5332826;;-1.5360044;;-1.550991;;-1.5736519;;-1.6045483;;-1.6454918;;-1.9878346;;-2.0445374;;-2.1102053;;-2.2023704;;-2.3349798;;-2.5142244;;-2.7434783;;-3.0239954;;-3.3567847;;-3.7401582;;-4.1660841;;-4.6133407;;-5.0313965;;-5.3565962;;-5.6054171;;-5.817467;;-6.0124891;;-6.1961152;;-6.3680367;;-6.526786;;-6.6704772;;-6.7977602;;-6.9090449;;-7.0046328;;-7.0830659;;-7.1441432;;-7.1924097;;-7.2351891;;-7.2774053;;-7.3186107;;-7.3543862;;-7.3800132;;-7.392643;;-7.3883778;;-7.3618465;;-7.3178923;;-7.2811467;;-7.2785693;;-7.3091508;;-7.345545;;-7.3665476;;-7.373979;;-7.3795826;;-7.3909905;;-7.4133064;;-7.4476892;;-7.4476891
-1.5120878;;-1.5120878;;-1.5120878;;-1.5120878;;-1.5120881;;-1.5120926;;-1.5121337;;-1.5123523;;-1.5133081;;-1.5167936;;-1.5216814;;-1.5249566;;-1.5229635;;-1.5279843;;-1.5421755;;-1.5632383;;-1.5920114;;-1.6303256;;-1.680737;;-2.0271445;;-2.0918226;;-2.1773016;;-2.3018598;;-2.4722398;;-2.6920669;;-2.9640356;;-3.2890291;;-3.6663788;;-4.0894923;;-4.5406167;;-4.9736749;;-5.3083461;;-5.5481036;;-5.7451268;;-5.9269345;;-6.10513;;-6.2826763;;-6.4561324;;-6.6175553;;-6.7601111;;-6.8819035;;-6.9840952;;-7.0669955;;-7.1312473;;-7.1811755;;-7.2238888;;-7.2645417;;-7.3033671;;-7.3371182;;-7.3627053;;-7.3782793;;-7.3812107;;-7.3676761;;-7.3400204;;-7.314138;;-7.3087887;;-7.3260255;;-7.349841;;-7.3653045;;-7.3720953;;-7.3766433;;-7.3839279;;-7.4000956;;-7.4277058;;-7.4277056
-1.5120878;;-1.5120878;;-1.5120878;;-1.5120878;;-1.5120878;;-1.5120881;;-1.5120928;;-1.5121256;;-1.5122503;;-1.5126856;;-1.5147008;;-1.5167143;;-1.515495;;-1.5209022;;-1.5336793;;-1.5525325;;-1.5783701;;-1.6129237;;-1.658577;;-2.0022772;;-2.0624659;;-2.1390467;;-2.2511098;;-2.4067413;;-2.6102859;;-2.8642491;;-3.1706714;;-3.529534;;-3.9364531;;-4.3792781;;-4.8232266;;-5.1897264;;-5.446988;;-5.6485135;;-5.8268496;;-6.0003123;;-6.1797095;;-6.3637635;;-6.5401478;;-6.6969145;;-6.8296651;;-6.9396471;;-7.0284155;;-7.0973862;;-7.1506563;;-7.1947266;;-7.2345937;;-7.2712899;;-7.3038779;;-7.3311972;;-7.3517331;;-7.3629555;;-7.3623197;;-7.3512512;;-7.3383906;;-7.3348739;;-7.3432209;;-7.3557283;;-7.3650368;;-7.3701246;;-7.3745446;;-7.3818199;;-7.3960371;;-7.4192415;;-7.4192413
-1.5120878;;-1.5120878;;-1.5120878;;-1.5120878;;-1.5120878;;-1.5120878;;-1.5120881;;-1.5120906;;-1.5121012;;-1.5121274;;-1.5121919;;-1.5123617;;-1.5122556;;-1.515336;;-1.5260102;;-1.5422316;;-1.5647172;;-1.5949899;;-1.6351733;;-1.6880131;;-2.0259707;;-2.0941019;;-2.1923142;;-2.3300319;;-2.5128214;;-2.7432846;;-3.0235285;;-3.3544667;;-3.7336922;;-4.15489;;-4.5956765;;-4.9970197;;-5.2935341;;-5.5164389;;-5.7024785;;-5.8762154;;-6.057006;;-6.2477507;;-6.4354228;;-6.6059893;;-6.7529845;;-6.8754208;;-6.9736514;;-7.0492625;;-7.1068016;;-7.1531096;;-7.1933595;;-7.2292831;;-7.2617212;;-7.2914465;;-7.3171433;;-7.33599;;-7.3462144;;-7.3489628;;-7.3484229;;-7.3492104;;-7.3528067;;-7.3571027;;-7.360392;;-7.36409;;-7.3711204;;-7.3829189;;-7.399485;;-7.4207867;;-7.4207865
-1.5120878;;-1.5120878;;-1.5120878;;-1.5120878;;-1.5120878;;-1.5120878;;-1.5120878;;-1.5120878;;-1.5120879;;-1.5120881;;-1.5120885;;-1.512089;;-1.5120889;;-1.5123931;;-1.5197833;;-1.5330356;;-1.5520986;;-1.5780994;;-1.6128269;;-1.6586735;;-1.9887992;;-2.0496002;;-2.1340377;;-2.2533427;;-2.4140519;;-2.6192266;;-2.8708269;;-3.1695716;;-3.514897;;-3.9053214;;-4.3285243;;-4.7454884;;-5.085424;;-5.3394353;;-5.5448494;;-5.7297322;;-5.9170989;;-6.1134966;;-6.3099153;;-6.4946319;;-6.6596085;;-6.7990484;;-6.9096556;;-6.9928132;;-7.0547533;;-7.103882;;-7.1460681;;-7.1833483;;-7.2172273;;-7.2495328;;-7.2798426;;-7.3054443;;-7.3248526;;-7.3386328;;-7.3471851;;-7.3506693;;-7.34985;;-7.3469204;;-7.3451368;;-7.3489043;;-7.3612218;;-7.379829;;-7.4001339;;-7.4192092;;-7.419209
-1.5120878;;-1.5120878;;-1.5120878;;-1.5120878;;-1.5120878;;-1.5120878;;-1.5120878;;-1.5120878;;-1.5120878;;-1.5120878;;-1.5120878;;-1.5120878;;-1.5120878;;-1.5120945;;-1.514867;;-1.5253403;;-1.5413214;;-1.5634919;;-1.5933335;;-1.6329122;;-1.9571036;;-2.0118486;;-2.0842962;;-2.1867617;;-2.326488;;-2.5077923;;-2.732099;;-2.9994746;;-3.3109098;;-3.6685088;;-4.0667543;;-4.4805175;;-4.8531295;;-5.1411979;;-5.3719017;;-5.5746998;;-5.7717718;;-5.973167;;-6.1773015;;-6.3767282;;-6.5609226;;-6.7179258;;-6.8405979;;-6.9307656;;-6.9972031;;-7.0501361;;-7.0960733;;-7.1371263;;-7.1746302;;-7.2105603;;-7.2452219;;-7.2771141;;-7.3045965;;-7.3260768;;-7.3388769;;-7.3411295;;-7.3350687;;-7.3257491;;-7.3201987;;-7.3252406;;-7.3430493;;-7.3679968;;-7.3904905;;-7.4062642;;-7.406264
-1.5120878;;-1.5120878;;-1.5120878;;-1.5120878;;-1.5120878;;-1.5120878;;-1.5120878;;-1.5120878;;-1.5120878;;-1.5120878;;-1.5120878;;-1.5120878;;-1.5120878;;-1.5120881;;-1.5123679;;-1.5196286;;-1.5328026;;-1.5517744;;-1.57764;;-1.6121558;;-1.9327287;;-1.9836649;;-2.0478171;;-2.1374536;;-2.2593312;;-2.4202842;;-2.621686;;-2.8627357;;-3.1457449;;-3.4753258;;-3.8501939;;-4.2541941;;-4.6459539;;-4.9656294;;-5.2173074;;-5.4325288;;-5.6346027;;-5.8391496;;-6.0518102;;-6.2671321;;-6.4697557;;-6.6417433;;-6.7739856;;-6.8701242;;-6.9412532;;-6.9984724;;-7.0485412;;-7.0940378;;-7.1362485;;-7.1766055;;-7.2158794;;-7.2535108;;-7.2874705;;-7.3131047;;-7.32548;;-7.3245268;;-7.3144506;;-7.3017369;;-7.294402;;-7.3005518;;-7.3220955;;-7.3504773;;-7.3723406;;-7.3835866;;-7.3835864
-1.5120878;;-1.5120878;;-1.5120878;;-1.5120878;;-1.5120878;;-1.5120878;;-1.5120878;;-1.5120878;;-1.5120878;;-1.5120878;;-1.5120878;;-1.5120878;;-1.5120878;;-1.5120879;;-1.5121044;;-1.5155954;;-1.5265751;;-1.5431606;;-1.5661023;;-1.5969384;;-1.637793;;-1.9633428;;-2.0254962;;-2.108137;;-2.2165751;;-2.3612525;;-2.5449509;;-2.7658631;;-3.027456;;-3.3360859;;-3.6933369;;-4.0884815;;-4.4897443;;-4.834567;;-5.0979102;;-5.3145916;;-5.5155374;;-5.7232596;;-5.947066;;-6.1793211;;-6.3985147;;-6.5824574;;-6.72198;;-6.8230652;;-6.898061;;-6.9577455;;-7.0092662;;-7.0566192;;-7.1017077;;-7.1453703;;-7.1881651;;-7.2300729;;-7.2677334;;-7.2943006;;-7.3048427;;-7.3017343;;-7.2916498;;-7.2805751;;-7.274771;;-7.2816049;;-7.3021445;;-7.3267336;;-7.3401619;;-7.3417094;;-7.3417092
-1.5120878;;-1.5120878;;-1.5120878;;-1.5120878;;-1.5120878;;-1.5120878;;-1.5120878;;-1.5120878;;-1.5120878;;-1.5120878;;-1.5120878;;-1.5120878;;-1.5120878;;-1.5120878;;-1.5120904;;-1.5132198;;-1.5224682;;-1.5372858;;-1.558183;;-1.5865179;;-1.6242415;;-1.9490101;;-2.0124997;;-2.0938987;;-2.1940324;;-2.3259795;;-2.4954322;;-2.7005643;;-2.9461807;;-3.2397788;;-3.5845729;;-3.9727291;;-4.3780392;;-4.7416185;;-5.0125066;;-5.2268587;;-5.4274459;;-5.6416261;;-5.8779096;;-6.1246311;;-6.3560041;;-6.5480519;;-6.6923879;;-6.7962966;;-6.8721958;;-6.9304025;;-6.9789168;;-7.023796;;-7.0679033;;-7.1116771;;-7.1553473;;-7.1984366;;-7.2365272;;-7.2620558;;-7.2716243;;-7.2693848;;-7.2630028;;-7.2576762;;-7.2560937;;-7.2612736;;-7.2686033;;-7.2688963;;-7.2525076;;-7.2309056;;-7.2309053
-1.5120878;;-1.5120878;;-1.5120878;;-1.5120878;;-1.5120878;;-1.5120878;;-1.5120878;;-1.5120878;;-1.5120878;;-1.5120878;;-1.5120878;;-1.5120878;;-1.5120878;;-1.5120878;;-1.5120883;;-1.5123543;;-1.5197542;;-1.5332118;;-1.5526692;;-1.5792803;;-1.6148639;;-1.661844;;-1.7232942;;-1.8030137;;-2.1789216;;-2.3055983;;-2.4629433;;-2.6547643;;-2.8886107;;-3.1723417;;-3.5094025;;-3.8934324;;-4.3020644;;-4.6822984;;-4.9653771;;-5.1826694;;-5.3879035;;-5.6097631;;-5.854188;;-6.1073804;;-6.3429112;;-6.537141;;-6.6820341;;-6.7847567;;-6.8572835;;-6.9100876;;-6.952372;;-6.9915986;;-7.0313923;;-7.0721671;;-7.1138213;;-7.154944;;-7.1906682;;-7.2146944;;-7.2246167;;-7.2248442;;-7.222421;;-7.2217083;;-7.2224212;;-7.2170551;;-7.1895984;;-7.1303071;;-7.04658;;-6.9791778;;-6.9791775
-1.5120878;;-1.5120878;;-1.5120878;;-1.5120878;;-1.5120878;;-1.5120878;;-1.5120878;;-1.5120878;;-1.5120878;;-1.5120878;;-1.5120878;;-1.5120878;;-1.5120878;;-1.5120878;;-1.5120879;;-1.5121578;;-1.5179315;;-1.5304586;;-1.5489596;;-1.5744411;;-1.6086444;;-1.6539214;;-1.7132663;;-1.7903926;;-1.889815;;-2.2928839;;-2.4426028;;-2.6242659;;-2.8510288;;-3.1302563;;-3.4645649;;-3.8485731;;-4.2628984;;-4.6603639;;-4.963538;;-5.1911735;;-5.4030295;;-5.6277139;;-5.8704272;;-6.1189789;;-6.3495399;;-6.5395643;;-6.6801924;;-6.7775536;;-6.8434922;;-6.8890984;;-6.9242948;;-6.9570749;;-6.9913025;;-7.027724;;-7.0657201;;-7.1029141;;-7.1351413;;-7.1577;;-7.1687859;;-7.1705189;;-7.1675947;;-7.1647796;;-7.1600841;;-7.1338152;;-7.0520906;;-6.9033937;;-6.7229613;;-6.59352;;-6.5935197
-1.5120878;;-1.5120878;;-1.5120878;;-1.5120878;;-1.5120878;;-1.5120878;;-1.5120878;;-1.5120878;;-1.5120878;;-1.5120878;;-1.5120878;;-1.5120878;;-1.5120878;;-1.5120878;;-1.5120878;;-1.5121127;;-1.5167137;;-1.5286209;;-1.5464783;;-1.5712062;;-1.6045036;;-1.6486797;;-1.7066819;;-2.0406652;;-1.8796279;;-2.0043774;;-2.4282281;;-2.6038448;;-2.826923;;-3.1049071;;-3.4393676;;-3.8257775;;-4.2473601;;-4.662057;;-4.990983;;-5.2345045;;-5.4523037;;-5.673157;;-5.9047028;;-6.1397795;;-6.3592607;;-6.5415138;;-6.6756872;;-6.766272;;-6.8252799;;-6.8643942;;-6.8934282;;-6.9203133;;-6.9495843;;-6.9819509;;-7.0157889;;-7.0485297;;-7.0771865;;-7.098555;;-7.1104719;;-7.1115134;;-7.10253;;-7.0899928;;-7.0741107;;-7.0270668;;-6.8970799;;-6.6686567;;-6.4038084;;-6.220968;;-6.2209677
-1.5120878;;-1.5120878;;-1.5120878;;-1.5120878;;-1.5120878;;-1.5120878;;-1.5120878;;-1.5120878;;-1.5120878;;-1.5120878;;-1.5120878;;-1.5120878;;-1.5120878;;-1.5120878;;-1.5120878;;-1.5120971;;-1.5156239;;-1.5269302;;-1.5441253;;-1.5680547;;-1.6003703;;-1.6433301;;-1.9589122;;-2.0338136;;-2.1294975;;-1.9906531;;-2.4089698;;-2.579703;;-2.8004086;;-3.0768118;;-3.4103012;;-3.7975457;;-4.2243946;;-4.6539454;;-5.0106233;;-5.273819;;-5.4981066;;-5.7126712;;-5.9291991;;-6.1479892;;-6.355848;;-6.5315832;;-6.6613469;;-6.7475059;;-6.8020942;;-6.8369161;;-6.8613984;;-6.8835708;;-6.9086761;;-6.937359;;-6.9667989;;-6.9950456;;-7.0203505;;-7.0408205;;-7.0530085;;-7.0519206;;-7.0359493;;-7.0124722;;-6.9879543;;-6.9364141;;-6.7981364;;-6.5516258;;-6.2659932;;-6.0692483;;-6.069248
-1.5120878;;-1.5120878;;-1.5120878;;-1.5120878;;-1.5120878;;-1.5120878;;-1.5120878;;-1.5120878;;-1.5120878;;-1.5120878;;-1.5120878;;-1.5120878;;-1.5120878;;-1.5120878;;-1.5120878;;-1.5120903;;-1.5143309;;-1.5248097;;-1.5410692;;-1.5638587;;-1.5947501;;-1.6359137;;-1.9498602;;-2.0222898;;-2.1136084;;-2.2284283;;-2.3694005;;-2.5413953;;-2.7608218;;-3.0332092;;-3.3621109;;-3.746086;;-4.1736573;;-4.6131641;;-4.9954862;;-5.278589;;-5.5089655;;-5.717592;;-5.9210974;;-6.1275331;;-6.3289269;;-6.5036442;;-6.6342528;;-6.7206166;;-6.7744955;;-6.8076732;;-6.8292598;;-6.8476748;;-6.8682525;;-6.8910428;;-6.9141816;;-6.9371237;;-6.9602326;;-6.981212;;-6.994634;;-6.9937122;;-6.9755984;;-6.9489581;;-6.9258061;;-6.8900229;;-6.790824;;-6.6029714;;-6.3794995;;-6.2256933;;-6.225693
-1.5120878;;-1.5120878;;-1.5120878;;-1.5120878;;-1.5120878;;-1.5120878;;-1.5120878;;-1.5120878;;-1.5120878;;-1.5120878;;-1.5120878;;-1.5120878;;-1.5120878;;-1.5120878;;-1.5120878;;-1.5120883;;-1.5130491;;-1.5222983;;-1.5373044;;-1.5586218;;-1.5876771;;-1.6265099;;-1.6777829;;-1.744852;;-2.0908687;;-2.1933654;;-2.3261324;;-2.4962152;;-2.7102667;;-2.9749955;;-3.2954629;;-3.6716641;;-4.0947308;;-4.5383083;;-4.9414705;;-5.2410725;;-5.4729624;;-5.674883;;-5.8700887;;-6.0722366;;-6.2753566;;-6.456012;;-6.5932549;;-6.6845684;;-6.7410979;;-6.7749802;;-6.7955851;;-6.8104282;;-6.8231846;;-6.8334056;;-6.8430109;;-6.8577456;;-6.8814989;;-6.9088981;;-6.9292079;;-6.9346492;;-6.9234054;;-6.9048106;;-6.8924982;;-6.880717;;-6.8366746;;-6.7377989;;-6.6112033;;-6.5221987;;-6.5221984
-1.5120878;;-1.5120878;;-1.5120878;;-1.5120878;;-1.5120878;;-1.5120878;;-1.5120878;;-1.5120878;;-1.5120878;;-1.5120878;;-1.5120878;;-1.5120878;;-1.5120878;;-1.5120878;;-1.5120878;;-1.5120879;;-1.5123081;;-1.5195897;;-1.5330838;;-1.5526994;;-1.5796246;;-1.6157345;;-1.6635302;;-1.7261877;;-2.0659061;;-2.1596076;;-2.284528;;-2.445885;;-2.6502279;;-2.9040852;;-3.2123351;;-3.5761767;;-3.989402;;-4.4311422;;-4.8497624;;-5.1653655;;-5.3950448;;-5.5895678;;-5.7811294;;-5.9863038;;-6.1980346;;-6.3899382;;-6.5381563;;-6.6379029;;-6.699619;;-6.7362133;;-6.7574074;;-6.7679975;;-6.7670016;;-6.7539854;;-6.738327;;-6.7395057;;-6.7677282;;-6.8114822;;-6.8497041;;-6.8699774;;-6.8736848;;-6.8710304;;-6.8730042;;-6.8793171;;-6.8736901;;-6.8421545;;-6.7939302;;-6.7597228;;-6.7597225
-1.5120878;;-1.5120878;;-1.5120878;;-1.5120878;;-1.5120878;;-1.5120878;;-1.5120878;;-1.5120878;;-1.5120878;;-1.5120878;;-1.5120878;;-1.5120878;;-1.5120878;;-1.5120878;;-1.5120878;;-1.5120878;;-1.5121136;;-1.5167034;;-1.5285347;;-1.5462574;;-1.5707843;;-1.6038102;;-1.6476456;;-1.9678382;;-2.0368567;;-2.122909;;-2.238095;;-2.3883128;;-2.579965;;-2.8195261;;-3.111593;;-3.4581341;;-3.8559024;;-4.2895029;;-4.7173007;;-5.055819;;-5.2893846;;-5.4811715;;-5.6732587;;-5.8843221;;-6.1061951;;-6.3106854;;-6.4718695;;-6.5823684;;-6.651291;;-6.6922316;;-6.7142907;;-6.7186989;;-6.6998756;;-6.6567587;;-6.6087778;;-6.5921357;;-6.6261198;;-6.692513;;-6.7567662;;-6.7990915;;-6.8218756;;-6.8361614;;-6.8500975;;-6.8644227;;-6.8726936;;-6.8699744;;-6.8603747;;-6.8551582;;-6.855158
-1.5120878;;-1.5120878;;-1.5120878;;-1.5120878;;-1.5120878;;-1.5120878;;-1.5120878;;-1.5120878;;-1.5120878;;-1.5120878;;-1.5120878;;-1.5120878;;-1.5120878;;-1.5120878;;-1.5120878;;-1.5120878;;-1.5120897;;-1.5139357;;-1.5239604;;-1.5396141;;-1.5615619;;-1.5912942;;-1.6308968;;-1.9456426;;-2.0072029;;-2.0852144;;-2.1903713;;-2.3276384;;-2.5037407;;-2.7256562;;-2.998433;;-3.3244766;;-3.70253;;-4.1226947;;-4.5533513;;-4.923445;;-5.1792663;;-5.3795792;;-5.5754486;;-5.7892794;;-6.0155231;;-6.2281233;;-6.4005923;;-6.5224387;;-6.600264;;-6.6466257;;-6.6692513;;-6.6666526;;-6.632296;;-6.5664191;;-6.4951347;;-6.4642879;;-6.500037;;-6.5821671;;-6.6678346;;-6.7307666;;-6.7706324;;-6.7972979;;-6.8180909;;-6.8339372;;-6.842626;;-6.845014;;-6.8461481;;-6.8504181;;-6.8504179
-1.5120878;;-1.5120878;;-1.5120878;;-1.5120878;;-1.5120878;;-1.5120878;;-1.5120878;;-1.5120878;;-1.5120878;;-1.5120878;;-1.5120878;;-1.5120878;;-1.5120878;;-1.5120878;;-1.5120878;;-1.5120878;;-1.512088;;-1.5123981;;-1.5199083;;-1.533388;;-1.5528346;;-1.5794223;;-1.6149917;;-1.9258777;;-1.9808623;;-2.0504129;;-2.1450707;;-2.2693113;;-2.4302639;;-2.6346661;;-2.8882764;;-3.1943772;;-3.55338;;-3.9596302;;-4.3906498;;-4.7939401;;-5.0939209;;-5.3146828;;-5.5149618;;-5.7241323;;-5.943802;;-6.1536574;;-6.328408;;-6.4559491;;-6.5416512;;-6.596024;;-6.6229146;;-6.6192901;;-6.5809294;;-6.5132343;;-6.4423112;;-6.4099225;;-6.4412917;;-6.520979;;-6.6102753;;-6.6814783;;-6.7288846;;-6.7596644;;-6.7815928;;-6.7966122;;-6.8038879;;-6.8061658;;-6.8086702;;-6.8149123;;-6.814912
-1.5120878;;-1.5120878;;-1.5120878;;-1.5120878;;-1.5120878;;-1.5120878;;-1.5120878;;-1.5120878;;-1.5120878;;-1.5120878;;-1.5120878;;-1.5120878;;-1.5120878;;-1.5120878;;-1.5120878;;-1.5120878;;-1.5120879;;-1.5121277;;-1.5166218;;-1.5282399;;-1.5456051;;-1.569591;;-1.6018492;;-1.6446417;;-1.9587168;;-2.0222466;;-2.1084268;;-2.2220704;;-2.3705728;;-2.5610724;;-2.7997938;;-3.0908159;;-3.4363596;;-3.8336;;-4.2666742;;-4.6971363;;-5.0515008;;-5.2996949;;-5.5024991;;-5.7004958;;-5.9032318;;-6.0946861;;-6.2513978;;-6.3663791;;-6.4529707;;-6.5226119;;-6.5692164;;-6.5812631;;-6.5568721;;-6.5086733;;-6.4602513;;-6.439622;;-6.4643723;;-6.5267121;;-6.6011352;;-6.664162;;-6.7060487;;-6.7314004;;-6.7488671;;-6.7619459;;-6.7697948;;-6.7735126;;-6.777007;;-6.783603;;-6.7836028
-1.5120878;;-1.5120878;;-1.5120878;;-1.5120878;;-1.5120878;;-1.5120878;;-1.5120878;;-1.5120878;;-1.5120878;;-1.5120878;;-1.5120878;;-1.5120878;;-1.5120878;;-1.5120878;;-1.5120878;;-1.5120878;;-1.5120879;;-1.5120987;;-1.5143475;;-1.5245667;;-1.5403781;;-1.5624806;;-1.5924003;;-1.6322696;;-1.9427985;;-2.0023534;;-2.0828729;;-2.189614;;-2.3297387;;-2.5113309;;-2.7408894;;-3.0232088;;-3.3618426;;-3.7554804;;-4.1923064;;-4.6425766;;-5.0435546;;-5.3215015;;-5.5264723;;-5.7135636;;-5.895296;;-6.0527153;;-6.163636;;-6.2380413;;-6.3143784;;-6.4105023;;-6.5011854;;-6.551976;;-6.5574921;;-6.5382069;;-6.5179185;;-6.5137419;;-6.5346587;;-6.5785528;;-6.6320855;;-6.6773564;;-6.7049624;;-6.7185897;;-6.72762;;-6.7369468;;-6.7459988;;-6.752073;;-6.7574657;;-6.7639306;;-6.7639304
-1.5120878;;-1.5120878;;-1.5120878;;-1.5120878;;-1.5120878;;-1.5120878;;-1.5120878;;-1.5120878;;-1.5120878;;-1.5120878;;-1.5120878;;-1.5120878;;-1.5120878;;-1.5120878;;-1.5120878;;-1.5120878;;-1.5120878;;-1.5120915;;-1.5130738;;-1.5220839;;-1.5367221;;-1.5574937;;-1.5858045;;-1.6236928;;-1.9310051;;-1.987912;;-2.0650926;;-2.1675468;;-2.3023898;;-2.4781756;;-2.7017943;;-2.9787151;;-3.3130565;;-3.7043162;;-4.1433605;;-4.6064458;;-5.0397575;;-5.3491641;;-5.561711;;-5.7454966;;-5.910434;;-6.0280151;;-6.0766523;;-6.092621;;-6.151484;;-6.2803448;;-6.4285378;;-6.5298944;;-6.5691209;;-6.5745897;;-6.5751184;;-6.5842847;;-6.6057874;;-6.6390719;;-6.6764541;;-6.7050989;;-6.718522;;-6.720711;;-6.7210976;;-6.7257204;;-6.7341072;;-6.7417351;;-6.7488737;;-6.7549855;;-6.7549853
-1.5120878;;-1.5120878;;-1.5120878;;-1.5120878;;-1.5120878;;-1.5120878;;-1.5120878;;-1.5120878;;-1.5120878;;-1.5120878;;-1.5120878;;-1.5120878;;-1.5120878;;-1.5120878;;-1.5120878;;-1.5120879;;-1.512088;;-1.5120893;;-1.5124482;;-1.5200689;;-1.5336317;;-1.5532206;;-1.5800892;;-1.8721532;;-1.9172239;;-1.9735197;;-2.0485078;;-2.1471173;;-2.2769506;;-2.4468567;;-2.6641398;;-2.934511;;-3.2622546;;-3.6476048;;-4.0837042;;-4.5514966;;-5.0043944;;-5.3477433;;-5.5778287;;-5.7696375;;-5.930394;;-6.0225526;;-6.0251108;;-5.9966705;;-6.0415391;;-6.1930398;;-6.380762;;-6.5159921;;-6.5751626;;-6.5925201;;-6.6046315;;-6.6243254;;-6.6512822;;-6.6824957;;-6.7114243;;-6.730431;;-6.7360442;;-6.7320305;;-6.7269484;;-6.7276546;;-6.7338991;;-6.7412623;;-6.7487722;;-6.7536421;;-6.7536419
-1.5120878;;-1.5120878;;-1.5120878;;-1.5120878;;-1.5120878;;-1.5120878;;-1.5120878;;-1.5120878;;-1.5120878;;-1.5120878;;-1.5120878;;-1.5120878;;-1.5120878;;-1.512088;;-1.5120893;;-1.5120948;;-1.5121076;;-1.5121279;;-1.5122498;;-1.5180437;;-1.5304091;;-1.5486517;;-1.5738293;;-1.8629486;;-1.9039604;;-1.9578512;;-2.0290736;;-2.1224337;;-2.2452867;;-2.4068372;;-2.6147218;;-2.874633;;-3.1904898;;-3.5632679;;-3.9882756;;-4.450177;;-4.9092436;;-5.2830236;;-5.5378415;;-5.7488805;;-5.9267029;;-6.0295333;;-6.0348354;;-6.0050789;;-6.0480178;;-6.1970657;;-6.3810822;;-6.5109159;;-6.5634109;;-6.5771499;;-6.5949778;;-6.6285724;;-6.6689051;;-6.7053656;;-6.7327985;;-6.7492545;;-6.753618;;-6.7486301;;-6.7416691;;-6.7393843;;-6.7425486;;-6.7478397;;-6.7533715;;-6.7560639;;-6.7560637
-1.5120878;;-1.5120878;;-1.5120878;;-1.5120878;;-1.5120878;;-1.5120878;;-1.5120878;;-1.5120878;;-1.5120878;;-1.5120878;;-1.5120878;;-1.5120878;;-1.5120879;;-1.5120902;;-1.5121064;;-1.512167;;-1.512307;;-1.5125388;;-1.5129782;;-1.516302;;-1.5271587;;-1.543728;;-1.5668252;;-1.8529011;;-1.8907184;;-1.940487;;-2.006239;;-2.0926371;;-2.2062222;;-2.3563003;;-2.5510554;;-2.7958812;;-3.0942341;;-3.4471615;;-3.8516524;;-4.2950319;;-4.744855;;-5.1342249;;-5.4095603;;-5.645883;;-5.8662694;;-6.0248383;;-6.0865682;;-6.096982;;-6.1481915;;-6.273327;;-6.4193543;;-6.5144175;;-6.5408168;;-6.540333;;-6.5607498;;-6.6125669;;-6.6733489;;-6.7207001;;-6.7511168;;-6.7689257;;-6.7749276;;-6.7708174;;-6.7631528;;-6.7577036;;-6.7562577;;-6.756866;;-6.7581924;;-6.7584682;;-6.7584681
-1.5120878;;-1.5120878;;-1.5120878;;-1.5120878;;-1.5120878;;-1.5120878;;-1.5120878;;-1.5120878;;-1.5120878;;-1.5120878;;-1.5120878;;-1.5120878;;-1.5120888;;-1.5121036;;-1.5121974;;-1.5125293;;-1.5133177;;-1.5150302;;-1.5176444;;-1.5196545;;-1.5258284;;-1.5396314;;-1.8111622;;-1.8398908;;-1.8756108;;-1.9216898;;-1.9820748;;-2.0605948;;-2.1636849;;-2.3008031;;-2.4802978;;-2.7072766;;-2.9846387;;-3.3132966;;-3.6910316;;-4.106539;;-4.5342742;;-4.9213058;;-5.2046213;;-5.4642624;;-5.7436134;;-5.9881463;;-6.1361744;;-6.2021364;;-6.2616504;;-6.3578405;;-6.4650688;;-6.531198;;-6.539121;;-6.5274455;;-6.5482971;;-6.613024;;-6.6889385;;-6.7446719;;-6.7772631;;-6.7955283;;-6.8024585;;-6.7991233;;-6.7901001;;-6.7801258;;-6.7720281;;-6.7658571;;-6.7621081;;-6.7600601;;-6.76006
-1.5120878;;-1.5120878;;-1.5120878;;-1.5120878;;-1.5120878;;-1.5120878;;-1.5120878;;-1.5120878;;-1.5120878;;-1.5120878;;-1.5120879;;-1.5120884;;-1.5120952;;-1.5121594;;-1.5125115;;-1.5137103;;-1.5165472;;-1.5210309;;-1.5256051;;-1.5283677;;-1.5309178;;-1.7866031;;-1.8047156;;-1.8296536;;-1.8623421;;-1.9045826;;-1.9598998;;-2.0311617;;-2.1245407;;-2.2494434;;-2.4145172;;-2.6244857;;-2.8816523;;-3.1868572;;-3.5382237;;-3.9257253;;-4.3294723;;-4.7087057;;-4.997017;;-5.27541;;-5.6088789;;-5.9351533;;-6.1640799;;-6.275681;;-6.3366301;;-6.4111897;;-6.5023852;;-6.5699941;;-6.5883288;;-6.5821458;;-6.6021614;;-6.6634296;;-6.7349206;;-6.7858789;;-6.8136321;;-6.8279964;;-6.8333799;;-6.8303554;;-6.8200875;;-6.8054305;;-6.790111;;-6.7771311;;-6.7697907;;-6.7665018;;-6.7665017
-1.5120878;;-1.5120878;;-1.5120878;;-1.5120878;;-1.5120878;;-1.5120878;;-1.5120878;;-1.5120878;;-1.5120878;;-1.5120878;;-1.5120885;;-1.5120947;;-1.5121331;;-1.5123557;;-1.5133987;;-1.5167123;;-1.5224144;;-1.5294061;;-1.5359392;;-1.7842501;;-1.7870627;;-1.7944552;;-1.8069721;;-1.8261658;;-1.8537621;;-1.8916716;;-1.9424183;;-2.0080576;;-2.0941586;;-2.2096712;;-2.3632832;;-2.5599532;;-2.8016582;;-3.0890775;;-3.4201303;;-3.7874843;;-4.1773686;;-4.5602302;;-4.8736184;;-5.1705201;;-5.5341333;;-5.9058645;;-6.1839622;;-6.323929;;-6.3847012;;-6.448838;;-6.5425476;;-6.6325173;;-6.6812531;;-6.6951699;;-6.7145039;;-6.757721;;-6.8065155;;-6.8398238;;-6.85569;;-6.862405;;-6.864639;;-6.8616263;;-6.8510584;;-6.8337303;;-6.8132831;;-6.7954063;;-6.7852286;;-6.7808077;;-6.7808077
-1.5120878;;-1.5120878;;-1.5120878;;-1.5120878;;-1.5120878;;-1.5120878;;-1.5120878;;-1.5120878;;-1.5120878;;-1.5120878;;-1.5120915;;-1.5121245;;-1.5122878;;-1.5129783;;-1.5158745;;-1.5219824;;-1.5302061;;-1.5395133;;-1.7927617;;-1.7982589;;-1.8010851;;-1.8073013;;-1.8187505;;-1.8334622;;-1.8518629;;-1.8836915;;-1.9299416;;-1.9912737;;-2.072268;;-2.1811231;;-2.3262229;;-2.5132204;;-2.744066;;-3.0191504;;-3.3363775;;-3.6917202;;-4.0789791;;-4.47954;;-4.8451899;;-5.1675039;;-5.5341102;;-5.9097526;;-6.2038162;;-6.3652813;;-6.4385989;;-6.5051691;;-6.6029109;;-6.7084881;;-6.7803965;;-6.8129549;;-6.8319993;;-6.8550953;;-6.8784374;;-6.8927945;;-6.8972285;;-6.8974741;;-6.8974419;;-6.8947042;;-6.8843379;;-6.8656369;;-6.8419409;;-6.8197623;;-6.8044501;;-6.7969585;;-6.7969585
-1.5120878;;-1.5120878;;-1.5120878;;-1.5120878;;-1.5120878;;-1.5120878;;-1.5120878;;-1.5120878;;-1.5120878;;-1.5120879;;-1.5121002;;-1.5122114;;-1.5127275;;-1.5147923;;-1.5204049;;-1.5287634;;-1.5391315;;-1.7944862;;-1.8059021;;-1.8122161;;-1.8153801;;-1.8214851;;-1.8316342;;-1.8432947;;-1.8555379;;-1.8774336;;-1.9184953;;-1.9759355;;-2.0524546;;-2.1552181;;-2.2922372;;-2.4692684;;-2.688655;;-2.9504079;;-3.2534162;;-3.5971843;;-3.9820954;;-4.3995509;;-4.8164469;;-5.179639;;-5.5368389;;-5.8955998;;-6.1933547;;-6.3847254;;-6.4926575;;-6.5780102;;-6.6771679;;-6.7795709;;-6.8538735;;-6.8927839;;-6.9110203;;-6.9222377;;-6.9309561;;-6.9356882;;-6.936218;;-6.9359781;;-6.9368287;;-6.9344609;;-6.9230623;;-6.9008956;;-6.8711742;;-6.840828;;-6.8160294;;-6.8035195;;-6.8035194
-1.5120878;;-1.5120878;;-1.5120878;;-1.5120878;;-1.5120878;;-1.5120878;;-1.5120878;;-1.5120878;;-1.5120878;;-1.5120882;;-1.5121186;;-1.5123947;;-1.5137713;;-1.5183354;;-1.5260381;;-1.5361247;;-1.791564;;-1.805398;;-1.8175347;;-1.8246744;;-1.8280986;;-1.8329437;;-1.8398912;;-1.84733;;-1.855628;;-1.8693397;;-1.9038318;;-1.9563027;;-2.0272929;;-2.1222711;;-2.2482249;;-2.4108003;;-2.6128158;;-2.853853;;-3.1339616;;-3.4562155;;-3.8258121;;-4.2413578;;-4.6807395;;-5.0870773;;-5.4438518;;-5.7885713;;-6.0940795;;-6.3263455;;-6.4889454;;-6.6147483;;-6.7281647;;-6.825713;;-6.8940514;;-6.9325185;;-6.9508272;;-6.9598557;;-6.9663305;;-6.9719553;;-6.9766527;;-6.9816884;;-6.9857668;;-6.9827259;;-6.9668547;;-6.9362688;;-6.8955587;;-6.8525646;;-6.8169542;;-6.7996192;;-6.7996192
-1.5120878;;-1.5120878;;-1.5120878;;-1.5120878;;-1.5120878;;-1.5120878;;-1.5120878;;-1.5120878;;-1.5120879;;-1.5120907;;-1.5121602;;-1.5127895;;-1.5162307;;-1.5232086;;-1.5326805;;-1.5441316;;-1.8012056;;-1.8145945;;-1.8251905;;-1.8313596;;-1.8341941;;-1.8369084;;-1.8401265;;-1.8437198;;-1.8490304;;-1.8589947;;-1.8850437;;-1.9308442;;-1.9945374;;-2.0794499;;-2.1908588;;-2.3338568;;-2.511709;;-2.7238792;;-2.9706538;;-3.2575117;;-3.5930218;;-3.9806854;;-4.4078557;;-4.8327658;;-5.2024635;;-5.5422245;;-5.857108;;-6.1301565;;-6.3581701;;-6.5503943;;-6.7105274;;-6.8302709;;-6.9076766;;-6.9518104;;-6.9748304;;-6.988289;;-6.9990933;;-7.0097579;;-7.0203177;;-7.0307595;;-7.0374497;;-7.0329162;;-7.0102876;;-6.9687985;;-6.9162556;;-6.863653;;-6.8237874;;-6.8064926;;-6.8064926
-1.5120878;;-1.5120878;;-1.5120878;;-1.5120878;;-1.5120878;;-1.5120878;;-1.5120878;;-1.5120878;;-1.5120888;;-1.5121044;;-1.5122885;;-1.5142187;;-1.5204262;;-1.5294488;;-1.5406733;;-1.7967747;;-1.8111166;;-1.8221857;;-1.8286842;;-1.83185;;-1.8328992;;-1.8335821;;-1.83435;;-1.8355064;;-1.8387967;;-1.8473136;;-1.865505;;-1.9028595;;-1.9574348;;-2.0309732;;-2.1266209;;-2.2482991;;-2.399213;;-2.5786511;;-2.7866004;;-3.0298594;;-3.3188058;;-3.6602186;;-4.0483983;;-4.4556179;;-4.8314839;;-5.1705856;;-5.4915102;;-5.7974539;;-6.0929388;;-6.3727932;;-6.6139611;;-6.7921983;;-6.9048018;;-6.9680379;;-7.0022064;;-7.0224762;;-7.0366935;;-7.0474379;;-7.0568509;;-7.0668309;;-7.0746462;;-7.0714247;;-7.0468176;;-7.0003253;;-6.9438103;;-6.8921977;;-6.8585809;;-6.8470034;;-6.8470034
-1.5120878;;-1.5120878;;-1.5120878;;-1.5120878;;-1.5120878;;-1.5120878;;-1.5120878;;-1.512088;;-1.5120929;;-1.5121535;;-1.5128303;;-1.5176141;;-1.5259244;;-1.5368175;;-1.549708;;-1.8081008;;-1.8219196;;-1.8286873;;-1.8297647;;-1.8288746;;-1.8280419;;-1.8276444;;-1.827252;;-1.8271676;;-1.8293606;;-1.8370253;;-1.8509891;;-1.8771658;;-1.9212505;;-1.9828422;;-2.0631518;;-2.1646271;;-2.2893598;;-2.4362643;;-2.6052628;;-2.8037974;;-3.0431089;;-3.3321014;;-3.6700208;;-4.0390668;;-4.4029794;;-4.7420682;;-5.0716114;;-5.4105842;;-5.7721799;;-6.1429759;;-6.477957;;-6.7337045;;-6.8981851;;-6.9906168;;-7.0395231;;-7.0644704;;-7.0749583;;-7.0752876;;-7.0728501;;-7.0758905;;-7.0858781;;-7.0915217;;-7.0764379;;-7.0374875;;-6.9882484;;-6.9469001;;-6.9250096;;-6.9207728;;-6.9207728
-1.5120878;;-1.5120878;;-1.5120878;;-1.5120878;;-1.5120878;;-1.512088;;-1.51209;;-1.5120983;;-1.5121324;;-1.5123413;;-1.5147981;;-1.5219079;;-1.5319787;;-1.5445457;;-1.8022922;;-1.8191212;;-1.8322916;;-1.8344806;;-1.8302637;;-1.8260532;;-1.8240608;;-1.8236716;;-1.8233452;;-1.8229554;;-1.8244267;;-1.8307947;;-1.8424548;;-1.8588853;;-1.8907837;;-1.9402399;;-2.0061082;;-2.0892119;;-2.1899288;;-2.3066851;;-2.4398633;;-2.5968958;;-2.789846;;-3.028941;;-3.3174805;;-3.6454512;;-3.9913956;;-4.3408313;;-4.7012273;;-5.089818;;-5.5167877;;-5.9606618;;-6.3696176;;-6.6910107;;-6.9032066;;-7.0237881;;-7.084345;;-7.1082736;;-7.1080374;;-7.0925762;;-7.0753654;;-7.0715694;;-7.0864349;;-7.1061497;;-7.1080955;;-7.0848379;;-7.0484773;;-7.0183446;;-7.0041742;;-7.0036913;;-7.0036913
-1.5120878;;-1.5120878;;-1.5120878;;-1.5120878;;-1.5120883;;-1.5120919;;-1.5121145;;-1.5122;;-1.5124838;;-1.5134458;;-1.5175871;;-1.5258528;;-1.5370166;;-1.5506677;;-1.8101308;;-1.8272226;;-1.8390091;;-1.8382291;;-1.8315856;;-1.8257933;;-1.8237455;;-1.8241977;;-1.8251965;;-1.8258894;;-1.8270882;;-1.8312572;;-1.840001;;-1.8524622;;-1.8703574;;-1.9071792;;-1.9601097;;-2.0275738;;-2.1080383;;-2.1991014;;-2.3021431;;-2.4249024;;-2.5804398;;-2.7806411;;-3.0315178;;-3.3309746;;-3.6709868;;-4.0504047;;-4.4706682;;-4.9283103;;-5.4125489;;-5.8966903;;-6.3385901;;-6.6909658;;-6.9286601;;-7.0641337;;-7.1277192;;-7.1466264;;-7.1379824;;-7.115836;;-7.0957338;;-7.0928426;;-7.1121571;;-7.1393719;;-7.1515356;;-7.1383672;;-7.1100302;;-7.0849305;;-7.0722067;;-7.071734;;-7.071734
-1.5120878;;-1.5120878;;-1.512088;;-1.5120903;;-1.5121025;;-1.5121496;;-1.5123209;;-1.5131595;;-1.5159569;;-1.5187448;;-1.5218973;;-1.5289277;;-1.5395818;;-1.5529021;;-1.8122269;;-1.8284107;;-1.838585;;-1.8383649;;-1.8331569;;-1.8289092;;-1.8281974;;-1.8301049;;-1.8326707;;-1.8347183;;-1.8362851;;-1.8392181;;-1.8455391;;-1.8550165;;-1.8674565;;-1.887229;;-1.9279694;;-1.9827351;;-2.047215;;-2.1183034;;-2.1987575;;-2.2982689;;-2.4310294;;-2.6113221;;-2.8495349;;-3.1517205;;-3.5205119;;-3.9549676;;-4.4408349;;-4.9561601;;-5.4712072;;-5.9550921;;-6.3843584;;-6.7275532;;-6.9616325;;-7.0943805;;-7.1545985;;-7.1734742;;-7.1723197;;-7.1649103;;-7.1602701;;-7.1655737;;-7.1821885;;-7.1998632;;-7.2031641;;-7.1850289;;-7.1550386;;-7.1292147;;-7.1155855;;-7.1150991;;-7.1150991
-1.5120878;;-1.5120878;;-1.5120898;;-1.5121112;;-1.512216;;-1.5125674;;-1.5140816;;-1.5184297;;-1.5236921;;-1.5276122;;-1.5302615;;-1.5348271;;-1.5425289;;-1.7952349;;-1.8096847;;-1.8234692;;-1.8326868;;-1.8359444;;-1.8354173;;-1.8347014;;-1.8360716;;-1.8392778;;-1.8430137;;-1.8462111;;-1.8486916;;-1.8512513;;-1.8555844;;-1.8625366;;-1.8722203;;-1.8850993;;-1.9175632;;-1.9658513;;-2.023072;;-2.0869355;;-2.1626924;;-2.2636492;;-2.4061144;;-2.6041549;;-2.8680457;;-3.2026335;;-3.608826;;-4.0804264;;-4.6005131;;-5.1391111;;-5.6443666;;-6.0847542;;-6.4627914;;-6.7636869;;-6.970012;;-7.0902453;;-7.1536952;;-7.1900256;;-7.2173469;;-7.2414604;;-7.2603769;;-7.2723032;;-7.2759349;;-7.2680277;;-7.244792;;-7.2081446;;-7.1709515;;-7.1455461;;-7.135903;;-7.138596;;-7.138596
-1.5120879;;-1.5120879;;-1.5120974;;-1.5121955;;-1.5126835;;-1.5146971;;-1.5198741;;-1.5269858;;-1.5343158;;-1.5392485;;-1.5415031;;-1.7835482;;-1.5495109;;-1.7982095;;-1.8077145;;-1.8181701;;-1.82766;;-1.8348876;;-1.8392943;;-1.8421618;;-1.8453263;;-1.8492531;;-1.8536043;;-1.8573024;;-1.860015;;-1.8621721;;-1.8649678;;-1.8699768;;-1.877518;;-1.8962952;;-1.9375581;;-1.990567;;-2.0516487;;-2.1218469;;-2.2096155;;-2.3298865;;-2.4984357;;-2.7287784;;-3.0298737;;-3.4044787;;-3.8517489;;-4.3599688;;-4.9038197;;-5.4345215;;-5.8782999;;-6.2323973;;-6.5281294;;-6.7634862;;-6.9325916;;-7.0485845;;-7.1353355;;-7.2095016;;-7.2757395;;-7.3294312;;-7.3627332;;-7.3711679;;-7.354527;;-7.3152579;;-7.2592916;;-7.2000692;;-7.157139;;-7.1398361;;-7.1437508;;-7.1547436;;-7.1547436
-1.5120883;;-1.5120883;;-1.5121181;;-1.5124256;;-1.5144761;;-1.5202202;;-1.5284041;;-1.5380515;;-1.5474844;;-1.5533085;;-1.7942279;;-1.7960946;;-1.798939;;-1.8032822;;-1.8094022;;-1.8179876;;-1.828069;;-1.8377079;;-1.8449823;;-1.8500385;;-1.8538632;;-1.8576178;;-1.8618881;;-1.8656884;;-1.8683229;;-1.8700176;;-1.8718828;;-1.875373;;-1.8863494;;-1.9223211;;-1.9715913;;-2.0308039;;-2.0997915;;-2.1835278;;-2.2935517;;-2.4451131;;-2.6530569;;-2.9294405;;-3.2806769;;-3.7071907;;-4.2039251;;-4.7499806;;-5.3032693;;-5.7790868;;-6.1145702;;-6.3608541;;-6.5611854;;-6.7284299;;-6.8724875;;-7.0057243;;-7.1341022;;-7.2510407;;-7.3457859;;-7.410593;;-7.441642;;-7.4377537;;-7.3998837;;-7.3332032;;-7.2500125;;-7.1743651;;-7.132016;;-7.1295888;;-7.1522483;;-7.1744753;;-7.1744754
-1.5120908;;-1.5120908;;-1.5121736;;-1.5135429;;-1.5193649;;-1.528101;;-1.5390565;;-1.5511187;;-1.562543;;-1.8092063;;-1.809484;;-1.8073336;;-1.8057799;;-1.8076216;;-1.8133447;;-1.8224204;;-1.8331381;;-1.8434025;;-1.8515243;;-1.8571069;;-1.8604671;;-1.8631499;;-1.866566;;-1.8702315;;-1.8740224;;-1.8793516;;-1.8866482;;-1.8936742;;-1.9152265;;-1.9589171;;-2.0148274;;-2.0820089;;-2.1636954;;-2.2685892;;-2.4102504;;-2.6030195;;-2.8606706;;-3.1927873;;-3.6023358;;-4.0868105;;-4.6314185;;-5.1991928;;-5.7155968;;-6.0756828;;-6.2964107;;-6.4485093;;-6.5745941;;-6.7019355;;-6.8486007;;-7.0151874;;-7.1817081;;-7.321503;;-7.4200022;;-7.4759957;;-7.4945455;;-7.4775352;;-7.4251896;;-7.3417673;;-7.243602;;-7.1619238;;-7.1254948;;-7.1373641;;-7.1746215;;-7.2041538;;-7.2041539
-1.5121012;;-1.5121012;;-1.5125817;;-1.5175565;;-1.5261424;;-1.5374114;;-1.5508194;;-1.565214;;-1.8192382;;-1.8264977;;-1.8224632;;-1.8137061;;-1.8077131;;-1.8091213;;-1.8172112;;-1.8284697;;-1.839924;;-1.8498426;;-1.8575422;;-1.8629135;;-1.865621;;-1.8686013;;-1.8748419;;-1.884702;;-1.8978743;;-1.9117035;;-1.9237129;;-1.9330415;;-1.9552547;;-2.0031732;;-2.065807;;-2.1441535;;-2.2447348;;-2.379243;;-2.561348;;-2.8043247;;-3.1196025;;-3.5126813;;-3.9817364;;-4.5167511;;-5.0872769;;-5.6274457;;-6.023356;;-6.2534668;;-6.3946867;;-6.500089;;-6.6054189;;-6.7378589;;-6.9077458;;-7.0986639;;-7.2745735;;-7.4060033;;-7.4862716;;-7.5245924;;-7.5312974;;-7.5080444;;-7.4522218;;-7.3660698;;-7.2675141;;-7.1895389;;-7.1586215;;-7.1751257;;-7.2133794;;-7.2428809;;-7.2428809
-1.5121593;;-1.5121593;;-1.515044;;-1.5227851;;-1.5336114;;-1.5471267;;-1.5626364;;-1.8197573;;-1.836029;;-1.8396948;;-1.8296903;;-1.8168148;;-1.8087412;;-1.8113636;;-1.8220691;;-1.8351924;;-1.846799;;-1.8556143;;-1.8623052;;-1.8688888;;-1.8817141;;-1.895276;;-1.9071111;;-1.9213729;;-1.9393039;;-1.9581016;;-1.9735251;;-1.984011;;-2.0023103;;-2.0527518;;-2.1238628;;-2.2179558;;-2.3443338;;-2.5165385;;-2.7467541;;-3.0464062;;-3.4231337;;-3.8770954;;-4.3988839;;-4.9635579;;-5.5110953;;-5.9265897;;-6.1670349;;-6.3180335;;-6.4386714;;-6.5583618;;-6.6945895;;-6.8578113;;-7.0433858;;-7.2276496;;-7.3787079;;-7.47931;;-7.5341873;;-7.557845;;-7.5594464;;-7.5384597;;-7.4901047;;-7.4147653;;-7.3282108;;-7.2583145;;-7.2272199;;-7.2353528;;-7.2615114;;-7.2828298;;-7.2828299
-1.5128649;;-1.5128649;;-1.5189694;;-1.5286805;;-1.5413681;;-1.5567665;;-1.5739598;;-1.8338602;;-1.8498261;;-1.8469784;;-1.8344289;;-1.8213571;;-1.8142135;;-1.8185874;;-1.8299205;;-1.842985;;-1.8535333;;-1.8611909;;-1.8748122;;-1.8957674;;-1.9175507;;-1.9367306;;-1.9522412;;-1.9701148;;-1.9924053;;-2.0153825;;-2.0334024;;-2.043955;;-2.0561907;;-2.1061148;;-2.1883031;;-2.3039421;;-2.463543;;-2.6809422;;-2.965269;;-3.3249925;;-3.7628239;;-4.2714986;;-4.8287585;;-5.3807064;;-5.8143318;;-6.0594342;;-6.2107948;;-6.3478346;;-6.5022235;;-6.6738297;;-6.8542185;;-7.0354068;;-7.2064411;;-7.3523115;;-7.4594912;;-7.5257862;;-7.5610139;;-7.5774536;;-7.5802107;;-7.5673338;;-7.5336981;;-7.4776078;;-7.409775;;-7.3491128;;-7.3127109;;-7.3043732;;-7.3114591;;-7.320915;;-7.320915
-1.516006;;-1.516006;;-1.5239418;;-1.5354963;;-1.5501504;;-1.5674197;;-1.8280451;;-1.8498485;;-1.8636429;;-1.8551761;;-1.8410692;;-1.8291683;;-1.8246052;;-1.830361;;-1.8412368;;-1.852307;;-1.8621802;;-1.8813743;;-1.9075395;;-1.9373787;;-1.9664664;;-1.9903862;;-2.0084954;;-2.0289954;;-2.0552704;;-2.0825348;;-2.1032187;;-2.1138745;;-2.1216375;;-2.1662736;;-2.2616648;;-2.4044119;;-2.6034725;;-2.8710323;;-3.2117082;;-3.6300194;;-4.1222283;;-4.6695548;;-5.226843;;-5.6944733;;-5.972529;;-6.1313047;;-6.2670227;;-6.4353427;;-6.6403709;;-6.8554024;;-7.0528393;;-7.2172225;;-7.3449675;;-7.4384289;;-7.5025636;;-7.5439044;;-7.5695279;;-7.5852088;;-7.5922598;;-7.5893337;;-7.5724435;;-7.5381321;;-7.4909398;;-7.4404439;;-7.3999771;;-7.3754559;;-7.3644218;;-7.3620266;;-7.3620267
-1.5202269;;-1.5202269;;-1.5292652;;-1.5423344;;-1.5588131;;-1.5780207;;-1.8420496;;-1.8665016;;-1.8785241;;-1.8663812;;-1.8507808;;-1.8398446;;-1.8379352;;-1.8444093;;-1.8541174;;-1.8649829;;-1.8872847;;-1.9179672;;-1.9533768;;-1.9909507;;-2.0267627;;-2.0551169;;-2.075335;;-2.0984747;;-2.1295113;;-2.1622761;;-2.1867779;;-2.1990503;;-2.2068213;;-2.2452606;;-2.3513326;;-2.5228692;;-2.763332;;-3.0807854;;-3.4743731;;-3.9425939;;-4.4724688;;-5.0277032;;-5.5299805;;-5.8737651;;-6.0856592;;-6.2440801;;-6.4114174;;-6.6164864;;-6.8451401;;-7.0614396;;-7.2357458;;-7.3574887;;-7.4342568;;-7.4816012;;-7.5145949;;-7.541673;;-7.5647528;;-7.5829828;;-7.5950362;;-7.6012693;;-7.5988942;;-7.5846446;;-7.5572263;;-7.5195792;;-7.4810494;;-7.4479567;;-7.4247255;;-7.4128843;;-7.4128844
-1.5238168;;-1.5238168;;-1.5336724;;-1.5479104;;-1.5658426;;-1.5866796;;-1.8535672;;-1.8802376;;-1.8918401;;-1.8775682;;-1.8608827;;-1.8506325;;-1.8510404;;-1.8580107;;-1.8686239;;-1.8924552;;-1.9262135;;-1.9665836;;-2.0103502;;-2.055703;;-2.0989339;;-2.1323576;;-2.1549549;;-2.1813064;;-2.2182634;;-2.2585388;;-2.2896294;;-2.3072211;;-2.3227126;;-2.3632126;;-2.4730377;;-2.6654106;;-2.9404249;;-3.2992433;;-3.7348059;;-4.2354727;;-4.7756788;;-5.2960219;;-5.7026196;;-5.9915628;;-6.2180454;;-6.4235716;;-6.6337407;;-6.8516074;;-7.0596153;;-7.2348132;;-7.3622035;;-7.4398673;;-7.4786841;;-7.4965103;;-7.5105511;;-7.5293592;;-7.5526352;;-7.5738273;;-7.5902218;;-7.6032579;;-7.6120496;;-7.6136796;;-7.6040751;;-7.5819742;;-7.5527319;;-7.52007;;-7.4919463;;-7.4738917;;-7.4738917
-1.5266281;;-1.5266281;;-1.5370578;;-1.5521131;;-1.5710497;;-1.5929867;;-1.8616728;;-1.8896656;;-1.9003774;;-1.8853145;;-1.8686455;;-1.8595489;;-1.8617315;;-1.8716444;;-1.8966702;;-1.9326162;;-1.9765187;;-2.0253808;;-2.0783368;;-2.1335283;;-2.1859505;;-2.2253604;;-2.2509688;;-2.2817634;;-2.3273713;;-2.3790384;;-2.4211832;;-2.4492797;;-2.4784983;;-2.5354253;;-2.652503;;-2.8502186;;-3.1377398;;-3.51509;;-3.9696565;;-4.4728334;;-4.9839761;;-5.4343934;;-5.7925746;;-6.0913572;;-6.3629186;;-6.621574;;-6.8607936;;-7.0649103;;-7.2250915;;-7.3438456;;-7.4265037;;-7.4757364;;-7.4962045;;-7.500101;;-7.5031603;;-7.5154953;;-7.5374173;;-7.5605046;;-7.5803008;;-7.598113;;-7.6144259;;-7.6278325;;-7.6332719;;-7.6276327;;-7.6116527;;-7.5862292;;-7.5590281;;-7.538193;;-7.538193
