-3.5485446;;-3.5485446;;-3.549697;;-3.5745509;;-3.6186961;;-3.6797486;;-3.7591422;;-3.8597112;;-3.9835982;;-4.1329901;;-4.5763773;;-4.7790874;;-5.0025416;;-5.2432487;;-5.5313969;;-5.9200501;;-6.4227144;;-7.0496339;;-7.7983901;;-8.6530701;;-9.5963108;;-10.591115;;-11.59116;;-12.57745;;-13.560954;;-14.541643;;-15.509376;;-16.462458;;-17.393217;;-18.27606;;-19.097681;;-19.879862;;-20.647718;;-21.39486;;-22.103903;;-22.77688;;-23.41724;;-23.997817;;-24.473353;;-24.820186;;-25.053979;;-25.218339;;-25.363073;;-25.522804;;-25.709073;;-25.922907;;-26.16653;;-26.435035;;-26.703497;;-26.933778;;-27.097954;;-27.197864;;-27.261105;;-27.317031;;-27.382317;;-27.465723;;-27.569546;;-27.681674;;-27.775794;;-27.817863;;-27.765885;;-27.589624;;-27.332307;;-27.141525;;-27.141525
-3.5485443;;-3.5485443;;-3.5492065;;-3.5710559;;-3.6132217;;-3.6721427;;-3.7489705;;-3.8464258;;-3.9668594;;-4.3773901;;-4.552418;;-4.7537211;;-4.9836423;;-5.255575;;-5.6016857;;-6.0438443;;-6.5971355;;-7.2719772;;-8.0564655;;-8.9364522;;-9.8823469;;-10.844193;;-11.779312;;-12.692828;;-13.610286;;-14.534345;;-15.453768;;-16.363835;;-17.261144;;-18.133264;;-18.970586;;-19.775833;;-20.549184;;-21.27865;;-21.958137;;-22.600098;;-23.213788;;-23.778227;;-24.251766;;-24.608619;;-24.861161;;-25.051812;;-25.229027;;-25.425807;;-25.652397;;-25.904097;;-26.171141;;-26.439848;;-26.689455;;-26.895704;;-27.044492;;-27.144467;;-27.220106;;-27.289837;;-27.360877;;-27.44211;;-27.542672;;-27.654467;;-27.74842;;-27.782429;;-27.702503;;-27.469553;;-27.137652;;-26.891168;;-26.891168
-3.5485456;;-3.5485456;;-3.5491691;;-3.5699589;;-3.6111901;;-3.668948;;-3.7442773;;-3.8398456;;-3.9581843;;-4.3677788;;-4.5404235;;-4.7422855;;-4.9816665;;-5.2775572;;-5.6505172;;-6.1175361;;-6.6936955;;-7.3819438;;-8.171886;;-9.0457712;;-9.9661568;;-10.88262;;-11.769733;;-12.650215;;-13.554067;;-14.483021;;-15.416928;;-16.335785;;-17.230435;;-18.099528;;-18.9422;;-19.750151;;-20.50559;;-21.194859;;-21.824478;;-22.41715;;-22.988395;;-23.527137;;-23.999719;;-24.376682;;-24.660095;;-24.885985;;-25.101259;;-25.338267;;-25.605373;;-25.890911;;-26.172632;;-26.42924;;-26.649033;;-26.829902;;-26.977248;;-27.102348;;-27.214512;;-27.311849;;-27.390879;;-27.463232;;-27.546757;;-27.640131;;-27.716546;;-27.732497;;-27.632801;;-27.381614;;-27.038506;;-26.788517;;-26.788517
-3.5485525;;-3.5485525;;-3.549576;;-3.5715653;;-3.6127203;;-3.6698289;;-3.7439362;;-3.8375712;;-4.2165831;;-4.3570636;;-4.5251335;;-4.7218686;;-4.9585487;;-5.2530621;;-5.6236504;;-6.0852573;;-6.6515429;;-7.3220672;;-8.0885718;;-8.9332398;;-9.8216795;;-10.714998;;-11.601548;;-12.505562;;-13.452111;;-14.438078;;-15.431337;;-16.390832;;-17.29353;;-18.145171;;-18.961535;;-19.740166;;-20.458607;;-21.101826;;-21.682196;;-22.228914;;-22.763105;;-23.281948;;-23.757618;;-24.1557;;-24.466725;;-24.719984;;-24.962746;;-25.229177;;-25.525988;;-25.834817;;-26.124956;;-26.373652;;-26.579495;;-26.757285;;-26.924254;;-27.088529;;-27.242755;;-27.368394;;-27.455279;;-27.51659;;-27.57508;;-27.636636;;-27.682384;;-27.676435;;-27.576087;;-27.361489;;-27.088238;;-26.898449;;-26.898449
-3.5485809;;-3.5485809;;-3.551545;;-3.5776015;;-3.6198106;;-3.6765855;;-3.7490003;;-3.8390655;;-4.2122075;;-4.3409794;;-4.4925537;;-4.6685386;;-4.8765392;;-5.1389899;;-5.4786339;;-5.909774;;-6.4437507;;-7.0819212;;-7.8167826;;-8.6350512;;-9.5109249;;-10.415388;;-11.340126;;-12.303801;;-13.32438;;-14.391547;;-15.459285;;-16.464024;;-17.365351;;-18.174959;;-18.934538;;-19.664215;;-20.346727;;-20.961078;;-21.514816;;-22.038047;;-22.555609;;-23.067402;;-23.545427;;-23.951635;;-24.271638;;-24.531996;;-24.780732;;-25.05461;;-25.360884;;-25.678593;;-25.976518;;-26.237819;;-26.468248;;-26.68343;;-26.894618;;-27.100839;;-27.285841;;-27.42689;;-27.514685;;-27.563778;;-27.599015;;-27.632051;;-27.652133;;-27.633862;;-27.55312;;-27.409571;;-27.246774;;-27.145249;;-27.145249
-3.5487414;;-3.5487414;;-3.5596947;;-3.5919093;;-3.6378986;;-3.6969238;;-3.7694588;;-3.8549983;;-4.2178494;;-4.3301896;;-4.4572136;;-4.5998277;;-4.758771;;-4.9687645;;-5.2643376;;-5.6529316;;-6.1425143;;-6.7402171;;-7.4407003;;-8.2385895;;-9.1183296;;-10.055415;;-11.034707;;-12.067607;;-13.167172;;-14.313815;;-15.445311;;-16.477491;;-17.356881;;-18.106436;;-18.799727;;-19.485752;;-20.154676;;-20.77338;;-21.333873;;-21.85998;;-22.377767;;-22.887303;;-23.358125;;-23.751852;;-24.056834;;-24.301209;;-24.53294;;-24.790873;;-25.086418;;-25.402131;;-25.712219;;-26.007568;;-26.295328;;-26.579174;;-26.851675;;-27.098614;;-27.302073;;-27.446046;;-27.52865;;-27.568418;;-27.593136;;-27.61789;;-27.634627;;-27.623689;;-27.575092;;-27.500924;;-27.431316;;-27.399628;;-27.399628
-3.5511422;;-3.5511422;;-3.5753184;;-3.6147548;;-3.6669306;;-3.7315695;;-3.8068429;;-4.1533403;;-4.2411941;;-4.3294392;;-4.426726;;-4.5333425;;-4.6409138;;-4.7934105;;-5.0474657;;-5.3953634;;-5.8414669;;-6.3959989;;-7.0592456;;-7.8323722;;-8.7108152;;-9.6784321;;-10.714803;;-11.817572;;-12.989424;;-14.197871;;-15.364579;;-16.391673;;-17.225509;;-17.908461;;-18.544241;;-19.20708;;-19.892732;;-20.551945;;-21.152001;;-21.700511;;-22.221402;;-22.719007;;-23.167063;;-23.532387;;-23.808793;;-24.02543;;-24.227975;;-24.457159;;-24.732497;;-25.045052;;-25.373593;;-25.709737;;-26.056945;;-26.408597;;-26.741757;;-27.029636;;-27.252227;;-27.400821;;-27.482521;;-27.522506;;-27.553391;;-27.591754;;-27.627598;;-27.641815;;-27.629611;;-27.604949;;-27.587545;;-27.590315;;-27.590315
-3.564601;;-3.564601;;-3.5967445;;-3.6437346;;-3.7036517;;-3.7752184;;-3.8559802;;-4.2052325;;-4.2794648;;-4.3333667;;-4.3978267;;-4.4747902;;-4.5450682;;-4.6447465;;-4.8646714;;-5.1780908;;-5.5866482;;-6.1009339;;-6.7274378;;-7.4711118;;-8.3368796;;-9.320237;;-10.405838;;-11.575307;;-12.806956;;-14.050439;;-15.215152;;-16.201296;;-16.970179;;-17.587588;;-18.179823;;-18.838494;;-19.562965;;-20.287132;;-20.948325;;-21.529528;;-22.048828;;-22.520631;;-22.934108;;-23.268966;;-23.523548;;-23.721569;;-23.901234;;-24.104829;;-24.363079;;-24.67731;;-25.025808;;-25.391768;;-25.773489;;-26.166012;;-26.545256;;-26.87608;;-27.130326;;-27.298468;;-27.392763;;-27.444986;;-27.492151;;-27.551845;;-27.613679;;-27.659176;;-27.682474;;-27.691224;;-27.697472;;-27.711271;;-27.711271
-3.5848244;;-3.5848244;;-3.6218061;;-3.6752852;;-3.7427461;;-3.8215799;;-3.9086192;;-4.2606026;;-4.3179553;;-4.3372501;;-4.3746952;;-4.4318438;;-4.4818301;;-4.534638;;-4.726766;;-5.0123015;;-5.3904484;;-5.8716886;;-6.4674108;;-7.184708;;-8.0350687;;-9.0224323;;-10.138098;;-11.355339;;-12.62616;;-13.875264;;-15.002901;;-15.922342;;-16.620639;;-17.182937;;-17.747448;;-18.414181;;-19.182804;;-19.972208;;-20.692771;;-21.304434;;-21.818983;;-22.262122;;-22.643738;;-22.961428;;-23.216242;;-23.419161;;-23.595319;;-23.787295;;-24.036798;;-24.353528;;-24.712563;;-25.087306;;-25.474462;;-25.879946;;-26.289177;;-26.663039;;-26.961286;;-27.165768;;-27.287576;;-27.360849;;-27.424154;;-27.497508;;-27.576446;;-27.647733;;-27.70258;;-27.738409;;-27.759596;;-27.777779;;-27.777779
-3.6041097;;-3.6041097;;-3.6449056;;-3.7036878;;-3.7774019;;-3.8623629;;-3.9543913;;-4.3072565;;-4.3447298;;-4.3390374;;-4.3585307;;-4.405263;;-4.4490053;;-4.4693114;;-4.6366614;;-4.9001397;;-5.2557747;;-5.7129598;;-6.2865899;;-6.9846061;;-7.820992;;-8.8036347;;-9.9276426;;-11.16415;;-12.449838;;-13.682558;;-14.754346;;-15.605058;;-16.24998;;-16.783438;;-17.342119;;-18.023334;;-18.822936;;-19.649742;;-20.400321;;-21.024815;;-21.533449;;-21.959306;;-22.327339;;-22.649246;;-22.925796;;-23.15331;;-23.343795;;-23.538363;;-23.784384;;-24.096152;;-24.449051;;-24.81453;;-25.191712;;-25.596199;;-26.02245;;-26.431253;;-26.774426;;-27.024387;;-27.18481;;-27.284376;;-27.359426;;-27.434395;;-27.516312;;-27.602086;;-27.682241;;-27.743684;;-27.781122;;-27.805246;;-27.805246
-3.6195891;;-3.6195891;;-3.6630788;;-3.7255565;;-3.8034919;;-3.892257;;-3.9865737;;-4.3368573;;-4.3564949;;-4.3397933;;-4.3498226;;-4.3911805;;-4.4359379;;-4.4476119;;-4.5854709;;-4.8305258;;-5.1695348;;-5.6095307;;-6.1655468;;-6.8478336;;-7.6695435;;-8.6404883;;-9.7576811;;-10.992966;;-12.277298;;-13.49006;;-14.517949;;-15.33028;;-15.963671;;-16.508857;;-17.085844;;-17.778539;;-18.578643;;-19.396312;;-20.132908;;-20.74462;;-21.245444;;-21.669753;;-22.04556;;-22.38776;;-22.693746;;-22.950686;;-23.163194;;-23.368309;;-23.611241;;-23.908837;;-24.244632;;-24.596871;;-24.965304;;-25.364732;;-25.793157;;-26.217493;;-26.592616;;-26.886199;;-27.089675;;-27.218928;;-27.304378;;-27.374474;;-27.448494;;-27.536752;;-27.633941;;-27.71865;;-27.773978;;-27.806068;;-27.806068
-3.6327138;;-3.6327138;;-3.6780802;;-3.7430341;;-3.8235574;;-3.9140491;;-4.2718204;;-4.3491514;;-4.3603117;;-4.3458115;;-4.3529836;;-4.3898508;;-4.4358966;;-4.4553311;;-4.554584;;-4.7819595;;-5.1057401;;-5.5297355;;-6.0682425;;-6.7335386;;-7.5371601;;-8.4901704;;-9.5913553;;-10.815195;;-12.094215;;-13.303846;;-14.328989;;-15.156465;;-15.831273;;-16.428711;;-17.039848;;-17.729375;;-18.492005;;-19.255935;;-19.943373;;-20.524538;;-21.016444;;-21.448427;;-21.841501;;-22.205039;;-22.533763;;-22.814907;;-23.051268;;-23.271564;;-23.512597;;-23.795124;;-24.116704;;-24.463934;;-24.830484;;-25.2212;;-25.635533;;-26.054103;;-26.443808;;-26.77068;;-27.012365;;-27.170537;;-27.2684;;-27.334447;;-27.395555;;-27.475739;;-27.578954;;-27.679754;;-27.750208;;-27.789926;;-27.789926
-3.6465286;;-3.6465286;;-3.6934198;;-3.7602492;;-3.8423932;;-3.9331313;;-4.2883531;;-4.3535282;;-4.3671282;;-4.3644834;;-4.3745205;;-4.406055;;-4.4478362;;-4.4734852;;-4.5308678;;-4.7397062;;-5.0465777;;-5.4524295;;-5.9707105;;-6.615911;;-7.3973206;;-8.3271582;;-9.4065293;;-10.614419;;-11.890696;;-13.119727;;-14.186404;;-15.07609;;-15.829133;;-16.499217;;-17.14479;;-17.813664;;-18.512849;;-19.202063;;-19.831366;;-20.382173;;-20.867867;;-21.307675;;-21.71239;;-22.086005;;-22.426513;;-22.728384;;-22.993273;;-23.236922;;-23.485177;;-23.763051;;-24.080424;;-24.427734;;-24.790001;;-25.163867;;-25.554783;;-25.960017;;-26.357224;;-26.707558;;-26.975935;;-27.155413;;-27.265424;;-27.330746;;-27.378781;;-27.443206;;-27.539103;;-27.642968;;-27.720679;;-27.765354;;-27.765354
-3.6626582;;-3.6626582;;-3.7109342;;-3.779234;;-3.8619252;;-4.2138747;;-4.2982465;;-4.3551608;;-4.3809926;;-4.395276;;-4.4120197;;-4.4385442;;-4.4714357;;-4.4961069;;-4.5203654;;-4.7048024;;-4.9917059;;-5.378046;;-5.8750789;;-6.4991239;;-7.2576853;;-8.1634456;;-9.2202639;;-10.412409;;-11.689288;;-12.949326;;-14.077395;;-15.042651;;-15.872873;;-16.604115;;-17.270954;;-17.909314;;-18.542509;;-19.163845;;-19.748929;;-20.283374;;-20.770152;;-21.215605;;-21.62243;;-21.995289;;-22.342265;;-22.667958;;-22.970988;;-23.25162;;-23.523579;;-23.811822;;-24.130605;;-24.470214;;-24.813271;;-25.159635;;-25.526842;;-25.925533;;-26.335587;;-26.706767;;-26.991469;;-27.180099;;-27.294897;;-27.359287;;-27.397464;;-27.444967;;-27.523774;;-27.616689;;-27.691044;;-27.736153;;-27.736153
-3.6817579;;-3.6817579;;-3.7313627;;-3.800846;;-4.1461146;;-4.2287876;;-4.3029147;;-4.3575925;;-4.3978492;;-4.428469;;-4.4534982;;-4.4777073;;-4.5034349;;-4.5265856;;-4.5403152;;-4.6832113;;-4.948596;;-5.3173958;;-5.7963982;;-6.4014074;;-7.141182;;-8.0272457;;-9.0662684;;-10.247032;;-11.527495;;-12.818064;;-14.000748;;-15.020587;;-15.892798;;-16.649118;;-17.315401;;-17.921122;;-18.500502;;-19.072385;;-19.632308;;-20.167682;;-20.66902;;-21.128053;;-21.539853;;-21.91254;;-22.266757;;-22.619026;;-22.967004;;-23.297203;;-23.608475;;-23.917601;;-24.236398;;-24.556923;;-24.869079;;-25.184085;;-25.530879;;-25.927153;;-26.350524;;-26.738636;;-27.031196;;-27.215745;;-27.321418;;-27.379293;;-27.413966;;-27.454424;;-27.518216;;-27.593195;;-27.655195;;-27.695549;;-27.695549
-3.7049161;;-3.7049161;;-3.7538395;;-3.8230041;;-4.1661419;;-4.2401527;;-4.3044735;;-4.3612368;;-4.4119047;;-4.4535916;;-4.4854278;;-4.5108029;;-4.5368625;;-4.5659481;;-4.5868276;;-4.674703;;-4.9197987;;-5.2734662;;-5.737797;;-6.3274091;;-7.0535204;;-7.9254158;;-8.9522323;;-10.12646;;-11.412149;;-12.727051;;-13.945037;;-14.982502;;-15.849005;;-16.588255;;-17.23257;;-17.808617;;-18.350942;;-18.890702;;-19.439934;;-19.992274;;-20.528657;;-21.023858;;-21.460488;;-21.845266;;-22.208469;;-22.581109;;-22.968258;;-23.349336;;-23.705707;;-24.038341;;-24.35489;;-24.656028;;-24.944897;;-25.240794;;-25.573619;;-25.960485;;-26.379488;;-26.765465;;-27.049837;;-27.213684;;-27.292929;;-27.336403;;-27.376901;;-27.429784;;-27.493265;;-27.553494;;-27.599387;;-27.631366;;-27.631366
-3.7508691;;-3.7508691;;-3.7924311;;-4.1207933;;-4.1898026;;-4.2528639;;-4.3103515;;-4.3676087;;-4.4217386;;-4.4673219;;-4.5018615;;-4.529539;;-4.5618609;;-4.6035006;;-4.6362971;;-4.675353;;-4.8996205;;-5.2379907;;-5.6883539;;-6.2637849;;-6.9777565;;-7.8370164;;-8.8525739;;-10.019677;;-11.306703;;-12.634997;;-13.866518;;-14.88706;;-15.711421;;-16.407762;;-17.022093;;-17.57911;;-18.105784;;-18.633951;;-19.188097;;-19.771857;;-20.361535;;-20.914691;;-21.397184;;-21.807752;;-22.180753;;-22.561572;;-22.970284;;-23.388092;;-23.781463;;-24.133847;;-24.450406;;-24.744993;;-25.033686;;-25.335118;;-25.667692;;-26.039607;;-26.430937;;-26.784199;;-27.032761;;-27.154044;;-27.190897;;-27.214522;;-27.269931;;-27.35355;;-27.433276;;-27.487497;;-27.520088;;-27.544443;;-27.544443
-3.8198247;;-3.8198247;;-3.8554968;;-4.1776636;;-4.2330963;;-4.2855422;;-4.337369;;-4.3885887;;-4.4359014;;-4.4756078;;-4.5057037;;-4.531759;;-4.568685;;-4.6205917;;-4.6612398;;-4.6727535;;-4.8742096;;-5.1963414;;-5.6315667;;-6.1906408;;-6.8882293;;-7.7295431;;-8.7267166;;-9.8772925;;-11.153074;;-12.478529;;-13.707518;;-14.698217;;-15.476037;;-16.135949;;-16.735711;;-17.29686;;-17.835353;;-18.377167;;-18.952349;;-19.573241;;-20.215354;;-20.824954;;-21.354778;;-21.794936;;-22.179215;;-22.561429;;-22.974705;;-23.40694;;-23.818907;;-24.184028;;-24.507074;;-24.812198;;-25.12304;;-25.452221;;-25.801439;;-26.163739;;-26.516747;;-26.814299;;-27.003067;;-27.067535;;-27.058984;;-27.065399;;-27.138726;;-27.255599;;-27.355622;;-27.41036;;-27.437026;;-27.458911;;-27.458911
-3.9057808;;-3.9057808;;-3.9376032;;-4.2540934;;-4.3029254;;-4.3545674;;-4.4033803;;-4.4409299;;-4.4681806;;-4.4886411;;-4.5037503;;-4.5205482;;-4.5540802;;-4.6057394;;-4.6450974;;-4.6470965;;-4.8305166;;-5.136216;;-5.5524625;;-6.0888163;;-6.7603204;;-7.5720043;;-8.5364135;;-9.6536773;;-10.900227;;-12.207758;;-13.43595;;-14.425217;;-15.196845;;-15.861586;;-16.482207;;-17.074522;;-17.644276;;-18.211446;;-18.808381;;-19.452646;;-20.12184;;-20.760964;;-21.319408;;-21.783285;;-22.18254;;-22.569551;;-22.979987;;-23.407413;;-23.818237;;-24.18874;;-24.525427;;-24.854986;;-25.200948;;-25.567927;;-25.941958;;-26.300207;;-26.615284;;-26.853595;;-26.984215;;-27.007044;;-26.976774;;-26.980483;;-27.065415;;-27.196018;;-27.301128;;-27.353874;;-27.379809;;-27.404073;;-27.404073
-3.9993008;;-4.2703718;;-4.2973367;;-4.3402765;;-4.3932001;;-4.4541465;;-4.5048726;;-4.5266482;;-4.5238174;;-4.5125221;;-4.5026156;;-4.5030094;;-4.5254585;;-4.567123;;-4.5989877;;-4.6018105;;-4.7692307;;-5.0553011;;-5.4465167;;-5.9516183;;-6.5858467;;-7.3553971;;-8.2727184;;-9.3417765;;-10.546001;;-11.831032;;-13.079494;;-14.130291;;-14.967662;;-15.694455;;-16.370697;;-17.006027;;-17.601314;;-18.177556;;-18.772143;;-19.407421;;-20.066038;;-20.70069;;-21.266856;;-21.749685;;-22.170752;;-22.57075;;-22.97762;;-23.388892;;-23.785241;;-24.155984;;-24.510852;;-24.872603;;-25.258169;;-25.661942;;-26.055644;;-26.404764;;-26.683196;;-26.876127;;-26.978946;;-27.004456;;-26.996086;;-27.017697;;-27.10167;;-27.214186;;-27.297089;;-27.335814;;-27.358842;;-27.385545;;-27.385545
-4.0877665;;-4.3614502;;-4.3829505;;-4.4260626;;-4.4930766;;-4.5702312;;-4.6256792;;-4.6312626;;-4.5951193;;-4.5467501;;-4.5068825;;-4.4873011;;-4.4951711;;-4.5223783;;-4.5454146;;-4.5557733;;-4.704214;;-4.967116;;-5.3292001;;-5.7983249;;-6.3895115;;-7.1126965;;-7.9792582;;-8.9979723;;-10.160904;;-11.430574;;-12.719131;;-13.881856;;-14.847514;;-15.681177;;-16.429687;;-17.098166;;-17.693514;;-18.247867;;-18.807031;;-19.398566;;-20.013542;;-20.61872;;-21.18086;;-21.683656;;-22.134055;;-22.553369;;-22.957879;;-23.350123;;-23.728621;;-24.09873;;-24.473388;;-24.868275;;-25.290149;;-25.72181;;-26.12321;;-26.455362;;-26.702719;;-26.873858;;-26.985937;;-27.053939;;-27.097818;;-27.14763;;-27.218665;;-27.289014;;-27.328332;;-27.341391;;-27.357128;;-27.384917;;-27.384917
-4.1465781;;-4.1465781;;-4.4427307;;-4.4969529;;-4.5827645;;-4.6768246;;-4.737646;;-4.7282776;;-4.6642733;;-4.5848679;;-4.5184662;;-4.4798139;;-4.4719929;;-4.4837405;;-4.4990132;;-4.5224048;;-4.6559353;;-4.8965243;;-5.230308;;-5.664757;;-6.215312;;-6.8980416;;-7.722915;;-8.7014902;;-9.8329138;;-11.093174;;-12.418222;;-13.689898;;-14.803415;;-15.763767;;-16.58728;;-17.275887;;-17.853186;;-18.368214;;-18.873298;;-19.40031;;-19.952572;;-20.514964;;-21.066591;;-21.588329;;-22.069463;;-22.510261;;-22.916673;;-23.297127;;-23.665547;;-24.040245;;-24.435705;;-24.858473;;-25.303692;;-25.746508;;-26.144858;;-26.464423;;-26.701398;;-26.877995;;-27.018058;;-27.130602;;-27.217005;;-27.283938;;-27.335016;;-27.359939;;-27.355057;;-27.344698;;-27.357442;;-27.389728;;-27.389728
-4.1752971;;-4.1752971;;-4.4743946;;-4.5382749;;-4.6365877;;-4.7409611;;-4.8050801;;-4.788036;;-4.7107033;;-4.6154996;;-4.5335056;;-4.4808025;;-4.4585073;;-4.4551932;;-4.463664;;-4.5033284;;-4.636408;;-4.8602665;;-5.1704336;;-5.5758398;;-6.092409;;-6.7390702;;-7.5314139;;-8.4782855;;-9.5823244;;-10.827734;;-12.167178;;-13.508845;;-14.749099;;-15.83707;;-16.739239;;-17.449302;;-18.011737;;-18.491742;;-18.943651;;-19.403865;;-19.891343;;-20.408763;;-20.94473;;-21.476905;;-21.98047;;-22.440221;;-22.855897;;-23.24022;;-23.61526;;-24.004687;;-24.420588;;-24.858694;;-25.304623;;-25.737055;;-26.128712;;-26.457458;;-26.719382;;-26.926156;;-27.090026;;-27.215604;;-27.305388;;-27.364486;;-27.3932;;-27.387005;;-27.358562;;-27.343708;;-27.366591;;-27.40958;;-27.40958
-4.1947883;;-4.4674488;;-4.4873941;;-4.5462771;;-4.6410848;;-4.7421812;;-4.8042067;;-4.7905081;;-4.7186475;;-4.6267337;;-4.5442725;;-4.4865354;;-4.4536085;;-4.4378054;;-4.4422313;;-4.5013925;;-4.6442253;;-4.8585097;;-5.1485886;;-5.528262;;-6.0158253;;-6.6302299;;-7.3920537;;-8.3106384;;-9.3868626;;-10.609985;;-11.944326;;-13.320169;;-14.648814;;-15.843735;;-16.820657;;-17.558706;;-18.11816;;-18.574976;;-18.984435;;-19.390175;;-19.827166;;-20.310403;;-20.831557;;-21.364562;;-21.877286;;-22.348393;;-22.777454;;-23.180391;;-23.578868;;-23.990964;;-24.420023;;-24.852319;;-25.272845;;-25.678909;;-26.071755;;-26.440669;;-26.762416;;-27.014892;;-27.189826;;-27.29684;;-27.357578;;-27.39033;;-27.397902;;-27.379062;;-27.353617;;-27.356945;;-27.401335;;-27.457361;;-27.457361
-4.207014;;-4.4808075;;-4.4877903;;-4.5305253;;-4.6114955;;-4.7002741;;-4.7543466;;-4.7460321;;-4.6901191;;-4.6160411;;-4.5464886;;-4.4931437;;-4.4565099;;-4.4351095;;-4.4421355;;-4.521342;;-4.6763432;;-4.8905324;;-5.1657383;;-5.5204804;;-5.9816822;;-6.5706931;;-7.3073521;;-8.2062164;;-9.2630312;;-10.468949;;-11.795301;;-13.184491;;-14.555882;;-15.805974;;-16.823335;;-17.57647;;-18.131631;;-18.56997;;-18.950412;;-19.325191;;-19.739104;;-20.210169;;-20.726131;;-21.256513;;-21.767562;;-22.239813;;-22.678491;;-23.10349;;-23.530712;;-23.963278;;-24.390511;;-24.794686;;-25.172949;;-25.551632;;-25.961576;;-26.393969;;-26.7921;;-27.092643;;-27.2719;;-27.354403;;-27.385234;;-27.394844;;-27.388324;;-27.368885;;-27.360732;;-27.391588;;-27.458029;;-27.523694;;-27.523694
-4.2052878;;-4.4800403;;-4.4768922;;-4.5046451;;-4.5710751;;-4.6453165;;-4.6885007;;-4.6831389;;-4.6444863;;-4.5933226;;-4.5430557;;-4.5005932;;-4.4683076;;-4.4509873;;-4.4675136;;-4.5590522;;-4.722108;;-4.9402484;;-5.2103556;;-5.5483877;;-5.9947163;;-6.5740272;;-7.3045355;;-8.2024183;;-9.2603448;;-10.467936;;-11.796023;;-13.184723;;-14.547573;;-15.777646;;-16.768888;;-17.494898;;-18.022324;;-18.437308;;-18.806873;;-19.185355;;-19.611477;;-20.094286;;-20.6152;;-21.142857;;-21.646947;;-22.11348;;-22.554323;;-22.992848;;-23.438577;;-23.87916;;-24.291358;;-24.659812;;-25.000238;;-25.365298;;-25.803411;;-26.297963;;-26.760828;;-27.09953;;-27.286527;;-27.363577;;-27.390917;;-27.400446;;-27.394605;;-27.380268;;-27.385554;;-27.432685;;-27.508808;;-27.57667;;-27.576671
-4.1887603;;-4.4643214;;-4.4573128;;-4.4778287;;-4.5346202;;-4.5967463;;-4.6301301;;-4.6264715;;-4.6029572;;-4.5725796;;-4.5405006;;-4.5110613;;-4.4895256;;-4.4840292;;-4.5115301;;-4.6050743;;-4.7679316;;-4.9859037;;-5.2554681;;-5.5952768;;-6.049902;;-6.6427676;;-7.3915369;;-8.3112581;;-9.3923174;;-10.621704;;-11.962879;;-13.340098;;-14.647448;;-15.785337;;-16.681542;;-17.328259;;-17.793876;;-18.17737;;-18.559548;;-18.982874;;-19.455253;;-19.964109;;-20.490069;;-21.012059;;-21.509055;;-21.971053;;-22.410327;;-22.849329;;-23.294456;;-23.727931;;-24.123784;;-24.472473;;-24.801423;;-25.172342;;-25.634006;;-26.16117;;-26.653433;;-27.012669;;-27.216923;;-27.316659;;-27.372488;;-27.408217;;-27.420026;;-27.414758;;-27.421553;;-27.462833;;-27.529152;;-27.589796;;-27.589796
-4.1635232;;-4.4399509;;-4.4345977;;-4.4552078;;-4.5078327;;-4.5624403;;-4.5897348;;-4.5884378;;-4.5761764;;-4.5603826;;-4.5418386;;-4.5247167;;-4.5165545;;-4.5250689;;-4.5609179;;-4.6482599;;-4.801919;;-5.0142049;;-5.287701;;-5.6506856;;-6.1354658;;-6.7610194;;-7.5461151;;-8.5020903;;-9.6190326;;-10.880781;;-12.238977;;-13.594076;;-14.814021;;-15.820003;;-16.587245;;-17.127218;;-17.512777;;-17.863821;;-18.277696;;-18.772519;;-19.306699;;-19.839713;;-20.361321;;-20.873306;;-21.367684;;-21.832957;;-22.272047;;-22.700311;;-23.126287;;-23.541784;;-23.930819;;-24.288502;;-24.637818;;-25.027731;;-25.494793;;-26.012849;;-26.494175;;-26.857584;;-27.089342;;-27.233387;;-27.335572;;-27.408714;;-27.44626;;-27.45412;;-27.457792;;-27.481153;;-27.526077;;-27.573739;;-27.573739
-4.1363275;;-4.4135902;;-4.4133215;;-4.438806;;-4.4918936;;-4.5444047;;-4.569709;;-4.5694994;;-4.5614696;;-4.5530329;;-4.5441255;;-4.5381418;;-4.5425116;;-4.5623972;;-4.6033709;;-4.6817626;;-4.8205147;;-5.0279907;;-5.3208614;;-5.721673;;-6.2471153;;-6.9146508;;-7.7440489;;-8.7389142;;-9.8931581;;-11.185096;;-12.552526;;-13.870591;;-14.990823;;-15.869718;;-16.523635;;-16.976418;;-17.30234;;-17.635259;;-18.081222;;-18.634041;;-19.210004;;-19.749227;;-20.256539;;-20.758581;;-21.257965;;-21.735437;;-22.17703;;-22.587573;;-22.982838;;-23.37511;;-23.765455;;-24.149518;;-24.533122;;-24.940744;;-25.394272;;-25.875567;;-26.324722;;-26.68711;;-26.952776;;-27.146098;;-27.290774;;-27.392958;;-27.451805;;-27.475785;;-27.48489;;-27.50037;;-27.531649;;-27.569991;;-27.569991
-4.1111946;;-4.3895007;;-4.3946182;;-4.4257489;;-4.4825226;;-4.5377644;;-4.5644771;;-4.5627289;;-4.5520262;;-4.5451286;;-4.5436324;;-4.5481288;;-4.5624129;;-4.5901235;;-4.6341438;;-4.7055127;;-4.832811;;-5.0536436;;-5.382747;;-5.8257822;;-6.3954544;;-7.1098058;;-7.9822142;;-9.0139621;;-10.200386;;-11.511399;;-12.869829;;-14.131319;;-15.157642;;-15.944441;;-16.532006;;-16.949891;;-17.266361;;-17.606041;;-18.065162;;-18.625544;;-19.194317;;-19.713585;;-20.200933;;-20.696596;;-21.206615;;-21.700787;;-22.146502;;-22.538758;;-22.902724;;-23.270951;;-23.658645;;-24.059618;;-24.463796;;-24.875907;;-25.308831;;-25.755578;;-26.181461;;-26.55025;;-26.847346;;-27.075968;;-27.243869;;-27.358513;;-27.429526;;-27.470842;;-27.498661;;-27.527305;;-27.563503;;-27.601774;;-27.601774
-4.0887909;;-4.3684162;;-4.3760501;;-4.4093164;;-4.4683484;;-4.5278254;;-4.5594565;;-4.5582294;;-4.5447399;;-4.5379486;;-4.5422928;;-4.5552527;;-4.5768331;;-4.6098456;;-4.6563366;;-4.7248762;;-4.8621698;;-5.1240346;;-5.4979809;;-5.9880867;;-6.6082078;;-7.3733292;;-8.2878174;;-9.356347;;-10.567734;;-11.880103;;-13.200357;;-14.381412;;-15.326496;;-16.058354;;-16.622147;;-17.049884;;-17.398693;;-17.764269;;-18.216441;;-18.737398;;-19.256454;;-19.735885;;-20.199734;;-20.688252;;-21.205713;;-21.713018;;-22.163157;;-22.544441;;-22.888268;;-23.236379;;-23.608237;;-23.998157;;-24.394145;;-24.796395;;-25.215523;;-25.650731;;-26.077712;;-26.462125;;-26.77896;;-27.019926;;-27.191132;;-27.307052;;-27.38545;;-27.444549;;-27.498547;;-27.552688;;-27.604349;;-27.647634;;-27.647634
-4.0687754;;-4.3494653;;-4.3566804;;-4.3863924;;-4.4426403;;-4.5042172;;-4.5435217;;-4.5502827;;-4.5412522;;-4.5372371;;-4.5455295;;-4.5635507;;-4.5901391;;-4.627119;;-4.6758956;;-4.7499406;;-4.9408538;;-5.255739;;-5.683184;;-6.2311228;;-6.9144501;;-7.737106;;-8.7056643;;-9.8164453;;-11.043835;;-12.326341;;-13.558257;;-14.626782;;-15.494478;;-16.190791;;-16.750702;;-17.202494;;-17.592853;;-17.988393;;-18.430044;;-18.902481;;-19.364035;;-19.80061;;-20.237551;;-20.709851;;-21.220632;;-21.728756;;-22.181343;;-22.563127;;-22.904184;;-23.241096;;-23.588283;;-23.945035;;-24.312002;;-24.697964;;-25.113913;;-25.55661;;-25.998298;;-26.397127;;-26.719809;;-26.95758;;-27.123881;;-27.240255;;-27.328033;;-27.406756;;-27.487205;;-27.56474;;-27.628235;;-27.673857;;-27.673857
-4.0516083;;-4.3329281;;-4.3394886;;-4.3633319;;-4.4135098;;-4.4748444;;-4.5225715;;-4.543206;;-4.5456777;;-4.5473447;;-4.5576196;;-4.5779001;;-4.6080751;;-4.6482905;;-4.6993048;;-4.809831;;-5.068131;;-5.4409447;;-5.9298651;;-6.5478859;;-7.3038988;;-8.2014609;;-9.2419324;;-10.406163;;-11.640547;;-12.846497;;-13.925801;;-14.849673;;-15.63228;;-16.296469;;-16.858025;;-17.332975;;-17.756963;;-18.177117;;-18.615552;;-19.057647;;-19.480609;;-19.884068;;-20.292758;;-20.736702;;-21.221415;;-21.712856;;-22.162419;;-22.552703;;-22.904339;;-23.240602;;-23.568602;;-23.894366;;-24.234378;;-24.608168;;-25.025204;;-25.474316;;-25.921388;;-26.321626;;-26.641754;;-26.876436;;-27.043712;;-27.167604;;-27.269983;;-27.369355;;-27.471223;;-27.562632;;-27.629125;;-27.672526;;-27.672526
-4.0342157;;-4.3153763;;-4.3237957;;-4.346646;;-4.3933519;;-4.4544384;;-4.5098453;;-4.5448912;;-4.5603142;;-4.5681274;;-4.5796411;;-4.601382;;-4.6348574;;-4.6782274;;-4.7342001;;-4.9097598;;-5.2215274;;-5.6496489;;-6.2012242;;-6.8918802;;-7.7248015;;-8.7056802;;-9.8269482;;-11.050105;;-12.281819;;-13.369377;;-14.264157;;-15.035088;;-15.729168;;-16.362258;;-16.930947;;-17.432453;;-17.88531;;-18.321922;;-18.757949;;-19.183852;;-19.586502;;-19.969959;;-20.353595;;-20.761748;;-21.204579;;-21.663282;;-22.10149;;-22.499343;;-22.863843;;-23.206807;;-23.532921;;-23.852645;;-24.18855;;-24.561781;;-24.976325;;-25.415035;;-25.845734;;-26.232492;;-26.549344;;-26.791623;;-26.973047;;-27.112627;;-27.229326;;-27.340755;;-27.451424;;-27.546985;;-27.613568;;-27.655905;;-27.655905
-4.0069512;;-4.0069512;;-4.3039527;;-4.3344883;;-4.383183;;-4.4459838;;-4.5083293;;-4.5554672;;-4.5821478;;-4.5959375;;-4.609684;;-4.6334283;;-4.6699902;;-4.7147741;;-4.7819543;;-5.0083219;;-5.3613372;;-5.8342949;;-6.4386779;;-7.1889778;;-8.0874279;;-9.1390365;;-10.328346;;-11.598863;;-12.818414;;-13.792701;;-14.541243;;-15.193654;;-15.817335;;-16.427414;;-17.008566;;-17.539806;;-18.017938;;-18.460504;;-18.884745;;-19.293305;;-19.682732;;-20.054954;;-20.418782;;-20.789456;;-21.182851;;-21.599222;;-22.017099;;-22.413885;;-22.785128;;-23.138793;;-23.483053;;-23.827939;;-24.187605;;-24.571928;;-24.977303;;-25.388829;;-25.787727;;-26.154644;;-26.472604;;-26.733617;;-26.939376;;-27.095671;;-27.214397;;-27.316383;;-27.417283;;-27.511593;;-27.584575;;-27.633412;;-27.633412
-3.9644692;;-3.9644692;;-4.2743271;;-4.3187192;;-4.3750849;;-4.4421347;;-4.5113071;;-4.5687606;;-4.6059351;;-4.6268345;;-4.6446737;;-4.6705654;;-4.7073943;;-4.7482463;;-4.8214943;;-5.0712446;;-5.4469621;;-5.9454332;;-6.5796081;;-7.3622185;;-8.296396;;-9.3856548;;-10.609829;;-11.902491;;-13.111801;;-14.039096;;-14.734092;;-15.337801;;-15.92901;;-16.52906;;-17.120483;;-17.672211;;-18.164749;;-18.603771;;-19.009429;;-19.39768;;-19.773154;;-20.133332;;-20.474729;;-20.805416;;-21.148457;;-21.521076;;-21.913019;;-22.300543;;-22.674989;;-23.046453;;-23.42667;;-23.818833;;-24.219084;;-24.619903;;-25.012969;;-25.393596;;-25.761073;;-26.111457;;-26.434282;;-26.716921;;-26.946742;;-27.112456;;-27.217449;;-27.29098;;-27.369215;;-27.460935;;-27.546901;;-27.6084;;-27.6084
-3.9160882;;-3.9160882;;-4.239562;;-4.2995709;;-4.3666282;;-4.4392114;;-4.5149931;;-4.5820238;;-4.6296048;;-4.6589828;;-4.6815224;;-4.7077588;;-4.7394798;;-4.7686343;;-4.8319334;;-5.0836579;;-5.4618788;;-5.9627409;;-6.5987996;;-7.381419;;-8.3142841;;-9.4003703;;-10.619187;;-11.906009;;-13.118484;;-14.082437;;-14.821277;;-15.449763;;-16.049343;;-16.651435;;-17.245091;;-17.800642;;-18.29529;;-18.729361;;-19.122142;;-19.493181;;-19.848257;;-20.178649;;-20.475906;;-20.753805;;-21.049273;;-21.388159;;-21.760491;;-22.142471;;-22.529432;;-22.934564;;-23.365712;;-23.813034;;-24.255092;;-24.672441;;-25.058207;;-25.41921;;-25.767314;;-26.107281;;-26.432468;;-26.727689;;-26.970705;;-27.13875;;-27.229664;;-27.278471;;-27.335659;;-27.421142;;-27.514052;;-27.584237;;-27.584237
-3.8787654;;-3.8787654;;-4.2134694;;-4.285969;;-4.3624516;;-4.4408991;;-4.5218084;;-4.5960479;;-4.6524951;;-4.6897692;;-4.7163557;;-4.7406411;;-4.7626244;;-4.7754382;;-4.8185589;;-5.0591131;;-5.4255281;;-5.9119762;;-6.5295306;;-7.2884803;;-8.1923408;;-9.2444833;;-10.427221;;-11.685288;;-12.90356;;-13.94327;;-14.782227;;-15.486035;;-16.125924;;-16.74196;;-17.335172;;-17.887107;;-18.38252;;-18.820926;;-19.214048;;-19.572906;;-19.893707;;-20.159804;;-20.370623;;-20.570562;;-20.824413;;-21.155306;;-21.533842;;-21.930803;;-22.350455;;-22.807807;;-23.298321;;-23.796464;;-24.271974;;-24.705465;;-25.095259;;-25.453332;;-25.794584;;-26.126365;;-26.444459;;-26.735146;;-26.97759;;-27.149679;;-27.245894;;-27.294027;;-27.340996;;-27.412335;;-27.49581;;-27.563359;;-27.563359
-3.8611019;;-3.8611019;;-3.9198006;;-4.2833169;;-4.3663647;;-4.4486561;;-4.5312602;;-4.6081205;;-4.6693715;;-4.7125711;;-4.7431768;;-4.7664502;;-4.7810439;;-4.7820582;;-4.8047712;;-5.0246478;;-5.3712876;;-5.8348206;;-6.4238405;;-7.1478663;;-8.0089633;;-9.0111357;;-10.140309;;-11.352494;;-12.561293;;-13.661791;;-14.602429;;-15.399325;;-16.100825;;-16.746834;;-17.350822;;-17.91042;;-18.421316;;-18.881374;;-19.290122;;-19.642784;;-19.918583;;-20.090089;;-20.176138;;-20.275958;;-20.497331;;-20.851429;;-21.26875;;-21.703011;;-22.167693;;-22.68104;;-23.225151;;-23.761987;;-24.262439;;-24.714924;;-25.120173;;-25.486436;;-25.825391;;-26.144137;;-26.440612;;-26.708918;;-26.942276;;-27.128169;;-27.253277;;-27.323787;;-27.370537;;-27.423705;;-27.488079;;-27.546383;;-27.546383
-3.8534127;;-3.8534127;;-3.9163743;;-4.2855797;;-4.3731087;;-4.4565762;;-4.5372051;;-4.6111249;;-4.6725534;;-4.7202371;;-4.7573873;;-4.7859736;;-4.8031308;;-4.8066549;;-4.8210978;;-5.0030695;;-5.3223123;;-5.7570118;;-6.3116576;;-6.9959414;;-7.8086052;;-8.7532807;;-9.8189828;;-10.971378;;-12.146746;;-13.267537;;-14.276195;;-15.156279;;-15.927709;;-16.620584;;-17.256723;;-17.848881;;-18.401096;;-18.906813;;-19.352195;;-19.716157;;-19.960115;;-20.047358;;-20.019317;;-20.031039;;-20.230649;;-20.614947;;-21.072609;;-21.537064;;-22.029393;;-22.575069;;-23.150656;;-23.712773;;-24.236686;;-24.715743;;-25.145778;;-25.525153;;-25.859235;;-26.153337;;-26.410108;;-26.641052;;-26.862996;;-27.072128;;-27.238538;;-27.340565;;-27.393932;;-27.435259;;-27.4852;;-27.536116;;-27.536116
-3.8397515;;-3.8397515;;-3.905877;;-4.2796505;;-4.3719881;;-4.4568917;;-4.5330211;;-4.6005;;-4.659898;;-4.7128801;;-4.7608466;;-4.8028257;;-4.8349951;;-4.8574291;;-4.8883007;;-5.0175199;;-5.2961992;;-5.6917734;;-6.2030114;;-6.8386461;;-7.5980986;;-8.4796881;;-9.4752976;;-10.55851;;-11.682356;;-12.789278;;-13.827463;;-14.766382;;-15.602795;;-16.35209;;-17.038315;;-17.684799;;-18.301088;;-18.8764;;-19.385739;;-19.793412;;-20.049104;;-20.116574;;-20.053967;;-20.038219;;-20.225795;;-20.604193;;-21.050196;;-21.495665;;-21.969636;;-22.506117;;-23.085499;;-23.664717;;-24.217879;;-24.733254;;-25.195802;;-25.591586;;-25.91706;;-26.174914;;-26.378303;;-26.564355;;-26.774376;;-27.006065;;-27.208774;;-27.338779;;-27.403774;;-27.444632;;-27.489433;;-27.536422;;-27.536422
-3.817698;;-3.817698;;-3.8850273;;-4.2611287;;-4.3577507;;-4.4465252;;-4.5183222;;-4.5800494;;-4.6388072;;-4.6988916;;-4.7603002;;-4.8200556;;-4.8748809;;-4.9260183;;-4.9878413;;-5.1019517;;-5.3244242;;-5.662792;;-6.1147908;;-6.6851259;;-7.3814355;;-8.1963748;;-9.1213377;;-10.137182;;-11.209249;;-12.292248;;-13.340391;;-14.318737;;-15.20972;;-16.014737;;-16.754421;;-17.457311;;-18.138765;;-18.789539;;-19.378876;;-19.859397;;-20.176328;;-20.304527;;-20.308316;;-20.340615;;-20.523708;;-20.843986;;-21.208941;;-21.578174;;-21.990585;;-22.485638;;-23.051124;;-23.644895;;-24.231631;;-24.785864;;-25.280271;;-25.690405;;-26.004525;;-26.225603;;-26.381541;;-26.531947;;-26.730261;;-26.968554;;-27.184075;;-27.327239;;-27.404405;;-27.453676;;-27.500222;;-27.545334;;-27.545334
-3.7954171;;-3.7954171;;-3.8621043;;-4.2384806;;-4.3374865;;-4.4302664;;-4.501442;;-4.5604281;;-4.620991;;-4.6882558;;-4.7613868;;-4.8371627;;-4.9138309;;-4.99353;;-5.0870567;;-5.2178774;;-5.4132999;;-5.6916997;;-6.0716684;;-6.5667399;;-7.1852645;;-7.9335398;;-8.8000794;;-9.7681443;;-10.810888;;-11.888396;;-12.954909;;-13.970459;;-14.908118;;-15.759461;;-16.539693;;-17.278501;;-17.998844;;-18.701007;;-19.356283;;-19.910907;;-20.310447;;-20.542478;;-20.66545;;-20.782583;;-20.964862;;-21.204898;;-21.462374;;-21.737937;;-22.079599;;-22.527619;;-23.074781;;-23.677721;;-24.288353;;-24.866338;;-25.375292;;-25.786277;;-26.086391;;-26.285316;;-26.423198;;-26.564362;;-26.753508;;-26.973964;;-27.169072;;-27.303514;;-27.388458;;-27.452129;;-27.507596;;-27.554883;;-27.554883
-3.7804587;;-3.7804587;;-3.8463254;;-4.2229841;;-4.3234847;;-4.4197551;;-4.4933614;;-4.5517791;;-4.6143527;;-4.6859771;;-4.7653926;;-4.8506188;;-4.9419061;;-5.0431128;;-5.1620377;;-5.3120357;;-5.5053936;;-5.7489842;;-6.0627213;;-6.4850304;;-7.0386884;;-7.73134;;-8.5656202;;-9.5217709;;-10.574493;;-11.684155;;-12.79739;;-13.861241;;-14.838473;;-15.717652;;-16.513917;;-17.257946;;-17.979933;;-18.692524;;-19.374874;;-19.9747;;-20.442001;;-20.76981;;-21.000023;;-21.189249;;-21.371244;;-21.550819;;-21.731363;;-21.94267;;-22.235732;;-22.648022;;-23.173757;;-23.768225;;-24.375185;;-24.945873;;-25.441345;;-25.835211;;-26.121522;;-26.319623;;-26.472642;;-26.629903;;-26.812657;;-26.998194;;-27.150758;;-27.262151;;-27.351341;;-27.433324;;-27.504653;;-27.559492;;-27.559492
-3.7750749;;-3.7750749;;-3.8409827;;-4.2191251;;-4.3209324;;-4.4210125;;-4.497639;;-4.5550562;;-4.6172612;;-4.6890937;;-4.7689503;;-4.8564647;;-4.9545802;;-5.0682481;;-5.2034955;;-5.3671795;;-5.5624249;;-5.7878411;;-6.0561802;;-6.4244347;;-6.9410093;;-7.6141499;;-8.4463814;;-9.4294027;;-10.529883;;-11.707352;;-12.896476;;-14.020783;;-15.027936;;-15.910944;;-16.695079;;-17.4169;;-18.112209;;-18.801711;;-19.47281;;-20.082237;;-20.588586;;-20.98194;;-21.280825;;-21.51101;;-21.694638;;-21.852066;;-22.008323;;-22.199985;;-22.472176;;-22.856989;;-23.349137;;-23.906585;;-24.474477;;-25.005549;;-25.465057;;-25.833426;;-26.111956;;-26.324246;;-26.505835;;-26.684019;;-26.858751;;-27.008739;;-27.122384;;-27.215096;;-27.309754;;-27.408946;;-27.495769;;-27.558871;;-27.558871
-3.7744387;;-3.7744387;;-3.8408296;;-3.9334052;;-4.3238139;;-4.4273504;;-4.506411;;-4.5612655;;-4.6208236;;-4.690427;;-4.7676849;;-4.8534095;;-4.952922;;-5.072038;;-5.2152536;;-5.3848158;;-5.5786122;;-5.7900412;;-6.029637;;-6.371679;;-6.8840536;;-7.5688121;;-8.4270542;;-9.4551983;;-10.618197;;-11.875667;;-13.152865;;-14.347706;;-15.38421;;-16.257995;;-17.010338;;-17.690991;;-18.343242;;-18.992157;;-19.631912;;-20.23185;;-20.759732;;-21.196157;;-21.535327;;-21.787481;;-21.980992;;-22.150722;;-22.32494;;-22.529745;;-22.797014;;-23.152406;;-23.593257;;-24.08665;;-24.587837;;-25.058737;;-25.473386;;-25.818574;;-26.096753;;-26.32484;;-26.52462;;-26.70782;;-26.86859;;-26.994826;;-27.090868;;-27.180905;;-27.283816;;-27.393033;;-27.486388;;-27.552613;;-27.552613
-3.7690543;;-3.7690543;;-3.8350813;;-3.9273842;;-4.3188588;;-4.4245211;;-4.5076273;;-4.5611269;;-4.6179504;;-4.68533;;-4.7601201;;-4.8434369;;-4.9417967;;-5.061613;;-5.2058285;;-5.3742564;;-5.561536;;-5.7592355;;-5.9806655;;-6.3228856;;-6.8517287;;-7.5603834;;-8.4511761;;-9.52192;;-10.74114;;-12.071006;;-13.432994;;-14.705329;;-15.782583;;-16.652585;;-17.36935;;-17.99951;;-18.598608;;-19.198574;;-19.802825;;-20.393092;;-20.94003;;-21.409653;;-21.777121;;-22.049035;;-22.265963;;-22.472027;;-22.688268;;-22.922217;;-23.189404;;-23.51012;;-23.888501;;-24.305082;;-24.729191;;-25.134297;;-25.503968;;-25.829263;;-26.106963;;-26.339921;;-26.536369;;-26.704915;;-26.847823;;-26.964059;;-27.06244;;-27.161897;;-27.272146;;-27.381965;;-27.471851;;-27.535682;;-27.535682
-3.7540373;;-3.7540373;;-3.818214;;-3.9082926;;-4.2990377;;-4.405825;;-4.4956162;;-4.5534127;;-4.6095151;;-4.675642;;-4.7493302;;-4.8311644;;-4.9274557;;-5.0442709;;-5.1839855;;-5.3454507;;-5.5221599;;-5.7059938;;-5.9189055;;-6.2784093;;-6.8270726;;-7.5563543;;-8.4716185;;-9.5713356;;-10.829829;;-12.213126;;-13.644148;;-14.991994;;-16.124145;;-17.009173;;-17.704193;;-18.28968;;-18.834812;;-19.384225;;-19.955632;;-20.54072;;-21.105529;;-21.601154;;-21.993244;;-22.29162;;-22.544897;;-22.798059;;-23.061175;;-23.324364;;-23.589919;;-23.876443;;-24.196415;;-24.542636;;-24.896433;;-25.242335;;-25.571708;;-25.876128;;-26.143398;;-26.363765;;-26.539578;;-26.684816;;-26.812839;;-26.929048;;-27.037753;;-27.14668;;-27.257801;;-27.360799;;-27.442948;;-27.50306;;-27.503059
-3.7344939;;-3.7344939;;-3.7961355;;-3.8830803;;-4.2723238;;-4.3795598;;-4.4764949;;-4.5430941;;-4.6010306;;-4.6670072;;-4.7410994;;-4.8230417;;-4.9169182;;-5.0273103;;-5.1569516;;-5.3052825;;-5.467647;;-5.6388559;;-5.8543832;;-6.2364491;;-6.8000666;;-7.5410789;;-8.4683223;;-9.5801569;;-10.857085;;-12.269066;;-13.743657;;-15.15139;;-16.344975;;-17.269776;;-17.973563;;-18.539781;;-19.047446;;-19.555886;;-20.098784;;-20.675142;;-21.245954;;-21.755951;;-22.171995;;-22.50632;;-22.802914;;-23.097681;;-23.392126;;-23.669326;;-23.928111;;-24.188743;;-24.468103;;-24.763674;;-25.064336;;-25.364471;;-25.660919;;-25.941805;;-26.187078;;-26.38285;;-26.534145;;-26.661651;;-26.783594;;-26.904146;;-27.019688;;-27.129262;;-27.232822;;-27.32554;;-27.401233;;-27.460191;;-27.460191
-3.7182865;;-3.7182865;;-3.7778096;;-3.8621076;;-4.2498425;;-4.3574813;;-4.4588533;;-4.5342733;;-4.5958793;;-4.6632867;;-4.7394417;;-4.823092;;-4.9142964;;-5.0156661;;-5.1298846;;-5.2596762;;-5.4042434;;-5.5644254;;-5.7923588;;-6.1943597;;-6.7664534;;-7.5100869;;-8.4366177;;-9.5427109;;-10.814531;;-12.225431;;-13.709715;;-15.14958;;-16.403256;;-17.397063;;-18.153636;;-18.743205;;-19.246443;;-19.734847;;-20.254964;;-20.811734;;-21.36914;;-21.880186;;-22.320775;;-22.698068;;-23.036059;;-23.353932;;-23.652176;;-23.922135;;-24.169561;;-24.416008;;-24.674664;;-24.940025;;-25.204596;;-25.471074;;-25.73991;;-25.995908;;-26.216445;;-26.390905;;-26.52988;;-26.654729;;-26.77958;;-26.902382;;-27.015046;;-27.11541;;-27.206791;;-27.289806;;-27.362107;;-27.422426;;-27.422426
-3.7056915;;-3.7056915;;-3.7634002;;-3.8453785;;-4.2313997;;-4.3384594;;-4.4419373;;-4.5244918;;-4.5911201;;-4.6622146;;-4.7416567;;-4.8274217;;-4.9159612;;-5.0068311;;-5.1039012;;-5.2136962;;-5.340256;;-5.4909029;;-5.7354976;;-6.1512021;;-6.7263396;;-7.4657105;;-8.3813991;;-9.4659013;;-10.710449;;-12.090387;;-13.548736;;-14.989025;;-16.294707;;-17.383431;;-18.238153;;-18.897828;;-19.434809;;-19.927404;;-20.431051;;-20.959012;;-21.489408;;-21.99439;;-22.45946;;-22.87804;;-23.245468;;-23.564105;;-23.842949;;-24.092907;;-24.329816;;-24.571093;;-24.819988;;-25.065655;;-25.303574;;-25.542224;;-25.784746;;-26.016631;;-26.219101;;-26.388128;;-26.535806;;-26.675471;;-26.808897;;-26.927849;;-27.027095;;-27.112354;;-27.192556;;-27.269882;;-27.340773;;-27.4021;;-27.4021
-3.6896917;;-3.6896917;;-3.7448576;;-3.8234479;;-3.9200325;;-4.3108989;;-4.4158379;;-4.5058975;;-4.5796022;;-4.6545223;;-4.7364447;;-4.8228817;;-4.908563;;-4.9911472;;-5.0749357;;-5.1694683;;-5.2821627;;-5.4253581;;-5.684076;;-6.1077019;;-6.6831599;;-7.4166575;;-8.3182105;;-9.3763307;;-10.584247;;-11.917526;;-13.328563;;-14.747503;;-16.090885;;-17.277028;;-18.251015;;-19.010679;;-19.608567;;-20.121996;;-20.613962;;-21.112227;;-21.616111;;-22.116417;;-22.601496;;-23.047911;;-23.426873;;-23.731119;;-23.983185;;-24.214141;;-24.445408;;-24.684397;;-24.923531;;-25.150031;;-25.364145;;-25.578044;;-25.79576;;-26.005731;;-26.196732;;-26.3723;;-26.543455;;-26.709974;;-26.856256;;-26.967831;;-27.048871;;-27.11931;;-27.194025;;-27.271404;;-27.342532;;-27.403569;;-27.403569
-3.6672976;;-3.6672976;;-3.7188198;;-3.7924951;;-3.8837019;;-4.2706319;;-4.3757364;;-4.4732692;;-4.5542492;;-4.6298455;;-4.7092252;;-4.7929717;;-4.8765362;;-4.9563631;;-5.0355042;;-5.1242344;;-5.2300061;;-5.3680153;;-5.6359776;;-6.064199;;-6.6406402;;-7.3725839;;-8.2662153;;-9.3101546;;-10.49602;;-11.797266;;-13.170859;;-14.566794;;-15.928096;;-17.181549;;-18.252946;;-19.106371;;-19.767905;;-20.305609;;-20.789566;;-21.266116;;-21.753987;;-22.252417;;-22.744974;;-23.197933;;-23.573725;;-23.863562;;-24.098172;;-24.318444;;-24.545453;;-24.777336;;-25.001097;;-25.207373;;-25.401621;;-25.596635;;-25.794262;;-25.983534;;-26.159145;;-26.33414;;-26.524001;;-26.718279;;-26.882137;;-26.992685;;-27.064163;;-27.13031;;-27.208927;;-27.292027;;-27.365741;;-27.426759;;-27.426759
-3.643202;;-3.643202;;-3.6907583;;-3.759034;;-3.8441761;;-4.2256579;;-4.3282929;;-4.4294544;;-4.5132085;;-4.5828348;;-4.6527586;;-4.729896;;-4.8125142;;-4.8959631;;-4.9803784;;-5.0726138;;-5.1782201;;-5.3143592;;-5.5922638;;-6.0265236;;-6.608344;;-7.3467071;;-8.246605;;-9.2989875;;-10.495031;;-11.805313;;-13.181151;;-14.570971;;-15.929264;;-17.199071;;-18.311334;;-19.216983;;-19.920214;;-20.47599;;-20.95813;;-21.426611;;-21.909284;;-22.402555;;-22.884115;;-23.323168;;-23.690047;;-23.977537;;-24.211509;;-24.428176;;-24.645329;;-24.860098;;-25.063572;;-25.253573;;-25.437676;;-25.624236;;-25.808809;;-25.976011;;-26.121997;;-26.27179;;-26.456372;;-26.666238;;-26.850897;;-26.976153;;-27.059279;;-27.139069;;-27.230587;;-27.321442;;-27.397524;;-27.458297;;-27.458297
-3.6233022;;-3.6233022;;-3.6674313;;-3.7309452;;-3.8104889;;-4.1862976;;-4.2843025;;-4.3821823;;-4.4615616;;-4.5180748;;-4.5737117;;-4.6421315;;-4.7244043;;-4.8153354;;-4.9109186;;-5.0128986;;-5.1225608;;-5.2635396;;-5.5596733;;-6.0068101;;-6.60214;;-7.3578022;;-8.2797154;;-9.3625745;;-10.599043;;-11.957303;;-13.376229;;-14.78014;;-16.1174;;-17.354173;;-18.446628;;-19.353055;;-20.06871;;-20.637935;;-21.130641;;-21.606456;;-22.08944;;-22.569103;;-23.023753;;-23.436973;;-23.794838;;-24.090216;;-24.334232;;-24.549284;;-24.750381;;-24.941531;;-25.125078;;-25.306917;;-25.493403;;-25.683362;;-25.862365;;-26.007448;;-26.112789;;-26.215036;;-26.367453;;-26.57285;;-26.774288;;-26.925309;;-27.036304;;-27.139719;;-27.243959;;-27.336195;;-27.408681;;-27.46654;;-27.46654
-3.6093297;;-3.6093297;;-3.6507281;;-3.7103266;;-3.7849839;;-4.1554333;;-4.247508;;-4.3375476;;-4.4050976;;-4.4451361;;-4.4867431;;-4.5477569;;-4.6303608;;-4.7283725;;-4.8357168;;-4.9487719;;-5.0643153;;-5.2226981;;-5.5449071;;-6.0119685;;-6.6281947;;-7.4098272;;-8.3636921;;-9.4891697;;-10.779956;;-12.201804;;-13.679926;;-15.103914;;-16.404528;;-17.577069;;-18.612565;;-19.487892;;-20.201419;;-20.79009;;-21.310107;;-21.805724;;-22.289687;;-22.749278;;-23.172591;;-23.559861;;-23.909299;;-24.211576;;-24.46364;;-24.675473;;-24.861066;;-25.032976;;-25.20386;;-25.385076;;-25.579959;;-25.778165;;-25.955826;;-26.083895;;-26.154507;;-26.210806;;-26.321685;;-26.505361;;-26.708487;;-26.877346;;-27.010288;;-27.12779;;-27.231984;;-27.314046;;-27.376106;;-27.428886;;-27.428886
-3.5981472;;-3.5981472;;-3.6370716;;-3.6930626;;-3.7630849;;-4.1281968;;-4.2140896;;-4.2947771;;-4.3484516;;-4.3750572;;-4.4080273;;-4.4655724;;-4.5484543;;-4.6505917;;-4.7653307;;-4.8862258;;-5.0079355;;-5.1957978;;-5.5415208;;-6.0279637;;-6.6649061;;-7.4716713;;-8.4558589;;-9.6207382;;-10.960253;;-12.437538;;-13.965566;;-15.399015;;-16.651123;;-17.753245;;-18.729793;;-19.575894;;-20.295607;;-20.917255;;-21.476359;;-21.995583;;-22.479128;;-22.921143;;-23.322966;;-23.694469;;-24.037107;;-24.339296;;-24.592025;;-24.799786;;-24.97717;;-25.141936;;-25.310529;;-25.493175;;-25.689281;;-25.885124;;-26.055378;;-26.171609;;-26.226563;;-26.261563;;-26.34521;;-26.502331;;-26.689561;;-26.854986;;-26.988498;;-27.100662;;-27.191584;;-27.258406;;-27.310698;;-27.360458;;-27.360457
-3.5856393;;-3.5856393;;-3.6217852;;-3.6737936;;-3.7388385;;-3.8135811;;-4.1782543;;-4.2520949;;-4.2986068;;-4.3197605;;-4.3508601;;-4.4075716;;-4.4897027;;-4.5913302;;-4.7068863;;-4.8299916;;-4.9566287;;-5.1693652;;-5.5276335;;-6.0236944;;-6.6707792;;-7.4903538;;-8.4902023;;-9.6761334;;-11.042356;;-12.550575;;-14.105706;;-15.535067;;-16.740597;;-17.791983;;-18.739052;;-19.5862;;-20.335456;;-21.001342;;-21.598731;;-22.135924;;-22.618515;;-23.053496;;-23.451084;;-23.820315;;-24.159833;;-24.459134;;-24.710848;;-24.918705;;-25.096873;;-25.264367;;-25.435598;;-25.613979;;-25.793817;;-25.96466;;-26.109913;;-26.20878;;-26.257842;;-26.294268;;-26.37558;;-26.520412;;-26.690761;;-26.84134;;-26.961;;-27.057963;;-27.134964;;-27.193895;;-27.245738;;-27.297871;;-27.297871
-3.5715831;;-3.5715831;;-3.6045225;;-3.6521108;;-3.7119188;;-3.7813592;;-4.1412667;;-4.2124911;;-4.2630274;;-4.2892489;;-4.3228299;;-4.3787175;;-4.4562917;;-4.5519623;;-4.6625054;;-4.7827171;;-4.9099193;;-5.1288406;;-5.4850932;;-5.9758526;;-6.6164083;;-7.4286265;;-8.421107;;-9.6005871;;-10.962611;;-12.470608;;-14.029042;;-15.453795;;-16.636513;;-17.675229;;-18.635884;;-19.522797;;-20.326101;;-21.04176;;-21.669777;;-22.216779;;-22.699763;;-23.137826;;-23.542691;;-23.916715;;-24.255834;;-24.554734;;-24.811138;;-25.027497;;-25.21363;;-25.385677;;-25.554906;;-25.718456;;-25.866843;;-25.994224;;-26.093723;;-26.152794;;-26.176929;;-26.212614;;-26.313711;;-26.481305;;-26.662964;;-26.811573;;-26.920787;;-27.006041;;-27.077654;;-27.140487;;-27.201178;;-27.259761;;-27.25976
-3.559816;;-3.559816;;-3.5892564;;-3.6325473;;-3.687688;;-3.7531545;;-4.1099921;;-4.1823747;;-4.2431967;;-4.2810805;;-4.3184073;;-4.3706648;;-4.4406533;;-4.5278093;;-4.6309809;;-4.7458252;;-4.867932;;-5.0726014;;-5.4123292;;-5.8837329;;-6.5013972;;-7.2867912;;-8.2503277;;-9.3982826;;-10.728972;;-12.210849;;-13.757094;;-15.192268;;-16.391497;;-17.456403;;-18.464297;;-19.416867;;-20.288863;;-21.057048;;-21.712211;;-22.267238;;-22.752487;;-23.195913;;-23.607906;;-23.984962;;-24.322562;;-24.622163;;-24.886833;;-25.116654;;-25.313788;;-25.488129;;-25.648614;;-25.791814;;-25.907636;;-25.990212;;-26.03058;;-26.016852;;-25.974048;;-25.985583;;-26.122373;;-26.358096;;-26.596494;;-26.770279;;-26.880877;;-26.960361;;-27.03176;;-27.102901;;-27.174587;;-27.239607;;-27.239606
-3.5537031;;-3.5537031;;-3.5796306;;-3.6196692;;-3.6716668;;-3.73485;;-4.0904986;;-4.1647328;;-4.2325878;;-4.2797544;;-4.3184999;;-4.3664183;;-4.4301349;;-4.5114853;;-4.6094875;;-4.719491;;-4.8344832;;-5.0075612;;-5.3184282;;-5.758793;;-6.3408697;;-7.0847732;;-8.0039012;;-9.1031636;;-10.384368;;-11.82407;;-13.351331;;-14.816611;;-16.076033;;-17.200398;;-18.273475;;-19.299151;;-20.242107;;-21.064196;;-21.749898;;-22.317423;;-22.80731;;-23.254444;;-23.669961;;-24.046886;;-24.379776;;-24.674809;;-24.940762;;-25.177839;;-25.382596;;-25.558402;;-25.7122;;-25.842705;;-25.940525;;-25.99274;;-25.975158;;-25.869416;;-25.72952;;-25.6968;;-25.874549;;-26.203383;;-26.525371;;-26.740954;;-26.859656;;-26.935273;;-27.005587;;-27.082565;;-27.162479;;-27.232368;;-27.232368
-3.5516244;;-3.5516244;;-3.5752595;;-3.6136451;;-3.6641101;;-3.7259752;;-4.0811103;;-4.1557724;;-4.224286;;-4.272043;;-4.3088101;;-4.3547914;;-4.4178269;;-4.4989698;;-4.5954931;;-4.7021481;;-4.8112822;;-4.9453817;;-5.2136155;;-5.6125062;;-6.1491349;;-6.840578;;-7.7042671;;-8.7431673;;-9.9627721;;-11.349369;;-12.852005;;-14.356478;;-15.713874;;-16.929395;;-18.079802;;-19.178153;;-20.188829;;-21.065493;;-21.786963;;-22.3739;;-22.874014;;-23.329111;;-23.751652;;-24.13003;;-24.454966;;-24.735582;;-24.98767;;-25.216441;;-25.418814;;-25.596122;;-25.753161;;-25.887619;;-25.987675;;-26.031118;;-25.978134;;-25.804304;;-25.587237;;-25.514447;;-25.715915;;-26.1092;;-26.490761;;-26.735948;;-26.859681;;-26.932244;;-27.002505;;-27.085069;;-27.172952;;-27.248278;;-27.248278
-3.5505158;;-3.5505158;;-3.5719713;;-3.6088484;;-3.6578223;;-3.7180413;;-3.7864963;;-4.1452773;;-4.2116397;;-4.255356;;-4.290019;;-4.3379441;;-4.4055937;;-4.4903333;;-4.5871166;;-4.6902998;;-4.7948216;;-4.9026718;;-5.1085447;;-5.4568071;;-5.9407968;;-6.5727958;;-7.3712025;;-8.3419754;;-9.4910608;;-10.815071;;-12.282987;;-13.816549;;-15.285914;;-16.621112;;-17.862856;;-19.03629;;-20.115427;;-21.051394;;-21.817012;;-22.43359;;-22.956066;;-23.431617;;-23.870068;;-24.252153;;-24.564754;;-24.821234;;-25.04586;;-25.251084;;-25.439439;;-25.615942;;-25.784429;;-25.936585;;-26.053911;;-26.109813;;-26.062384;;-25.887232;;-25.662433;;-25.576198;;-25.761746;;-26.141136;;-26.513113;;-26.75178;;-26.871239;;-26.943561;;-27.019391;;-27.112364;;-27.211747;;-27.294559;;-27.294559
-3.5492935;;-3.5492935;;-3.5646145;;-3.5976027;;-3.6428022;;-3.699039;;-3.7638619;;-4.1199041;;-4.1858155;;-4.2310579;;-4.2676663;;-4.3199148;;-4.3919132;;-4.4788452;;-4.5741785;;-4.6744526;;-4.7770292;;-4.8791499;;-5.0205888;;-5.3105612;;-5.7372934;;-6.3070973;;-7.0356037;;-7.9359938;;-9.011476;;-10.26696;;-11.688062;;-13.225639;;-14.781091;;-16.241231;;-17.583469;;-18.836781;;-19.992476;;-21.003235;;-21.832965;;-22.499123;;-23.061078;;-23.567941;;-24.024171;;-24.405146;;-24.699233;;-24.926672;;-25.118807;;-25.294103;;-25.462223;;-25.635353;;-25.817909;;-25.993669;;-26.135941;;-26.220041;;-26.216044;;-26.105026;;-25.942606;;-25.872155;;-26.005031;;-26.293935;;-26.587045;;-26.782679;;-26.88897;;-26.963968;;-27.049946;;-27.155816;;-27.267279;;-27.357269;;-27.357269
-3.5487856;;-3.5487856;;-3.5542428;;-3.5796453;;-3.6180473;;-3.6674623;;-3.7265445;;-4.0776953;;-4.1445597;;-4.1992885;;-4.2427024;;-4.2945433;;-4.3614924;;-4.4388093;;-4.5265343;;-4.628448;;-4.7402363;;-4.8535705;;-4.9727742;;-5.1955115;;-5.5645504;;-6.0749042;;-6.7374446;;-7.5690772;;-8.5750373;;-9.7615337;;-11.125772;;-12.638698;;-14.229061;;-15.781452;;-17.216931;;-18.54984;;-19.791032;;-20.899664;;-21.825935;;-22.570148;;-23.18468;;-23.718755;;-24.179249;;-24.547718;;-24.820936;;-25.024075;;-25.189932;;-25.340285;;-25.491991;;-25.663804;;-25.860562;;-26.059952;;-26.22944;;-26.347882;;-26.400209;;-26.374963;;-26.29966;;-26.259147;;-26.331272;;-26.503336;;-26.689762;;-26.825994;;-26.915004;;-26.994019;;-27.089604;;-27.20368;;-27.320179;;-27.412257;;-27.412257
-3.5486398;;-3.5486398;;-3.549809;;-3.5619281;;-3.5916254;;-3.6332406;;-3.6852785;;-3.7455393;;-4.0972175;;-4.1614134;;-4.2138624;;-4.2570994;;-4.3031019;;-4.356641;;-4.430841;;-4.5341385;;-4.6625198;;-4.802834;;-4.9425371;;-5.121904;;-5.4396436;;-5.8972936;;-6.5032477;;-7.272413;;-8.2175698;;-9.3406079;;-10.645467;;-12.115431;;-13.698767;;-15.296088;;-16.802526;;-18.20465;;-19.5279;;-20.744655;;-21.789579;;-22.629137;;-23.293134;;-23.833937;;-24.278146;;-24.628195;;-24.890498;;-25.086442;;-25.242299;;-25.382007;;-25.529881;;-25.707501;;-25.917009;;-26.133646;;-26.324661;;-26.47154;;-26.566967;;-26.604895;;-26.595115;;-26.580261;;-26.609841;;-26.6919;;-26.791237;;-26.876295;;-26.949747;;-27.032037;;-27.133986;;-27.249865;;-27.36342;;-27.451749;;-27.451749
-3.5485736;;-3.5485736;;-3.5489377;;-3.5517794;;-3.5701512;;-3.6039175;;-3.6491068;;-3.7045195;;-3.7673736;;-4.120725;;-4.1802687;;-4.2138301;;-4.2312083;;-4.2597026;;-4.3233562;;-4.4245754;;-4.5595217;;-4.7198039;;-4.8901885;;-5.0784299;;-5.3627842;;-5.7811861;;-6.3439872;;-7.0649627;;-7.961925;;-9.0365629;;-10.293421;;-11.723799;;-13.28901;;-14.905577;;-16.461349;;-17.912638;;-19.29104;;-20.588247;;-21.729735;;-22.644965;;-23.335838;;-23.862528;;-24.282712;;-24.624358;;-24.897489;;-25.110121;;-25.277035;;-25.424147;;-25.582591;;-25.772217;;-25.989235;;-26.209871;;-26.407758;;-26.567602;;-26.682249;;-26.745357;;-26.759509;;-26.750474;;-26.75709;;-26.797959;;-26.859577;;-26.922839;;-26.989029;;-27.072325;;-27.177463;;-27.293507;;-27.403165;;-27.487127;;-27.487127
-3.5485496;;-3.5485496;;-3.5486386;;-3.5492659;;-3.5555475;;-3.5812664;;-3.6198877;;-3.669259;;-3.7273456;;-3.7899441;;-4.1370758;;-4.1686281;;-4.1603545;;-4.1664436;;-4.2237814;;-4.3250645;;-4.4622315;;-4.6303245;;-4.8171953;;-5.0315438;;-5.3194739;;-5.7230985;;-6.2639224;;-6.959172;;-7.8290947;;-8.8809887;;-10.117434;;-11.533828;;-13.098897;;-14.737091;;-16.329018;;-17.801255;;-19.185346;;-20.494951;;-21.660674;;-22.594762;;-23.28334;;-23.793453;;-24.203888;;-24.557117;;-24.860903;;-25.109532;;-25.306487;;-25.476766;;-25.653874;;-25.854529;;-26.070686;;-26.282607;;-26.472855;;-26.629997;;-26.743242;;-26.799792;;-26.796693;;-26.760872;;-26.745405;;-26.786492;;-26.869457;;-26.955343;;-27.030635;;-27.112878;;-27.216103;;-27.331489;;-27.439736;;-27.521663;;-27.521663
-3.5485442;;-3.5485442;;-3.5485575;;-3.5486738;;-3.5497034;;-3.5626456;;-3.5926574;;-3.6338294;;-3.6840696;;-3.739228;;-3.7923679;;-4.1112042;;-4.0946131;;-4.0855204;;-4.1445584;;-4.2466057;;-4.3844428;;-4.55504;;-4.7486873;;-4.9830215;;-5.2924665;;-5.7062418;;-6.250471;;-6.947281;;-7.8197533;;-8.8791906;;-10.129464;;-11.56679;;-13.161084;;-14.834721;;-16.451569;;-17.908932;;-19.239731;;-20.480726;;-21.584969;;-22.478037;;-23.148292;;-23.658745;;-24.08403;;-24.464705;;-24.806946;;-25.099946;;-25.338882;;-25.541324;;-25.73682;;-25.941492;;-26.150565;;-26.350548;;-26.529515;;-26.676617;;-26.776567;;-26.808033;;-26.759695;;-26.666094;;-26.61418;;-26.673823;;-26.820751;;-26.969107;;-27.072033;;-27.152436;;-27.245747;;-27.353704;;-27.457396;;-27.536667;;-27.536666
-3.5485435;;-3.5485435;;-3.5485445;;-3.5485591;;-3.5487809;;-3.5513104;;-3.5687826;;-3.599952;;-3.6406184;;-3.6869566;;-3.7322171;;-3.760097;;-4.0296434;;-4.0193066;;-4.0828552;;-3.8925708;;-4.0246032;;-4.1949448;;-4.6888961;;-4.9426162;;-5.2716269;;-5.7039531;;-6.2672218;;-6.9859923;;-7.8828977;;-8.9701964;;-10.25668;;-11.738029;;-13.381635;;-15.101142;;-16.733458;;-18.143245;;-19.372945;;-20.487031;;-21.476262;;-22.300984;;-22.95811;;-23.492128;;-23.953714;;-24.371859;;-24.753885;;-25.091515;;-25.374561;;-25.609314;;-25.818365;;-26.021458;;-26.223351;;-26.416916;;-26.589529;;-26.726568;;-26.810247;;-26.815314;;-26.72234;;-26.56901;;-26.473962;;-26.544523;;-26.751966;;-26.965266;;-27.100246;;-27.179359;;-27.256513;;-27.347216;;-27.437535;;-27.509515;;-27.509515
-3.5485435;;-3.5485435;;-3.5485436;;-3.548545;;-3.5486008;;-3.5491851;;-3.5534783;;-3.5720257;;-3.6018926;;-3.6385718;;-3.6756338;;-3.6990594;;-3.6851421;;-3.6832216;;-3.7444175;;-3.8391565;;-3.9677959;;-4.1368727;;-4.6376812;;-4.9042842;;-5.2443501;;-5.6889074;;-6.2677457;;-7.0069054;;-7.925345;;-9.0394943;;-10.360907;;-11.886314;;-13.581169;;-15.350998;;-17.00149;;-18.348966;;-19.453713;;-20.421457;;-21.290058;;-22.055772;;-22.718365;;-23.296333;;-23.811437;;-24.278062;;-24.703045;;-25.081817;;-25.402293;;-25.662666;;-25.880866;;-26.081987;;-26.280318;;-26.472398;;-26.642009;;-26.770795;;-26.843412;;-26.838442;;-26.733243;;-26.55927;;-26.440301;;-26.500088;;-26.717945;;-26.952019;;-27.10104;;-27.178773;;-27.240552;;-27.308754;;-27.378465;;-27.438826;;-27.438826
-3.5485435;;-3.5485435;;-3.5485435;;-3.5485437;;-3.5485544;;-3.5486875;;-3.5495797;;-3.5544164;;-3.571695;;-3.5980267;;-3.6264456;;-3.6446353;;-3.6336599;;-3.6445906;;-3.7047756;;-3.7957797;;-3.9198571;;-4.0842826;;-4.5841907;;-4.85181;;-5.1892946;;-5.6294689;;-6.2045968;;-6.9401196;;-7.8568762;;-8.9735946;;-10.304222;;-11.8483;;-13.574414;;-15.388878;;-17.079781;;-18.389186;;-19.38534;;-20.230336;;-21.005478;;-21.734807;;-22.418651;;-23.053708;;-23.635422;;-24.160484;;-24.630252;;-25.04341;;-25.391178;;-25.670355;;-25.897072;;-26.09933;;-26.29626;;-26.486142;;-26.651926;;-26.776286;;-26.849543;;-26.858165;;-26.782117;;-26.641056;;-26.53404;;-26.569943;;-26.744055;;-26.944322;;-27.081146;;-27.155353;;-27.205961;;-27.25313;;-27.300794;;-27.348085;;-27.348085
-3.5485435;;-3.5485435;;-3.5485435;;-3.5485435;;-3.5485446;;-3.5485628;;-3.5487279;;-3.5496058;;-3.5534443;;-3.5674416;;-3.5870708;;-3.6002237;;-3.5922194;;-3.6123826;;-3.6693733;;-3.7539597;;-3.8695099;;-4.0233763;;-4.2258243;;-4.7671863;;-5.0897725;;-5.5066711;;-6.0540641;;-6.7581841;;-7.6404519;;-8.7221449;;-10.019305;;-11.536395;;-13.250209;;-15.081594;;-16.835228;;-18.1846;;-19.144742;;-19.927995;;-20.647828;;-21.352776;;-22.05617;;-22.747051;;-23.397636;;-23.982553;;-24.49408;;-24.934922;;-25.303921;;-25.60081;;-25.840119;;-26.048326;;-26.244874;;-26.430345;;-26.59257;;-26.72022;;-26.807725;;-26.846599;;-26.822476;;-26.745043;;-26.677986;;-26.697816;;-26.812424;;-26.955436;;-27.064335;;-27.130517;;-27.172845;;-27.205457;;-27.238346;;-27.274949;;-27.274949
-3.5485435;;-3.5485435;;-3.5485435;;-3.5485435;;-3.5485435;;-3.5485446;;-3.5485638;;-3.5486955;;-3.5491963;;-3.5509443;;-3.5590373;;-3.567123;;-3.5622266;;-3.5839416;;-3.6352533;;-3.7109661;;-3.8147276;;-3.9534921;;-4.1368314;;-4.6571233;;-4.9527645;;-5.3328934;;-5.833469;;-6.4820339;;-7.3007405;;-8.3108439;;-9.5313973;;-10.971786;;-12.61989;;-14.419953;;-16.22058;;-17.700937;;-18.732916;;-19.533722;;-20.237682;;-20.921089;;-21.629105;;-22.359768;;-23.068573;;-23.709228;;-24.263886;;-24.736382;;-25.131163;;-25.450925;;-25.708648;;-25.927823;;-26.126706;;-26.308939;;-26.470943;;-26.609409;;-26.720117;;-26.794361;;-26.822498;;-26.81047;;-26.793562;;-26.816329;;-26.889448;;-26.982008;;-27.060028;;-27.114314;;-27.153143;;-27.185556;;-27.21823;;-27.252114;;-27.252114
-3.5485435;;-3.5485435;;-3.5485435;;-3.5485435;;-3.5485435;;-3.5485436;;-3.5485447;;-3.548555;;-3.5485974;;-3.5487025;;-3.5489617;;-3.5496434;;-3.5492175;;-3.561588;;-3.6044547;;-3.6695986;;-3.7598987;;-3.8814712;;-4.0428445;;-4.2550443;;-4.7976918;;-5.1358655;;-5.5807119;;-6.1600061;;-6.8972905;;-7.8130748;;-8.9274741;;-10.254277;;-11.791535;;-13.506964;;-15.297937;;-16.921618;;-18.114036;;-19.001374;;-19.734751;;-20.416804;;-21.127677;;-21.882903;;-22.635239;;-23.32989;;-23.940739;;-24.463508;;-24.898259;;-25.247943;;-25.527056;;-25.76004;;-25.965527;;-26.149564;;-26.315649;;-26.46805;;-26.603385;;-26.711037;;-26.784124;;-26.827744;;-26.858721;;-26.895855;;-26.945791;;-26.999918;;-27.048528;;-27.092933;;-27.139927;;-27.190021;;-27.236964;;-27.274747;;-27.274746
-3.5485435;;-3.5485435;;-3.5485435;;-3.5485435;;-3.5485435;;-3.5485435;;-3.5485435;;-3.5485436;;-3.548544;;-3.5485448;;-3.5485463;;-3.5485485;;-3.548548;;-3.5497697;;-3.5794481;;-3.6326682;;-3.7092234;;-3.8136406;;-3.9531032;;-4.1372193;;-4.6447222;;-4.9414441;;-5.3295619;;-5.8369421;;-6.4880225;;-7.3026066;;-8.3006454;;-9.4979509;;-10.900487;;-12.494648;;-14.217851;;-15.906993;;-17.276808;;-18.290939;;-19.101542;;-19.826394;;-20.561188;;-21.337116;;-22.122519;;-22.872303;;-23.55454;;-24.146304;;-24.632885;;-25.015796;;-25.316143;;-25.564661;;-25.782572;;-25.976795;;-26.153506;;-26.32115;;-26.47886;;-26.616765;;-26.729356;;-26.818401;;-26.885734;;-26.932483;;-26.962296;;-26.98272;;-27.005784;;-27.04698;;-27.113551;;-27.191987;;-27.258636;;-27.30049;;-27.300489
-3.5485435;;-3.5485435;;-3.5485435;;-3.5485435;;-3.5485435;;-3.5485435;;-3.5485435;;-3.5485435;;-3.5485435;;-3.5485435;;-3.5485435;;-3.5485436;;-3.5485436;;-3.5485706;;-3.5597047;;-3.6017646;;-3.6659432;;-3.754978;;-3.8748194;;-4.0337641;;-4.5106672;;-4.7705855;;-5.107819;;-5.5495792;;-6.1204042;;-6.8406668;;-7.7289718;;-8.80165;;-10.070259;;-11.534491;;-13.159604;;-14.838324;;-16.341491;;-17.494629;;-18.407501;;-19.203437;;-19.975483;;-20.769559;;-21.583587;;-22.39079;;-23.150154;;-23.813986;;-24.351315;;-24.765174;;-25.086818;;-25.354369;;-25.591627;;-25.805742;;-26.002059;;-26.189031;;-26.368651;;-26.535496;;-26.683653;;-26.805988;;-26.891566;;-26.934204;;-26.941734;;-26.93358;;-26.93713;;-26.979295;;-27.066622;;-27.172034;;-27.255057;;-27.298628;;-27.298627
-3.5485435;;-3.5485435;;-3.5485435;;-3.5485435;;-3.5485435;;-3.5485435;;-3.5485435;;-3.5485435;;-3.5485435;;-3.5485435;;-3.5485435;;-3.5485435;;-3.5485435;;-3.5485449;;-3.5496683;;-3.5788267;;-3.6317326;;-3.7079216;;-3.8117957;;-3.9504082;;-4.4036761;;-4.6350609;;-4.932753;;-5.3225329;;-5.8273008;;-6.470271;;-7.268919;;-8.2393211;;-9.3970642;;-10.750843;;-12.28393;;-13.925498;;-15.506978;;-16.788545;;-17.786748;;-18.632049;;-19.422671;;-20.227109;;-21.073478;;-21.943928;;-22.778557;;-23.505038;;-24.083454;;-24.524083;;-24.86773;;-25.156047;;-25.41407;;-25.650925;;-25.871294;;-26.081046;;-26.283873;;-26.478384;;-26.655907;;-26.797688;;-26.884808;;-26.915975;;-26.907799;;-26.885132;;-26.879091;;-26.922005;;-27.02136;;-27.141343;;-27.23023;;-27.270429;;-27.270429
-3.5485435;;-3.5485435;;-3.5485435;;-3.5485435;;-3.5485435;;-3.5485435;;-3.5485435;;-3.5485435;;-3.5485435;;-3.5485435;;-3.5485435;;-3.5485435;;-3.5485435;;-3.5485438;;-3.5486102;;-3.5626296;;-3.6067235;;-3.6733295;;-3.7654613;;-3.8892964;;-4.0533649;;-4.5366039;;-4.8099472;;-5.164831;;-5.6217234;;-6.2077964;;-6.9414071;;-7.8377916;;-8.9154781;;-10.189061;;-11.653353;;-13.260059;;-14.879783;;-16.262086;;-17.306999;;-18.156828;;-18.940886;;-19.756062;;-20.646454;;-21.585902;;-22.48979;;-23.267535;;-23.878398;;-24.341953;;-24.704285;;-25.006232;;-25.274543;;-25.523972;;-25.761201;;-25.989403;;-26.211576;;-26.427529;;-26.623659;;-26.772809;;-26.855679;;-26.880907;;-26.87439;;-26.859424;;-26.85984;;-26.903654;;-26.995918;;-27.098028;;-27.158582;;-27.173522;;-27.173522
-3.5485435;;-3.5485435;;-3.5485435;;-3.5485435;;-3.5485435;;-3.5485435;;-3.5485435;;-3.5485435;;-3.5485435;;-3.5485435;;-3.5485435;;-3.5485435;;-3.5485435;;-3.5485436;;-3.5485539;;-3.5530894;;-3.5902302;;-3.6497368;;-3.7336579;;-3.8474487;;-3.9989432;;-4.4691993;;-4.7289584;;-5.0639886;;-5.4895742;;-6.0354657;;-6.7229475;;-7.5671045;;-8.5888921;;-9.8065978;;-11.221952;;-12.799802;;-14.43409;;-15.889425;;-16.962777;;-17.801302;;-18.581925;;-19.421874;;-20.362971;;-21.363076;;-22.319828;;-23.134332;;-23.768294;;-24.246707;;-24.616298;;-24.916445;;-25.177633;;-25.422367;;-25.660943;;-25.89484;;-26.125141;;-26.349749;;-26.55128;;-26.700445;;-26.782688;;-26.814422;;-26.826003;;-26.836963;;-26.857111;;-26.894246;;-26.933396;;-26.935731;;-26.878074;;-26.808928;;-26.808928
-3.5485435;;-3.5485435;;-3.5485435;;-3.5485435;;-3.5485435;;-3.5485435;;-3.5485435;;-3.5485435;;-3.5485435;;-3.5485435;;-3.5485435;;-3.5485435;;-3.5485435;;-3.5485435;;-3.5485455;;-3.549614;;-3.5793311;;-3.6333756;;-3.711515;;-3.818383;;-3.9612835;;-4.1499515;;-4.3967302;;-4.7168771;;-5.399697;;-5.9215584;;-6.5753165;;-7.3814546;;-8.3644195;;-9.5445942;;-10.927466;;-12.486156;;-14.130973;;-15.649986;;-16.769555;;-17.618114;;-18.416039;;-19.286959;;-20.263068;;-21.293516;;-22.272481;;-23.101002;;-23.741557;;-24.219138;;-24.579489;;-24.862804;;-25.104085;;-25.331318;;-25.557558;;-25.783937;;-26.009687;;-26.229772;;-26.425761;;-26.5724;;-26.659878;;-26.705387;;-26.736933;;-26.770991;;-26.80346;;-26.801606;;-26.703093;;-26.466143;;-26.139628;;-25.889765;;-25.889765
-3.5485435;;-3.5485435;;-3.5485435;;-3.5485435;;-3.5485435;;-3.5485435;;-3.5485435;;-3.5485435;;-3.5485435;;-3.5485435;;-3.5485435;;-3.5485435;;-3.5485435;;-3.5485435;;-3.5485438;;-3.5488248;;-3.5720115;;-3.6223191;;-3.6966177;;-3.7989489;;-3.9363066;;-4.1181351;;-4.3564591;;-4.6661917;;-5.0654635;;-5.8496169;;-6.4827438;;-7.2641396;;-8.2244743;;-9.3849977;;-10.752993;;-12.307592;;-13.971868;;-15.557067;;-16.754526;;-17.642939;;-18.467298;;-19.351658;;-20.32565;;-21.344146;;-22.310058;;-23.127377;;-23.755473;;-24.21599;;-24.554816;;-24.81463;;-25.032781;;-25.238811;;-25.446946;;-25.65903;;-25.872578;;-26.080066;;-26.265385;;-26.409789;;-26.505929;;-26.562512;;-26.597552;;-26.627977;;-26.64327;;-26.561999;;-26.248558;;-25.654198;;-24.940787;;-24.441704;;-24.441703
-3.5485435;;-3.5485435;;-3.5485435;;-3.5485435;;-3.5485435;;-3.5485435;;-3.5485435;;-3.5485435;;-3.5485435;;-3.5485435;;-3.5485435;;-3.5485435;;-3.5485435;;-3.5485435;;-3.5485436;;-3.5486437;;-3.5671208;;-3.6149391;;-3.6866527;;-3.7859579;;-3.9196774;;-4.0970847;;-4.3300168;;-4.8887524;;-5.0245529;;-5.5255363;;-6.4228093;;-7.189771;;-8.1379235;;-9.289744;;-10.653603;;-12.213553;;-13.903347;;-15.554788;;-16.852909;;-17.804011;;-18.654132;;-19.528132;;-20.464625;;-21.437391;;-22.366081;;-23.1577;;-23.76463;;-24.203144;;-24.519944;;-24.759343;;-24.957785;;-25.144345;;-25.335142;;-25.532557;;-25.731598;;-25.923866;;-26.097903;;-26.24161;;-26.346282;;-26.405904;;-26.423068;;-26.419687;;-26.395344;;-26.235892;;-25.732376;;-24.821752;;-23.769292;;-23.052944;;-23.052944
-3.5485435;;-3.5485435;;-3.5485435;;-3.5485435;;-3.5485435;;-3.5485435;;-3.5485435;;-3.5485435;;-3.5485435;;-3.5485435;;-3.5485435;;-3.5485435;;-3.5485435;;-3.5485435;;-3.5485435;;-3.5485808;;-3.5627442;;-3.6081494;;-3.6772035;;-3.7733017;;-3.9030785;;-4.0756012;;-4.5578932;;-4.8555298;;-5.2387658;;-5.4704206;;-6.3529424;;-7.1048041;;-8.0397041;;-9.1794447;;-10.534196;;-12.093109;;-13.800427;;-15.508615;;-16.916742;;-17.947699;;-18.828189;;-19.684321;;-20.569728;;-21.485894;;-22.37451;;-23.145135;;-23.739646;;-24.166567;;-24.472085;;-24.699942;;-24.884175;;-25.054288;;-25.229542;;-25.412802;;-25.596341;;-25.773082;;-25.937395;;-26.082231;;-26.194268;;-26.252646;;-26.247261;;-26.206013;;-26.153161;;-25.980651;;-25.447834;;-24.468102;;-23.330324;;-22.55364;;-22.553639
-3.5485435;;-3.5485435;;-3.5485435;;-3.5485435;;-3.5485435;;-3.5485435;;-3.5485435;;-3.5485435;;-3.5485435;;-3.5485435;;-3.5485435;;-3.5485435;;-3.5485435;;-3.5485435;;-3.5485435;;-3.5485536;;-3.5575518;;-3.5996338;;-3.6649304;;-3.756451;;-3.8805083;;-4.0458176;;-4.5195136;;-4.8061572;;-5.1744461;;-5.644654;;-6.23704;;-6.972966;;-7.8873356;;-9.0027119;;-10.333417;;-11.874593;;-13.581441;;-15.327916;;-16.839599;;-17.953549;;-18.864831;;-19.706393;;-20.549437;;-21.424014;;-22.292467;;-23.064367;;-23.668723;;-24.103764;;-24.412983;;-24.638939;;-24.814215;;-24.969633;;-25.126351;;-25.287205;;-25.447076;;-25.605826;;-25.765676;;-25.918734;;-26.043069;;-26.108894;;-26.101473;;-26.053575;;-26.011337;;-25.906563;;-25.53359;;-24.791393;;-23.900827;;-23.290228;;-23.290227
-3.5485435;;-3.5485435;;-3.5485435;;-3.5485435;;-3.5485435;;-3.5485435;;-3.5485435;;-3.5485435;;-3.5485435;;-3.5485435;;-3.5485435;;-3.5485435;;-3.5485435;;-3.5485435;;-3.5485435;;-3.5485454;;-3.5524039;;-3.5895479;;-3.6498113;;-3.7354202;;-3.8521038;;-4.0080528;;-4.2139609;;-4.4833045;;-5.0890497;;-5.5296057;;-6.0931639;;-6.8034229;;-7.6852259;;-8.7631286;;-10.054881;;-11.561128;;-13.24788;;-15.010449;;-16.607621;;-17.792242;;-18.717557;;-19.542549;;-20.361581;;-21.225553;;-22.106418;;-22.908658;;-23.547771;;-24.010476;;-24.336008;;-24.567671;;-24.739172;;-24.879207;;-25.003893;;-25.115398;;-25.22333;;-25.353162;;-25.521027;;-25.706642;;-25.866181;;-25.963492;;-25.989831;;-25.980157;;-25.985658;;-25.980634;;-25.831658;;-25.448245;;-24.94435;;-24.58619;;-24.58619
-3.5485435;;-3.5485435;;-3.5485435;;-3.5485435;;-3.5485435;;-3.5485435;;-3.5485435;;-3.5485435;;-3.5485435;;-3.5485435;;-3.5485435;;-3.5485435;;-3.5485435;;-3.5485435;;-3.5485435;;-3.5485438;;-3.5494282;;-3.5786706;;-3.6328618;;-3.7116364;;-3.8197657;;-3.9647799;;-4.1567233;;-4.4083505;;-4.9909549;;-5.4019668;;-5.9322876;;-6.6044745;;-7.4424825;;-8.4712063;;-9.709935;;-11.164324;;-12.810947;;-14.566599;;-16.227963;;-17.482127;;-18.407463;;-19.212626;;-20.024642;;-20.906568;;-21.828292;;-22.684115;;-23.376426;;-23.880124;;-24.230127;;-24.473131;;-24.645061;;-24.765985;;-24.835983;;-24.855323;;-24.864852;;-24.944336;;-25.13637;;-25.394679;;-25.631659;;-25.794708;;-25.886669;;-25.945416;;-26.012072;;-26.082761;;-26.090749;;-25.978989;;-25.78805;;-25.64253;;-25.64253
-3.5485435;;-3.5485435;;-3.5485435;;-3.5485435;;-3.5485435;;-3.5485435;;-3.5485435;;-3.5485435;;-3.5485435;;-3.5485435;;-3.5485435;;-3.5485435;;-3.5485435;;-3.5485435;;-3.5485435;;-3.5485436;;-3.5486474;;-3.5670793;;-3.614593;;-3.6857659;;-3.7842637;;-3.9168928;;-4.092932;;-4.5831856;;-4.8792756;;-5.2584385;;-5.7490412;;-6.3747802;;-7.1587298;;-8.125717;;-9.2961943;;-10.680125;;-12.264798;;-13.98874;;-15.689567;;-17.041655;;-17.991436;;-18.793706;;-19.614107;;-20.52581;;-21.4964;;-22.412758;;-23.165916;;-23.717926;;-24.098056;;-24.356321;;-24.528923;;-24.623726;;-24.622148;;-24.522362;;-24.405068;;-24.417447;;-24.638392;;-24.99342;;-25.339897;;-25.596496;;-25.769572;;-25.900069;;-26.018417;;-26.124786;;-26.191586;;-26.197312;;-26.159188;;-26.124856;;-26.124855
-3.5485435;;-3.5485435;;-3.5485435;;-3.5485435;;-3.5485435;;-3.5485435;;-3.5485435;;-3.5485435;;-3.5485435;;-3.5485435;;-3.5485435;;-3.5485435;;-3.5485435;;-3.5485435;;-3.5485435;;-3.5485435;;-3.5485511;;-3.5559644;;-3.5962228;;-3.6590867;;-3.7472274;;-3.8666297;;-4.0256704;;-4.4938252;;-4.7617181;;-5.1066079;;-5.5543712;;-6.1277191;;-6.8498369;;-7.7454299;;-8.8365348;;-10.136763;;-11.6427;;-13.31388;;-15.029121;;-16.514324;;-17.561433;;-18.404497;;-19.246273;;-20.176675;;-21.174983;;-22.134192;;-22.939633;;-23.539574;;-23.953849;;-24.230461;;-24.402357;;-24.468558;;-24.404544;;-24.215031;;-24.007127;;-23.966865;;-24.199495;;-24.621381;;-25.058264;;-25.40167;;-25.646404;;-25.830136;;-25.979925;;-26.096688;;-26.169099;;-26.197685;;-26.201254;;-26.201624;;-26.201624
-3.5485435;;-3.5485435;;-3.5485435;;-3.5485435;;-3.5485435;;-3.5485435;;-3.5485435;;-3.5485435;;-3.5485435;;-3.5485435;;-3.5485435;;-3.5485435;;-3.5485435;;-3.5485435;;-3.5485435;;-3.5485435;;-3.5485445;;-3.5497896;;-3.57995;;-3.6340834;;-3.7121793;;-3.8189533;;-3.9617969;;-4.4101359;;-4.6516941;;-4.9631355;;-5.3691515;;-5.8911316;;-6.5535083;;-7.3798449;;-8.3937257;;-9.6125254;;-11.040997;;-12.656696;;-14.376612;;-16.001803;;-17.233112;;-18.164465;;-19.031161;;-19.952601;;-20.935812;;-21.892984;;-22.711785;;-23.334104;;-23.776313;;-24.081272;;-24.268607;;-24.329325;;-24.249659;;-24.054369;;-23.850965;;-23.808007;;-24.02571;;-24.440292;;-24.894769;;-25.273796;;-25.55177;;-25.755774;;-25.914485;;-26.03292;;-26.104249;;-26.13459;;-26.144169;;-26.150774;;-26.150774
-3.5485435;;-3.5485435;;-3.5485435;;-3.5485435;;-3.5485435;;-3.5485435;;-3.5485435;;-3.5485435;;-3.5485435;;-3.5485435;;-3.5485435;;-3.5485435;;-3.5485435;;-3.5485435;;-3.5485435;;-3.5485435;;-3.548544;;-3.5487039;;-3.5667518;;-3.6134088;;-3.6831461;;-3.7794714;;-3.9090178;;-4.0808688;;-4.560875;;-4.8461825;;-5.2186993;;-5.6993868;;-6.3139385;;-7.0862936;;-8.0409405;;-9.1986552;;-10.57144;;-12.150688;;-13.882188;;-15.622926;;-17.078663;;-18.126908;;-19.012845;;-19.901102;;-20.827287;;-21.7171;;-22.464461;;-23.032978;;-23.474098;;-23.836889;;-24.101769;;-24.224305;;-24.201275;;-24.086572;;-23.97573;;-23.981543;;-24.173353;;-24.519957;;-24.916476;;-25.264289;;-25.523331;;-25.709754;;-25.855272;;-25.970914;;-26.049082;;-26.088621;;-26.103557;;-26.111444;;-26.111444
-3.5485435;;-3.5485435;;-3.5485435;;-3.5485435;;-3.5485435;;-3.5485435;;-3.5485435;;-3.5485435;;-3.5485435;;-3.5485435;;-3.5485435;;-3.5485435;;-3.5485435;;-3.5485435;;-3.5485435;;-3.5485435;;-3.5485438;;-3.5485874;;-3.5576184;;-3.5986577;;-3.6621549;;-3.7509169;;-3.8710718;;-4.0311834;;-4.4964424;;-4.7642359;;-5.1144995;;-5.5682027;;-6.1510777;;-6.8896071;;-7.808458;;-8.9311144;;-10.274873;;-11.839974;;-13.589882;;-15.415112;;-17.063868;;-18.239751;;-19.145827;;-20.002847;;-20.853947;;-21.610501;;-22.171802;;-22.571906;;-22.966761;;-23.433468;;-23.873246;;-24.150903;;-24.248626;;-24.25143;;-24.254603;;-24.325843;;-24.502507;;-24.776143;;-25.089107;;-25.367805;;-25.57277;;-25.716092;;-25.832283;;-25.937864;;-26.024292;;-26.078032;;-26.102658;;-26.112683;;-26.112683
-3.5485435;;-3.5485435;;-3.5485435;;-3.5485435;;-3.5485435;;-3.5485435;;-3.5485435;;-3.5485435;;-3.5485435;;-3.5485435;;-3.5485435;;-3.5485435;;-3.5485435;;-3.5485435;;-3.5485435;;-3.5485435;;-3.5485436;;-3.5485584;;-3.5525033;;-3.5886869;;-3.6474727;;-3.7308897;;-3.8445835;;-3.9967396;;-4.451273;;-4.7074591;;-5.0435035;;-5.4798989;;-6.0422369;;-6.7589633;;-7.6552512;;-8.7563139;;-10.082581;;-11.639674;;-13.402164;;-15.282705;;-17.067111;;-18.379597;;-19.329539;;-20.185219;;-20.975535;;-21.572253;;-21.878391;;-22.037358;;-22.357454;;-22.953003;;-23.621809;;-24.102187;;-24.336288;;-24.438144;;-24.523633;;-24.647043;;-24.826284;;-25.057384;;-25.305932;;-25.520138;;-25.670928;;-25.771552;;-25.857025;;-25.947665;;-26.035716;;-26.100227;;-26.134684;;-26.147895;;-26.147894
-3.5485435;;-3.5485435;;-3.5485435;;-3.5485435;;-3.5485435;;-3.5485435;;-3.5485435;;-3.5485435;;-3.5485435;;-3.5485435;;-3.5485435;;-3.5485435;;-3.5485435;;-3.5485435;;-3.5485436;;-3.5485438;;-3.5485444;;-3.5485495;;-3.549991;;-3.5805949;;-3.6350618;;-3.7137295;;-3.8216315;;-4.2172865;;-4.4079765;;-4.6551753;;-4.9787231;;-5.3987013;;-5.9408665;;-6.6346824;;-7.5060666;;-8.5807724;;-9.8810959;;-11.41671;;-13.170972;;-15.074347;;-16.945224;;-18.406916;;-19.441311;;-20.339222;;-21.116378;;-21.608179;;-21.722661;;-21.696905;;-21.957066;;-22.640297;;-23.466182;;-24.081639;;-24.394993;;-24.542978;;-24.671604;;-24.836442;;-25.037445;;-25.259013;;-25.474581;;-25.651756;;-25.773064;;-25.851475;;-25.918713;;-25.996845;;-26.080808;;-26.148707;;-26.188334;;-26.202978;;-26.202978
-3.5485435;;-3.5485435;;-3.5485435;;-3.5485435;;-3.5485435;;-3.5485435;;-3.5485435;;-3.5485435;;-3.5485435;;-3.5485435;;-3.5485435;;-3.5485435;;-3.5485436;;-3.5485442;;-3.5485498;;-3.5485715;;-3.5486233;;-3.5487044;;-3.549194;;-3.5724618;;-3.6221205;;-3.6953809;;-3.7964921;;-4.1824262;;-4.3608432;;-4.5951283;;-4.9016565;;-5.2998099;;-5.8144341;;-6.475246;;-7.3089294;;-8.3408328;;-9.593938;;-11.081306;;-12.794187;;-14.678849;;-16.585419;;-18.184239;;-19.330833;;-20.313466;;-21.159852;;-21.689452;;-21.808088;;-21.771854;;-22.020479;;-22.690514;;-23.499345;;-24.091534;;-24.375065;;-24.504434;;-24.653002;;-24.872707;;-25.125838;;-25.367456;;-25.577258;;-25.744705;;-25.862162;;-25.938893;;-26.001389;;-26.071456;;-26.147698;;-26.210983;;-26.247707;;-26.259877;;-26.259876
-3.5485435;;-3.5485435;;-3.5485435;;-3.5485435;;-3.5485435;;-3.5485435;;-3.5485435;;-3.5485435;;-3.5485435;;-3.5485435;;-3.5485435;;-3.5485435;;-3.548544;;-3.5485532;;-3.5486183;;-3.5488616;;-3.549424;;-3.5503548;;-3.5521194;;-3.5654676;;-3.609067;;-3.675608;;-3.7683641;;-4.1428731;;-4.3078657;;-4.5248442;;-4.8090291;;-5.1788091;;-5.6572772;;-6.2732929;;-7.0544755;;-8.0249004;;-9.20736;;-10.616834;;-12.250914;;-14.068957;;-15.950963;;-17.626939;;-18.866932;;-19.955733;;-20.970971;;-21.718449;;-22.05758;;-22.178818;;-22.456586;;-23.027233;;-23.680318;;-24.129541;;-24.303525;;-24.369691;;-24.526385;;-24.817412;;-25.149751;;-25.434048;;-25.655369;;-25.827666;;-25.952639;;-26.035208;;-26.096953;;-26.157986;;-26.219996;;-26.268966;;-26.295075;;-26.302211;;-26.302211
-3.5485435;;-3.5485435;;-3.5485435;;-3.5485435;;-3.5485435;;-3.5485435;;-3.5485435;;-3.5485435;;-3.5485435;;-3.5485435;;-3.5485435;;-3.5485436;;-3.5485475;;-3.548607;;-3.5489835;;-3.5503164;;-3.5534827;;-3.5603598;;-3.5708583;;-3.5789308;;-3.6037246;;-3.6591563;;-3.9842781;;-4.0997419;;-4.251008;;-4.4495081;;-4.7094436;;-5.0473238;;-5.4849447;;-6.0500447;;-6.7703907;;-7.6686253;;-8.7664811;;-10.079823;;-11.610385;;-13.327018;;-15.134745;;-16.814585;;-18.095265;;-19.279432;;-20.527112;;-21.613601;;-22.294612;;-22.635047;;-22.942265;;-23.39283;;-23.886499;;-24.214416;;-24.307259;;-24.323036;;-24.478514;;-24.817825;;-25.207779;;-25.52359;;-25.75179;;-25.925143;;-26.054506;;-26.141501;;-26.200354;;-26.246978;;-26.286156;;-26.313116;;-26.326255;;-26.329603;;-26.329603
-3.5485435;;-3.5485435;;-3.5485435;;-3.5485435;;-3.5485435;;-3.5485435;;-3.5485435;;-3.5485435;;-3.5485435;;-3.5485435;;-3.5485438;;-3.5485461;;-3.5485731;;-3.5488312;;-3.5502452;;-3.5550594;;-3.5664523;;-3.5844583;;-3.6028279;;-3.6139221;;-3.6241633;;-3.8951408;;-3.9648628;;-4.0652498;;-4.2010391;;-4.3808296;;-4.6173122;;-4.924935;;-5.3240108;;-5.8408967;;-6.5035517;;-7.3335307;;-8.3509872;;-9.5724282;;-11.002608;;-12.618309;;-14.345115;;-16.006072;;-17.312716;;-18.570825;;-20.03016;;-21.438777;;-22.440806;;-22.960451;;-23.269592;;-23.629236;;-24.054351;;-24.381941;;-24.507652;;-24.540754;;-24.688477;;-25.008486;;-25.377069;;-25.67063;;-25.876407;;-26.032943;;-26.156562;;-26.245463;;-26.301929;;-26.333499;;-26.348148;;-26.35375;;-26.358518;;-26.362174;;-26.362174
-3.5485435;;-3.5485435;;-3.5485435;;-3.5485435;;-3.5485435;;-3.5485435;;-3.5485435;;-3.5485435;;-3.5485435;;-3.5485436;;-3.5485463;;-3.5485713;;-3.5487256;;-3.5496194;;-3.553808;;-3.567115;;-3.5900142;;-3.6180924;;-3.6443286;;-3.8939403;;-3.9034467;;-3.9296362;;-3.9779739;;-4.0543135;;-4.169215;;-4.329273;;-4.5443745;;-4.8267645;;-5.1949452;;-5.6736652;;-6.2903361;;-7.0678177;;-8.024665;;-9.1783113;;-10.536421;;-12.085351;;-13.77146;;-15.457615;;-16.867927;;-18.196577;;-19.770519;;-21.3562;;-22.5517;;-23.181412;;-23.485867;;-23.799817;;-24.229553;;-24.638732;;-24.878548;;-24.986704;;-25.125442;;-25.366597;;-25.638948;;-25.857026;;-26.011632;;-26.135873;;-26.246407;;-26.336343;;-26.394285;;-26.418108;;-26.417243;;-26.409197;;-26.408102;;-26.411164;;-26.411164
-3.5485435;;-3.5485435;;-3.5485435;;-3.5485435;;-3.5485435;;-3.5485435;;-3.5485435;;-3.5485435;;-3.5485435;;-3.5485437;;-3.5485584;;-3.5486909;;-3.5493468;;-3.5521198;;-3.5637506;;-3.5882796;;-3.621305;;-3.6586821;;-3.9285083;;-3.9490991;;-3.9593759;;-3.9828777;;-4.0266637;;-4.0853012;;-4.1641227;;-4.2974558;;-4.4907778;;-4.7516983;;-5.0957881;;-5.5457806;;-6.1279741;;-6.8678578;;-7.783598;;-8.8935008;;-10.209111;;-11.72757;;-13.41763;;-15.182327;;-16.802215;;-18.227746;;-19.807303;;-21.403934;;-22.659412;;-23.372142;;-23.722877;;-24.04275;;-24.482245;;-24.943316;;-25.269663;;-25.445993;;-25.575188;;-25.728816;;-25.892765;;-26.028891;;-26.133376;;-26.229465;;-26.32995;;-26.421994;;-26.483309;;-26.504808;;-26.495434;;-26.474497;;-26.457735;;-26.449778;;-26.449778
-3.5485435;;-3.5485435;;-3.5485435;;-3.5485435;;-3.5485435;;-3.5485435;;-3.5485435;;-3.5485435;;-3.5485435;;-3.5485439;;-3.5485932;;-3.5490399;;-3.5511125;;-3.5594047;;-3.5819443;;-3.6155112;;-3.6571486;;-3.9376037;;-3.9808609;;-4.005332;;-4.0167976;;-4.0391638;;-4.0784564;;-4.1273138;;-4.1813775;;-4.2724655;;-4.4406144;;-4.6798675;;-5.0006392;;-5.4230508;;-5.9720259;;-6.6737013;;-7.548819;;-8.6152106;;-9.8890863;;-11.378066;;-13.070952;;-14.907767;;-16.731335;;-18.315523;;-19.851468;;-21.375618;;-22.642238;;-23.47219;;-23.958896;;-24.349532;;-24.786586;;-25.224547;;-25.553216;;-25.747144;;-25.864077;;-25.962237;;-26.059867;;-26.150548;;-26.234638;;-26.325719;;-26.428367;;-26.523012;;-26.581994;;-26.593019;;-26.563961;;-26.513656;;-26.46222;;-26.431143;;-26.431143
-3.5485435;;-3.5485435;;-3.5485435;;-3.5485435;;-3.5485435;;-3.5485435;;-3.5485435;;-3.5485435;;-3.5485436;;-3.5485451;;-3.5486673;;-3.5497759;;-3.5553043;;-3.5736333;;-3.604567;;-3.6450737;;-3.9275383;;-3.9804165;;-4.0273243;;-4.0543031;;-4.0666823;;-4.0852568;;-4.1143012;;-4.1477298;;-4.184443;;-4.2403426;;-4.3779499;;-4.5906745;;-4.8823172;;-5.2690299;;-5.7732609;;-6.4200594;;-7.2329173;;-8.2287026;;-9.426717;;-10.84349;;-12.48325;;-14.313952;;-16.224593;;-17.976781;;-19.506264;;-20.969537;;-22.264425;;-23.255405;;-23.959779;;-24.507709;;-24.990712;;-25.40178;;-25.698972;;-25.881489;;-25.989877;;-26.070531;;-26.150783;;-26.237593;;-26.332862;;-26.440999;;-26.554879;;-26.647697;;-26.690307;;-26.671009;;-26.600915;;-26.504;;-26.411837;;-26.358582;;-26.358582
-3.5485435;;-3.5485435;;-3.5485435;;-3.5485435;;-3.5485435;;-3.5485435;;-3.5485435;;-3.5485435;;-3.548544;;-3.548555;;-3.5488343;;-3.5513616;;-3.5651812;;-3.5932038;;-3.6312419;;-3.6772288;;-3.9639455;;-4.0156477;;-4.0572328;;-4.0805466;;-4.0922381;;-4.1050114;;-4.1213757;;-4.1387191;;-4.1612553;;-4.2004515;;-4.3012123;;-4.4822681;;-4.7377394;;-5.0789478;;-5.524623;;-6.0972664;;-6.8207908;;-7.7118514;;-8.7893071;;-10.07491;;-11.583197;;-13.302087;;-15.160397;;-16.982184;;-18.559498;;-19.999049;;-21.32874;;-22.480988;;-23.445536;;-24.254411;;-24.91554;;-25.408584;;-25.734102;;-25.929339;;-26.047323;;-26.136181;;-26.224817;;-26.323844;;-26.436121;;-26.561227;;-26.683622;;-26.769847;;-26.787177;;-26.727366;;-26.612791;;-26.481413;;-26.374187;;-26.319898;;-26.319898
-3.5485435;;-3.5485435;;-3.5485435;;-3.5485435;;-3.5485435;;-3.5485435;;-3.5485435;;-3.5485436;;-3.5485475;;-3.5486103;;-3.5493494;;-3.557101;;-3.5820298;;-3.6182638;;-3.6633406;;-3.9487853;;-4.0019633;;-4.0446847;;-4.0708397;;-4.084588;;-4.0919133;;-4.0983083;;-4.1043544;;-4.110214;;-4.1233623;;-4.1559064;;-4.2244019;;-4.3694828;;-4.5841372;;-4.8751714;;-5.2565859;;-5.7471714;;-6.3683676;;-7.1367479;;-8.0684182;;-9.1868145;;-10.511833;;-12.044483;;-13.743002;;-15.489331;;-17.086505;;-18.519124;;-19.86924;;-21.153079;;-22.385145;;-23.538198;;-24.519211;;-25.240857;;-25.698417;;-25.96078;;-26.113572;;-26.220096;;-26.312625;;-26.403748;;-26.503912;;-26.6218;;-26.746085;;-26.83644;;-26.847285;;-26.769867;;-26.642384;;-26.518774;;-26.438352;;-26.407919;;-26.407919
-3.5485435;;-3.5485435;;-3.5485435;;-3.5485435;;-3.5485435;;-3.5485435;;-3.5485436;;-3.5485442;;-3.5485642;;-3.5488073;;-3.5515255;;-3.5707369;;-3.6041103;;-3.6478561;;-3.699623;;-3.9916401;;-4.0435385;;-4.0702871;;-4.075872;;-4.0760554;;-4.0767721;;-4.0781449;;-4.0781741;;-4.0780271;;-4.0865055;;-4.1155996;;-4.1676808;;-4.2679742;;-4.4392548;;-4.6797933;;-4.998167;;-5.4087395;;-5.9289271;;-6.5740909;;-7.3576825;;-8.3026236;;-9.431184;;-10.752594;;-12.245467;;-13.834162;;-15.378098;;-16.806272;;-18.187247;;-19.602186;;-21.095592;;-22.606739;;-23.960252;;-24.986751;;-25.643309;;-26.013548;;-26.215345;;-26.330595;;-26.398048;;-26.438633;;-26.483226;;-26.567376;;-26.696553;;-26.821383;;-26.871459;;-26.825818;;-26.731407;;-26.65268;;-26.620229;;-26.620057;;-26.620057
-3.5485435;;-3.5485435;;-3.5485435;;-3.5485435;;-3.5485436;;-3.5485445;;-3.5485524;;-3.5485857;;-3.5487226;;-3.5495616;;-3.559428;;-3.5879803;;-3.6284236;;-3.6788917;;-3.9718145;;-4.0339148;;-4.0836382;;-4.0931329;;-4.0795134;;-4.0666466;;-4.0613254;;-4.0606502;;-4.0598219;;-4.0588051;;-4.0652049;;-4.0896472;;-4.1334847;;-4.1955081;;-4.3179598;;-4.5084092;;-4.7676741;;-5.1048416;;-5.5323812;;-6.0635872;;-6.7109032;;-7.4950128;;-8.4397419;;-9.5600057;;-10.850242;;-12.268595;;-13.735076;;-15.198886;;-16.700749;;-18.311938;;-20.06242;;-21.861878;;-23.508116;;-24.791506;;-25.631188;;-26.10474;;-26.343703;;-26.444592;;-26.458787;;-26.42595;;-26.403134;;-26.4536;;-26.597798;;-26.777357;;-26.896632;;-26.91536;;-26.876016;;-26.844737;;-26.846079;;-26.862125;;-26.862125
-3.5485435;;-3.5485435;;-3.5485435;;-3.5485438;;-3.5485454;;-3.5485602;;-3.5486508;;-3.548994;;-3.550134;;-3.5539971;;-3.5706283;;-3.6038224;;-3.6486555;;-3.7034773;;-4.0012102;;-4.0646341;;-4.1093794;;-4.1077665;;-4.0853102;;-4.0659092;;-4.0582797;;-4.0590991;;-4.0621606;;-4.0648317;;-4.070719;;-4.0879071;;-4.121181;;-4.1685662;;-4.2363307;;-4.3755975;;-4.5819887;;-4.8569654;;-5.2075766;;-5.6435114;;-6.1786843;;-6.831751;;-7.6284318;;-8.5897514;;-9.7239794;;-11.02101;;-12.457719;;-14.035624;;-15.774672;;-17.658417;;-19.631843;;-21.589478;;-23.362899;;-24.763346;;-25.697004;;-26.220931;;-26.462666;;-26.532541;;-26.503064;;-26.433925;;-26.391143;;-26.438454;;-26.595222;;-26.802521;;-26.962057;;-27.023909;;-27.020307;;-27.011368;;-27.021044;;-27.038006;;-27.038006
-3.5485435;;-3.5485435;;-3.5485444;;-3.5485537;;-3.5486027;;-3.5487918;;-3.5494798;;-3.5528473;;-3.5640816;;-3.5752773;;-3.5879376;;-3.6161711;;-3.6589571;;-3.7124505;;-4.0086938;;-4.0681094;;-4.1064509;;-4.1081198;;-4.0916553;;-4.0769336;;-4.0728981;;-4.0780708;;-4.0865953;;-4.0941518;;-4.1010775;;-4.1130765;;-4.1366765;;-4.1738259;;-4.2225379;;-4.2955077;;-4.4528491;;-4.678677;;-4.9719719;;-5.3388151;;-5.7947342;;-6.3616863;;-7.0680554;;-7.9448707;;-9.0203876;;-10.320227;;-11.864909;;-13.657513;;-15.654924;;-17.763788;;-19.854097;;-21.80595;;-23.52249;;-24.8787;;-25.789699;;-26.293693;;-26.512537;;-26.571851;;-26.562288;;-26.542997;;-26.554195;;-26.627058;;-26.767658;;-26.933499;;-27.055762;;-27.099491;;-27.092562;;-27.084412;;-27.09423;;-27.111638;;-27.111638
-3.5485436;;-3.5485436;;-3.5485517;;-3.5486374;;-3.5490584;;-3.5504696;;-3.5565507;;-3.574012;;-3.5951456;;-3.6108884;;-3.6215278;;-3.6398625;;-3.6707924;;-3.947264;;-3.9990518;;-4.0477714;;-4.0826593;;-4.0980467;;-4.099267;;-4.0972991;;-4.1005966;;-4.1105797;;-4.1237796;;-4.1357454;;-4.1448812;;-4.1543628;;-4.1708302;;-4.1989591;;-4.2377451;;-4.2850172;;-4.4124943;;-4.6196152;;-4.8969611;;-5.2508239;;-5.7007334;;-6.2784758;;-7.0201652;;-7.9589597;;-9.1270056;;-10.548044;;-12.23348;;-14.169751;;-16.298543;;-18.491176;;-20.535653;;-22.30647;;-23.809665;;-24.988464;;-25.780367;;-26.226578;;-26.4486;;-26.568385;;-26.663857;;-26.762395;;-26.859866;;-26.950973;;-27.033347;;-27.092388;;-27.106082;;-27.076251;;-27.042069;;-27.040549;;-27.071314;;-27.104854;;-27.104854
-3.5485439;;-3.5485439;;-3.548582;;-3.5489759;;-3.5509357;;-3.5590225;;-3.5798128;;-3.6083726;;-3.6378093;;-3.6576186;;-3.666673;;-3.9088275;;-3.6988316;;-3.9582637;;-3.9901717;;-4.026165;;-4.0619854;;-4.091884;;-4.1115397;;-4.1230641;;-4.13341;;-4.146752;;-4.162744;;-4.1775208;;-4.1881587;;-4.1961528;;-4.2075125;;-4.2276905;;-4.2559375;;-4.3284913;;-4.5000049;;-4.7421166;;-5.0562074;;-5.4555482;;-5.9653439;;-6.6211121;;-7.458659;;-8.5131916;;-9.8155575;;-11.385072;;-13.224938;;-15.301825;;-17.519114;;-19.670131;;-21.460511;;-22.877264;;-24.041707;;-24.950001;;-25.585406;;-26.006997;;-26.313529;;-26.576705;;-26.82012;;-27.029151;;-27.175935;;-27.245155;;-27.238559;;-27.164983;;-27.044009;;-26.923338;;-26.867539;;-26.902838;;-26.991645;;-27.063824;;-27.063824
-3.5485455;;-3.5485455;;-3.5486652;;-3.5499002;;-3.5581347;;-3.5812026;;-3.6140685;;-3.6528117;;-3.6906933;;-3.7140825;;-3.9508835;;-3.9565739;;-3.9657722;;-3.9775311;;-3.9954485;;-4.0241703;;-4.0616208;;-4.0997737;;-4.1298633;;-4.1497364;;-4.1635797;;-4.1771012;;-4.1931061;;-4.2089629;;-4.2205223;;-4.2278314;;-4.2362554;;-4.2502076;;-4.2912186;;-4.4380975;;-4.6571566;;-4.9473397;;-5.3189563;;-5.7923251;;-6.3983681;;-7.1730814;;-8.1528066;;-9.3728655;;-10.859777;;-12.624871;;-14.653883;;-16.877023;;-19.124673;;-21.046055;;-22.393335;;-23.368701;;-24.142124;;-24.770151;;-25.298312;;-25.782238;;-26.248171;;-26.675731;;-27.026593;;-27.27278;;-27.401873;;-27.413206;;-27.313431;;-27.121418;;-26.885159;;-26.694515;;-26.641443;;-26.740294;;-26.908167;;-27.029741;;-27.029741
-3.5485555;;-3.5485555;;-3.5488883;;-3.554387;;-3.5777676;;-3.6128514;;-3.6568474;;-3.7052882;;-3.7511672;;-4.0095996;;-4.0079131;;-3.998711;;-3.9907609;;-3.9932413;;-4.0102141;;-4.0408004;;-4.0798087;;-4.1192683;;-4.1516959;;-4.1737673;;-4.1869998;;-4.1972356;;-4.2102696;;-4.2259654;;-4.2420586;;-4.2648054;;-4.295723;;-4.3248852;;-4.4127969;;-4.6032048;;-4.8706721;;-5.2200641;;-5.6678291;;-6.2406635;;-6.9731824;;-7.8998419;;-9.0582755;;-10.480346;;-12.184981;;-14.169597;;-16.383905;;-18.688882;;-20.779137;;-22.228012;;-23.105948;;-23.693982;;-24.162015;;-24.623608;;-25.156609;;-25.767976;;-26.381006;;-26.895472;;-27.255748;;-27.460154;;-27.530925;;-27.481048;;-27.312946;;-27.043573;;-26.738597;;-26.517147;;-26.485818;;-26.64312;;-26.87123;;-27.026529;;-27.026529
-3.5485975;;-3.5485975;;-3.5505272;;-3.5705054;;-3.6049856;;-3.6502408;;-3.7040865;;-3.7618937;;-4.0494884;;-4.0742175;;-4.0557333;;-4.0215131;;-3.9968104;;-3.9986176;;-4.0252807;;-4.0642901;;-4.1055749;;-4.1429381;;-4.1730968;;-4.1939515;;-4.2053126;;-4.2175285;;-4.2426824;;-4.2836646;;-4.3389482;;-4.3980767;;-4.4503273;;-4.4916054;;-4.591609;;-4.8179417;;-5.1385177;;-5.5600612;;-6.1037994;;-6.8017078;;-7.6876179;;-8.796061;;-10.161781;;-11.807637;;-13.735987;;-15.912811;;-18.226038;;-20.414349;;-22.01156;;-22.930481;;-23.480689;;-23.8729;;-24.250957;;-24.7275;;-25.349165;;-26.053158;;-26.700462;;-27.178077;;-27.461346;;-27.589534;;-27.606128;;-27.522257;;-27.328421;;-27.036057;;-26.718047;;-26.501197;;-26.486567;;-26.659788;;-26.894161;;-27.050222;;-27.050222
-3.5488306;;-3.5488306;;-3.5604155;;-3.5915029;;-3.6349806;;-3.6892569;;-3.7515426;;-4.0516267;;-4.1118358;;-4.1224317;;-4.0814175;;-4.0312856;;-3.9984146;;-4.0055894;;-4.0430445;;-4.0898597;;-4.1320202;;-4.1652453;;-4.1912985;;-4.2176023;;-4.2697487;;-4.3250268;;-4.3742663;;-4.4353197;;-4.5143789;;-4.599064;;-4.6711646;;-4.7248425;;-4.82252;;-5.0808433;;-5.4611437;;-5.9681048;;-6.6263632;;-7.4713952;;-8.5330557;;-9.8445507;;-11.432574;;-13.304122;;-15.431642;;-17.720639;;-19.937471;;-21.618053;;-22.581853;;-23.175234;;-23.634699;;-24.076832;;-24.572867;;-25.168412;;-25.849795;;-26.525014;;-27.072048;;-27.425352;;-27.604913;;-27.670064;;-27.66065;;-27.576848;;-27.40031;;-27.136962;;-26.852027;;-26.655543;;-26.631343;;-26.765041;;-26.950709;;-27.075496;;-27.075496
-3.5516644;;-3.5516644;;-3.5761793;;-3.6151784;;-3.6661309;;-3.7279695;;-3.7970163;;-4.1040513;;-4.1617993;;-4.1482805;;-4.0978005;;-4.0457072;;-4.0157092;;-4.030334;;-4.0718709;;-4.1194051;;-4.1578336;;-4.1869261;;-4.2415616;;-4.3276416;;-4.418961;;-4.5008461;;-4.5693032;;-4.6502629;;-4.7540251;;-4.8649006;;-4.9583533;;-5.0259705;;-5.1167405;;-5.3937547;;-5.8376043;;-6.4423488;;-7.2321779;;-8.2432898;;-9.4981088;;-11.024813;;-12.836316;;-14.91267;;-17.172341;;-19.405618;;-21.16056;;-22.149467;;-22.747968;;-23.277641;;-23.864863;;-24.508567;;-25.176786;;-25.841639;;-26.463663;;-26.985751;;-27.35849;;-27.575988;;-27.677593;;-27.711917;;-27.702137;;-27.64126;;-27.51019;;-27.308399;;-27.080644;;-26.905612;;-26.848234;;-26.907746;;-27.015425;;-27.09361;;-27.09361
-3.5642789;;-3.5642789;;-3.5961481;;-3.6425502;;-3.7013997;;-3.7707519;;-4.0826915;;-4.1617733;;-4.2120957;;-4.1778923;;-4.1217295;;-4.0734969;;-4.0530894;;-4.0731725;;-4.1135937;;-4.1548117;;-4.1916028;;-4.2683449;;-4.3765936;;-4.5029023;;-4.6299164;;-4.7386562;;-4.8264891;;-4.9287371;;-5.0605774;;-5.2019287;;-5.3207005;;-5.4058301;;-5.4972022;;-5.7688021;;-6.2733938;;-6.9834941;;-7.9161903;;-9.104174;;-10.558086;;-12.295508;;-14.307168;;-16.528105;;-18.782908;;-20.673679;;-21.798642;;-22.432925;;-22.961385;;-23.608692;;-24.391855;;-25.203961;;-25.937003;;-26.534292;;-26.984646;;-27.300788;;-27.505867;;-27.627465;;-27.693204;;-27.724086;;-27.727119;;-27.696448;;-27.618503;;-27.486717;;-27.321502;;-27.168619;;-27.078033;;-27.063887;;-27.095948;;-27.128443;;-27.128443
-3.5812294;;-3.5812294;;-3.6175265;;-3.6700112;;-3.7361883;;-3.8133245;;-4.1352287;;-4.2215755;;-4.2666238;;-4.2183625;;-4.1560923;;-4.1112532;;-4.1014744;;-4.124802;;-4.1612129;;-4.2027838;;-4.2916923;;-4.4182403;;-4.5706633;;-4.7378601;;-4.9035183;;-5.0427545;;-5.1523691;;-5.2793814;;-5.4450046;;-5.6236038;;-5.7739129;;-5.8824689;;-5.9884241;;-6.2412388;;-6.7832507;;-7.5915795;;-8.6646914;;-10.024541;;-11.665066;;-13.582984;;-15.733694;;-17.980761;;-20.01026;;-21.399439;;-22.252553;;-22.877009;;-23.524742;;-24.3122;;-25.183663;;-25.996244;;-26.635243;;-27.064306;;-27.315447;;-27.453876;;-27.541807;;-27.61313;;-27.672961;;-27.714766;;-27.733974;;-27.730076;;-27.696967;;-27.62644;;-27.519496;;-27.39667;;-27.293971;;-27.233517;;-27.212128;;-27.209567;;-27.209567
-3.5956464;;-3.5956464;;-3.6352254;;-3.6924041;;-3.7644181;;-3.8480979;;-4.1784472;;-4.271482;;-4.3149865;;-4.2580784;;-4.1905357;;-4.1476381;;-4.1467402;;-4.1727739;;-4.2143268;;-4.310297;;-4.4500292;;-4.6237607;;-4.8225977;;-5.0368554;;-5.2482136;;-5.4239004;;-5.5592641;;-5.7150212;;-5.9194967;;-6.1421505;;-6.3316731;;-6.4724405;;-6.6148156;;-6.8701837;;-7.4102037;;-8.276667;;-9.4597465;;-10.959402;;-12.747745;;-14.782385;;-16.966736;;-19.068874;;-20.710876;;-21.875241;;-22.779111;;-23.584637;;-24.396462;;-25.228476;;-26.011963;;-26.657694;;-27.110812;;-27.368737;;-27.476014;;-27.505571;;-27.527209;;-27.574163;;-27.638379;;-27.693612;;-27.727043;;-27.741819;;-27.739554;;-27.714037;;-27.657386;;-27.574064;;-27.485987;;-27.412457;;-27.364372;;-27.339874;;-27.339874
-3.6069361;;-3.6069361;;-3.6488209;;-3.7092819;;-3.7853295;;-3.8734268;;-4.2091324;;-4.3057995;;-4.3446579;;-4.2836653;;-4.2150553;;-4.1759765;;-4.1817043;;-4.2202637;;-4.322014;;-4.4714002;;-4.6611007;;-4.8852437;;-5.1384827;;-5.4102173;;-5.6762775;;-5.8936602;;-6.0579274;;-6.2461166;;-6.4966259;;-6.7731489;;-7.0125264;;-7.1971102;;-7.389559;;-7.6962649;;-8.2427222;;-9.1041785;;-10.312587;;-11.866566;;-13.716753;;-15.752406;;-17.815723;;-19.633257;;-21.076409;;-22.273388;;-23.349857;;-24.360959;;-25.28249;;-26.054108;;-26.643056;;-27.063499;;-27.342564;;-27.494714;;-27.539139;;-27.523957;;-27.51238;;-27.542124;;-27.605767;;-27.669576;;-27.713411;;-27.739789;;-27.755314;;-27.758898;;-27.741547;;-27.700142;;-27.643037;;-27.581222;;-27.52827;;-27.494171;;-27.494171
-3.6174197;;-3.6174197;;-3.6611234;;-3.7240897;;-3.8030312;;-3.8938514;;-4.2323103;;-4.32823;;-4.353876;;-4.2933664;;-4.2303047;;-4.2000702;;-4.2231102;;-4.3257939;;-4.4810514;;-4.6818256;;-4.9262417;;-5.2092336;;-5.526758;;-5.8663486;;-6.1967878;;-6.4640335;;-6.6630408;;-6.8889288;;-7.1923185;;-7.5315488;;-7.8314281;;-8.0728569;;-8.3317539;;-8.7263426;;-9.3373672;;-10.211301;;-11.366864;;-12.825995;;-14.547029;;-16.37247;;-18.166205;;-19.822178;;-21.274857;;-22.550288;;-23.750351;;-24.898352;;-25.881943;;-26.580257;;-26.998958;;-27.248415;;-27.420541;;-27.531452;;-27.566751;;-27.544684;;-27.518351;;-27.531566;;-27.585451;;-27.649173;;-27.69883;;-27.732332;;-27.757152;;-27.776832;;-27.785383;;-27.778134;;-27.753864;;-27.714986;;-27.672084;;-27.638635;;-27.638635
-3.6272918;;-3.6272918;;-3.6725343;;-3.7375538;;-3.8187065;;-3.9111705;;-4.2506685;;-4.3434101;;-4.3536861;;-4.2974531;;-4.2456141;;-4.2342088;;-4.3250143;;-4.4797171;;-4.6862094;;-4.9433418;;-5.2481663;;-5.5995779;;-5.9943459;;-6.4159331;;-6.8237232;;-7.1495333;;-7.3882705;;-7.6540413;;-8.0124669;;-8.4186623;;-8.7873972;;-9.0997037;;-9.4438698;;-9.9470687;;-10.678476;;-11.627528;;-12.752424;;-14.009632;;-15.340601;;-16.781953;;-18.379443;;-19.992946;;-21.413207;;-22.611113;;-23.780005;;-24.996325;;-26.07275;;-26.795776;;-27.161743;;-27.336399;;-27.457849;;-27.551401;;-27.589689;;-27.573218;;-27.542719;;-27.541448;;-27.579265;;-27.634726;;-27.685261;;-27.722927;;-27.753106;;-27.780552;;-27.803142;;-27.817427;;-27.817876;;-27.801567;;-27.774226;;-27.748057;;-27.748057
-3.637083;;-3.637083;;-3.6838848;;-3.7510006;;-3.8344384;;-3.928657;;-4.2695276;;-4.3593109;;-4.3591331;;-4.3082146;;-4.2680895;;-4.3232537;;-4.4702388;;-4.675298;;-4.9364286;;-5.2551522;;-5.6300817;;-6.0642763;;-6.551577;;-7.0694507;;-7.5658549;;-7.9559293;;-8.2347153;;-8.535615;;-8.9411141;;-9.40829;;-9.8490792;;-10.249606;;-10.704662;;-11.339092;;-12.206899;;-13.261816;;-14.376442;;-15.397061;;-16.349125;;-17.52322;;-18.996662;;-20.494113;;-21.67288;;-22.545096;;-23.511517;;-24.741072;;-25.963528;;-26.825616;;-27.250831;;-27.420745;;-27.513982;;-27.583427;;-27.61396;;-27.602027;;-27.573334;;-27.561929;;-27.582283;;-27.625143;;-27.672551;;-27.71245;;-27.745785;;-27.77719;;-27.806535;;-27.832419;;-27.847871;;-27.848112;;-27.834782;;-27.816757;;-27.816757
-3.6530615;;-3.6530615;;-3.7026105;;-3.7735197;;-3.8613305;;-4.1983356;;-4.3051396;;-4.3920466;;-4.380672;;-4.3294315;;-4.3233216;;-4.4532189;;-4.6507585;;-4.9083926;;-5.2302454;;-5.6191744;;-6.0777188;;-6.6080113;;-7.2010796;;-7.82678;;-8.4180707;;-8.8704013;;-9.1808325;;-9.4981593;;-9.9219348;;-10.423327;;-10.932252;;-11.448574;;-12.055789;;-12.851308;;-13.863843;;-15.008002;;-16.082192;;-16.911281;;-17.655887;;-18.716322;;-20.120992;;-21.452138;;-22.277883;;-22.710421;;-23.367737;;-24.519496;;-25.832654;;-26.823935;;-27.327988;;-27.511362;;-27.58005;;-27.618289;;-27.632474;;-27.620773;;-27.596042;;-27.580085;;-27.587775;;-27.619508;;-27.662241;;-27.702194;;-27.737397;;-27.771024;;-27.80419;;-27.836066;;-27.860086;;-27.870679;;-27.867351;;-27.854812;;-27.854812
