-9.4011185;;-9.4011185;;-9.443608;;-9.9710643;;-10.837153;;-12.020074;;-13.552968;;-15.491173;;-17.87009;;-20.729251;;-24.32566;;-28.141592;;-32.238353;;-36.206124;;-39.562196;;-44.21145;;-51.127151;;-60.300601;;-71.801272;;-85.754204;;-102.00645;;-120.23251;;-139.92017;;-160.49655;;-181.73688;;-203.53043;;-225.44943;;-246.87067;;-267.00253;;-284.9978;;-300.65976;;-314.84939;;-328.61959;;-342.19059;;-355.18915;;-367.40899;;-378.78905;;-388.97772;;-397.45693;;-403.99527;;-408.77401;;-412.25775;;-415.04167;;-417.62191;;-420.25761;;-423.14677;;-426.57659;;-430.69221;;-435.23226;;-439.65767;;-443.48843;;-446.47334;;-448.56111;;-449.86472;;-450.69256;;-451.48605;;-452.54948;;-453.81531;;-454.95455;;-455.63575;;-455.55523;;-454.4923;;-452.74757;;-451.36367;;-451.36367
-9.4011124;;-9.4011124;;-9.4388335;;-9.9546594;;-10.812043;;-11.98571;;-13.507777;;-15.433352;;-17.799727;;-20.647633;;-24.240388;;-28.070155;;-32.233884;;-36.430803;;-40.583283;;-46.539227;;-54.728875;;-65.191964;;-78.011903;;-93.065829;;-110.10594;;-128.69191;;-148.11523;;-167.78942;;-187.64952;;-207.6378;;-227.46307;;-246.85874;;-265.40423;;-282.41149;;-297.63641;;-311.79252;;-325.74104;;-339.53631;;-352.77483;;-365.34413;;-377.2204;;-387.90711;;-396.65178;;-403.08793;;-407.46476;;-410.47475;;-412.95515;;-415.52276;;-418.41745;;-421.75767;;-425.74677;;-430.42161;;-435.35951;;-439.84069;;-443.29635;;-445.6099;;-447.07753;;-448.13966;;-449.17877;;-450.47047;;-452.1033;;-453.87345;;-455.35984;;-456.08264;;-455.51784;;-453.31474;;-450.03704;;-447.50107;;-447.50107
-9.4010943;;-9.4010943;;-9.4224858;;-9.8838293;;-10.703261;;-11.836531;;-13.310251;;-15.177034;;-17.476648;;-20.249691;;-23.768345;;-27.545627;;-31.74249;;-36.267825;;-41.690179;;-49.00838;;-58.453044;;-70.167497;;-84.132125;;-100.07103;;-117.64088;;-136.15415;;-154.75361;;-173.08533;;-191.35885;;-209.57731;;-227.55564;;-245.26263;;-262.55231;;-278.94909;;-294.20719;;-308.73253;;-322.99065;;-336.86505;;-350.03292;;-362.53091;;-374.42415;;-385.20826;;-394.04238;;-400.48806;;-404.83607;;-407.89646;;-410.59404;;-413.57139;;-417.04242;;-421.02489;;-425.55959;;-430.55405;;-435.54583;;-439.82519;;-442.87304;;-444.72459;;-445.89078;;-446.91515;;-448.10693;;-449.62718;;-451.51629;;-453.54722;;-455.22787;;-455.92068;;-454.83628;;-451.39722;;-446.39021;;-442.52207;;-442.52207
-9.4010897;;-9.4010897;;-9.4133812;;-9.8189545;;-10.601644;;-11.695347;;-13.121442;;-14.930427;;-17.165939;;-20.105493;;-23.32744;;-27.085999;;-31.408091;;-36.514449;;-43.016264;;-51.32784;;-61.708351;;-74.314798;;-88.95198;;-105.36362;;-122.98379;;-140.88769;;-158.28397;;-175.26832;;-192.31865;;-209.49006;;-226.57504;;-243.48565;;-260.15714;;-276.35803;;-291.91135;;-306.86874;;-321.23321;;-334.7836;;-347.4066;;-359.33336;;-370.73672;;-381.22639;;-390.02899;;-396.66623;;-401.36806;;-404.92243;;-408.22884;;-411.89955;;-416.12433;;-420.81468;;-425.7887;;-430.79136;;-435.4368;;-439.27422;;-442.04056;;-443.89649;;-445.29517;;-446.57788;;-447.8769;;-449.3559;;-451.18197;;-453.20155;;-454.87051;;-455.40102;;-453.78092;;-449.26932;;-442.85625;;-437.93676;;-437.93676
-9.4011139;;-9.4011139;;-9.4126876;;-9.7985916;;-10.563934;;-11.636047;;-13.034325;;-14.808283;;-17.00491;;-19.906531;;-23.103279;;-26.889175;;-31.389017;;-36.9446;;-43.945172;;-52.714776;;-63.513841;;-76.373769;;-91.11762;;-107.41496;;-124.56571;;-141.63023;;-158.13826;;-174.51385;;-191.31517;;-208.57955;;-225.93525;;-243.01088;;-259.63479;;-275.78135;;-291.43731;;-306.44891;;-320.48628;;-333.29563;;-344.99827;;-356.01577;;-366.63688;;-376.65545;;-385.44622;;-392.46301;;-397.74411;;-401.95886;;-405.9776;;-410.4006;;-415.38261;;-420.70643;;-425.95737;;-430.7405;;-434.83688;;-438.20766;;-440.95094;;-443.27672;;-445.35644;;-447.15358;;-448.60174;;-449.91469;;-451.42105;;-453.09283;;-454.42735;;-454.61071;;-452.60806;;-447.73885;;-441.09792;;-436.0968;;-436.0968
-9.4012421;;-9.4012421;;-9.4202397;;-9.828409;;-10.592338;;-11.652399;;-13.027993;;-14.766065;;-17.141029;;-19.737977;;-22.848772;;-26.545468;;-30.992218;;-36.522078;;-43.471626;;-52.132456;;-62.741993;;-75.279399;;-89.58938;;-105.34279;;-121.90421;;-138.54077;;-155.04254;;-171.85908;;-189.45567;;-207.78039;;-226.23803;;-244.06916;;-260.84453;;-276.66998;;-291.84083;;-306.31255;;-319.6686;;-331.62846;;-342.42326;;-352.59436;;-362.53401;;-372.18961;;-381.04396;;-388.45873;;-394.2583;;-398.98664;;-403.52136;;-408.49581;;-414.03435;;-419.79508;;-425.20744;;-429.84847;;-433.69038;;-437.00882;;-440.121;;-443.1775;;-446.04167;;-448.36633;;-449.961;;-451.0676;;-452.10519;;-453.17959;;-453.93592;;-453.70117;;-451.67205;;-447.46418;;-442.10094;;-438.20198;;-438.20198
-9.4017682;;-9.4017682;;-9.4567885;;-9.9404548;;-10.723948;;-11.777816;;-13.121995;;-14.793803;;-17.048204;;-19.465409;;-22.311472;;-25.621983;;-29.530269;;-34.45499;;-40.822212;;-48.901218;;-58.899899;;-70.836906;;-84.55726;;-99.821152;;-116.14924;;-132.99353;;-150.20734;;-168.1356;;-187.11;;-206.94486;;-226.78719;;-245.45968;;-262.21084;;-277.25893;;-291.37906;;-304.94652;;-317.64041;;-329.0703;;-339.37701;;-349.11863;;-358.75589;;-368.28681;;-377.19079;;-384.76205;;-390.73363;;-395.59858;;-400.24894;;-405.3658;;-411.08454;;-417.01476;;-422.57629;;-427.45646;;-431.7598;;-435.77646;;-439.7147;;-443.55412;;-446.99222;;-449.60532;;-451.21742;;-452.09633;;-452.69893;;-453.23783;;-453.50918;;-453.03454;;-451.35598;;-448.45124;;-445.12042;;-442.84653;;-442.84653
-9.404748;;-9.404748;;-9.6080646;;-10.206039;;-11.059702;;-12.15534;;-13.501749;;-15.08955;;-17.169723;;-19.298179;;-21.724077;;-24.42173;;-27.417872;;-31.361986;;-36.901881;;-44.174586;;-53.334916;;-64.507406;;-77.581965;;-92.466607;;-108.86648;;-126.31929;;-144.55105;;-163.76989;;-184.21466;;-205.52725;;-226.55526;;-245.7384;;-262.08419;;-276.01989;;-288.91295;;-301.6741;;-314.1204;;-325.63617;;-336.07355;;-345.87419;;-355.52131;;-365.01602;;-373.79169;;-381.1364;;-386.83375;;-391.40597;;-395.74382;;-400.56801;;-406.09053;;-411.98769;;-417.77881;;-423.29486;;-428.66674;;-433.96288;;-439.04312;;-443.64282;;-447.42826;;-450.09938;;-451.61706;;-452.32255;;-452.72736;;-453.10806;;-453.31018;;-452.96226;;-451.86804;;-450.23637;;-448.61949;;-447.63182;;-447.63182
-9.4493115;;-9.4493115;;-9.8980749;;-10.630102;;-11.598601;;-12.798441;;-14.195681;;-15.989327;;-17.654435;;-19.356157;;-21.229907;;-23.261318;;-25.307666;;-28.184705;;-32.941643;;-39.440786;;-47.774054;;-58.129712;;-70.506055;;-84.930328;;-101.30793;;-119.33036;;-138.62549;;-159.14643;;-180.93747;;-203.3993;;-225.08262;;-244.17214;;-259.67388;;-272.37582;;-284.20446;;-296.53861;;-309.29937;;-321.57097;;-332.74683;;-342.96811;;-352.67794;;-361.95608;;-370.31384;;-377.13533;;-382.30567;;-386.36562;;-390.16346;;-394.45589;;-399.60496;;-405.44509;;-411.58114;;-417.85744;;-424.33694;;-430.8967;;-437.10927;;-442.47493;;-446.62094;;-449.38252;;-450.88659;;-451.59732;;-452.11521;;-452.74448;;-453.29572;;-453.40694;;-452.97793;;-452.25237;;-451.5914;;-451.23598;;-451.23598
-9.6991368;;-9.6991368;;-10.295792;;-11.168031;;-12.280225;;-13.60866;;-15.107777;;-16.925197;;-18.384769;;-19.485819;;-20.756275;;-22.237302;;-23.593638;;-25.490375;;-29.609289;;-35.459872;;-43.082859;;-52.678193;;-64.36275;;-78.234545;;-94.377854;;-112.69486;;-132.90473;;-154.66726;;-177.57276;;-200.68656;;-222.3342;;-240.66485;;-254.96171;;-266.44843;;-277.47143;;-289.7316;;-303.21579;;-316.69615;;-329.00989;;-339.8418;;-349.52557;;-358.32812;;-366.04724;;-372.30563;;-377.07293;;-380.78867;;-384.16249;;-387.9801;;-392.81222;;-398.68427;;-405.19316;;-412.02573;;-419.15118;;-426.47518;;-433.55012;;-439.72047;;-444.46116;;-447.59147;;-449.3337;;-450.27303;;-451.09225;;-452.11375;;-453.14267;;-453.82975;;-454.05258;;-453.93757;;-453.70571;;-453.55057;;-453.55057
-10.074527;;-10.074527;;-10.76099;;-11.753679;;-13.005902;;-14.469232;;-16.084873;;-17.932679;;-19.098969;;-19.575471;;-20.35762;;-21.487373;;-22.475076;;-23.508747;;-27.112701;;-32.441601;;-39.490145;;-48.460692;;-59.565022;;-72.937601;;-88.791255;;-107.1846;;-127.95191;;-150.60336;;-174.23973;;-197.45953;;-218.41995;;-235.51351;;-248.50055;;-258.96473;;-269.47425;;-281.88616;;-296.19287;;-310.88659;;-324.30415;;-335.70303;;-345.30036;;-353.57255;;-360.70194;;-366.64261;;-371.41488;;-375.22149;;-378.53023;;-382.13282;;-386.80301;;-392.72214;;-399.42859;;-406.42782;;-413.65903;;-421.23046;;-428.87017;;-435.84868;;-441.41493;;-445.22696;;-447.48503;;-448.81675;;-449.93495;;-451.20737;;-452.55004;;-453.71185;;-454.51584;;-454.89706;;-454.93652;;-454.86256;;-454.86256
-10.432506;;-10.432506;;-11.189767;;-12.280894;;-13.649191;;-15.226255;;-16.934504;;-18.786728;;-19.582617;;-19.615796;;-20.087274;;-21.040131;;-21.918631;;-22.353174;;-25.497703;;-30.416006;;-37.04075;;-45.558145;;-56.2462;;-69.25167;;-84.838915;;-103.14525;;-124.06667;;-147.07645;;-170.99137;;-193.9086;;-213.83298;;-229.65099;;-241.64716;;-251.57574;;-261.9771;;-274.65868;;-289.54115;;-304.93081;;-318.9068;;-330.54401;;-340.03164;;-347.98308;;-354.86044;;-360.87938;;-366.05484;;-370.31804;;-373.89231;;-377.54314;;-382.14946;;-387.97768;;-394.57226;;-401.40396;;-408.45768;;-416.01957;;-423.98507;;-431.62233;;-438.03173;;-442.69588;;-445.6758;;-447.49796;;-448.83318;;-450.13278;;-451.52682;;-452.95452;;-454.22631;;-455.08033;;-455.41941;;-455.45811;;-455.45811
-10.719837;;-10.719837;;-11.527102;;-12.686825;;-14.133478;;-15.781154;;-17.531881;;-19.339936;;-19.813288;;-19.65061;;-19.95956;;-20.818854;;-21.717154;;-21.992543;;-24.592456;;-29.169086;;-35.484349;;-43.680254;;-54.038966;;-66.746896;;-82.055115;;-100.14158;;-120.93705;;-143.92356;;-167.8138;;-190.36266;;-209.47256;;-224.57839;;-236.36043;;-246.50597;;-257.24638;;-270.14064;;-285.03204;;-300.25192;;-313.96771;;-325.36687;;-334.70862;;-342.63025;;-349.65101;;-356.04608;;-361.76666;;-366.57533;;-370.55789;;-374.40418;;-378.95324;;-384.52122;;-390.80438;;-397.39753;;-404.29704;;-411.77573;;-419.79234;;-427.72825;;-434.74027;;-440.22129;;-444.00497;;-446.37959;;-447.90687;;-449.11386;;-450.35872;;-451.83051;;-453.41816;;-454.70429;;-455.37583;;-455.56553;;-455.56553
-10.96346;;-10.96346;;-11.805561;;-13.011249;;-14.505939;;-16.185663;;-18.161042;;-19.621372;;-19.935527;;-19.801929;;-20.054136;;-20.824951;;-21.742321;;-22.159234;;-24.048335;;-28.302377;;-34.33837;;-42.238247;;-52.270901;;-64.661071;;-79.62845;;-97.378947;;-117.87683;;-140.64885;;-164.44071;;-186.93376;;-205.99423;;-221.38196;;-233.93268;;-245.04722;;-256.42044;;-269.254;;-283.44769;;-297.66809;;-310.47003;;-321.30065;;-330.47529;;-338.53741;;-345.87679;;-352.66631;;-358.80674;;-364.06293;;-368.4875;;-372.61523;;-377.13172;;-382.42432;;-388.45077;;-394.96065;;-401.83609;;-409.16366;;-416.92936;;-424.76773;;-432.05907;;-438.16451;;-442.66188;;-445.57501;;-447.33301;;-448.4638;;-449.4673;;-450.78793;;-452.48781;;-454.0751;;-455.03021;;-455.36549;;-455.36549
-11.219895;;-11.219895;;-12.090298;;-13.3308;;-14.855573;;-16.539872;;-18.465439;;-19.749542;;-20.118835;;-20.190558;;-20.480762;;-21.145592;;-21.983494;;-22.514662;;-23.631393;;-27.545894;;-33.272528;;-40.838274;;-50.49611;;-62.51217;;-77.063478;;-94.3809;;-114.47294;;-136.94717;;-160.68803;;-183.54353;;-203.37715;;-219.92124;;-233.92458;;-246.38713;;-258.39827;;-270.84624;;-283.86098;;-296.69168;;-308.4113;;-318.67536;;-327.73208;;-335.9367;;-343.48937;;-350.46377;;-356.82051;;-362.4591;;-367.41183;;-371.97288;;-376.62692;;-381.83909;;-387.79583;;-394.31838;;-401.12576;;-408.1517;;-415.49241;;-423.09205;;-430.53024;;-437.07766;;-442.075;;-445.38677;;-447.3711;;-448.48809;;-449.24802;;-450.27627;;-451.84287;;-453.49131;;-454.58523;;-455.017;;-455.017
-11.519295;;-11.519295;;-12.415403;;-13.683199;;-15.218129;;-17.105462;;-18.699515;;-19.837866;;-20.4275;;-20.799289;;-21.202373;;-21.768551;;-22.438334;;-22.949353;;-23.453941;;-26.919493;;-32.280393;;-39.487043;;-48.752499;;-60.375842;;-74.499924;;-91.367876;;-111.04053;;-133.22146;;-156.97351;;-180.40681;;-201.38245;;-219.33097;;-234.76832;;-248.36631;;-260.77098;;-272.65008;;-284.43677;;-296.00523;;-306.90153;;-316.85875;;-325.93243;;-334.23955;;-341.8289;;-348.78637;;-355.25943;;-361.33664;;-366.99487;;-372.24296;;-377.34111;;-382.7539;;-388.74721;;-395.13831;;-401.59965;;-408.12481;;-415.03454;;-422.52102;;-430.20502;;-437.14513;;-442.44944;;-445.93489;;-448.00977;;-449.11007;;-449.68752;;-450.40411;;-451.65809;;-453.109;;-454.14549;;-454.59029;;-454.59029
-11.873828;;-11.873828;;-12.794602;;-14.084365;;-15.829413;;-17.409486;;-18.845366;;-19.950716;;-20.795636;;-21.454949;;-21.997994;;-22.513872;;-23.04596;;-23.526084;;-23.8348;;-26.533864;;-31.499584;;-38.383501;;-47.315633;;-58.586485;;-72.361796;;-88.863251;;-108.20438;;-130.17474;;-153.99353;;-177.99463;;-199.98713;;-218.95112;;-235.16935;;-249.23299;;-261.62575;;-272.89733;;-283.68401;;-294.33259;;-304.75927;;-314.73069;;-324.0719;;-332.62862;;-340.30731;;-347.25633;;-353.85848;;-360.42441;;-366.91579;;-373.08659;;-378.92055;;-384.73059;;-390.73411;;-396.78054;;-402.67753;;-408.62912;;-415.16792;;-422.61656;;-430.55351;;-437.8132;;-443.26823;;-446.68225;;-448.59158;;-449.57314;;-450.08651;;-450.67487;;-451.65798;;-452.78529;;-453.5985;;-453.95867;;-453.95867
-12.303695;;-12.303695;;-13.211821;;-14.495669;;-16.191638;;-17.647935;;-18.930302;;-20.074816;;-21.103134;;-21.956869;;-22.614834;;-23.145104;;-23.678741;;-24.266142;;-24.70306;;-26.38325;;-30.975914;;-37.582238;;-46.24435;;-57.23127;;-70.754528;;-86.993861;;-106.10934;;-127.95838;;-151.87398;;-176.32773;;-198.97865;;-218.27227;;-234.3855;;-248.13133;;-260.11408;;-270.83298;;-280.93116;;-290.98275;;-301.21024;;-311.49441;;-321.48411;;-330.70943;;-338.84413;;-346.01058;;-352.77405;;-359.71499;;-366.93473;;-374.0549;;-380.73343;;-386.98831;;-392.95882;;-398.65379;;-404.12662;;-409.73078;;-416.01659;;-423.29611;;-431.15674;;-438.38202;;-443.69015;;-446.7257;;-448.15109;;-448.86985;;-449.49342;;-450.3142;;-451.30044;;-452.16706;;-452.68887;;-452.89567;;-452.89567
-13.156684;;-13.156684;;-13.928166;;-15.334715;;-16.667371;;-17.92615;;-19.086569;;-20.235709;;-21.318871;;-22.236198;;-22.938772;;-23.50689;;-24.15464;;-24.972548;;-25.624328;;-26.398013;;-30.606724;;-36.932881;;-45.339759;;-56.066775;;-69.365673;;-85.370299;;-104.27657;;-125.99407;;-149.93446;;-174.6379;;-197.54308;;-216.52493;;-231.85589;;-244.80381;;-256.22802;;-266.59455;;-276.40234;;-286.2397;;-296.55593;;-307.42195;;-318.39775;;-328.69497;;-337.67415;;-345.31305;;-352.25476;;-359.34778;;-366.97147;;-374.77944;;-382.15162;;-388.78099;;-394.75941;;-400.34002;;-405.81634;;-411.52915;;-417.81571;;-424.82204;;-432.17218;;-438.7948;;-443.4451;;-445.69916;;-446.34746;;-446.7064;;-447.6114;;-449.00302;;-450.29646;;-451.06548;;-451.35037;;-451.41636;;-451.41636
-14.436652;;-14.436652;;-15.098805;;-16.362534;;-17.48778;;-18.556888;;-19.607333;;-20.641243;;-21.595868;;-22.398972;;-23.015811;;-23.554141;;-24.29075;;-25.299731;;-26.093996;;-26.355052;;-30.142823;;-36.171959;;-44.30011;;-54.723833;;-67.716923;;-83.387669;;-101.95258;;-123.36337;;-147.09522;;-171.74797;;-194.60875;;-213.03829;;-227.50467;;-239.77493;;-250.92875;;-261.37323;;-271.40164;;-281.49034;;-292.19507;;-303.74864;;-315.69471;;-327.03468;;-336.88569;;-345.0701;;-352.22094;;-359.34351;;-367.05753;;-375.14022;;-382.86397;;-389.73594;;-395.84121;;-401.62364;;-407.51714;;-413.75003;;-420.34921;;-427.18062;;-433.82383;;-439.41688;;-442.96611;;-444.17644;;-443.99364;;-444.04409;;-445.29003;;-447.30101;;-448.97202;;-449.76;;-449.94603;;-449.96709;;-449.96709
-16.032187;;-16.032187;;-16.62288;;-17.764198;;-18.774967;;-19.830822;;-20.818849;;-21.594516;;-22.177224;;-22.626091;;-22.968789;;-23.341194;;-24.022829;;-25.032932;;-25.807687;;-25.893515;;-29.346061;;-35.069943;;-42.847983;;-52.847943;;-65.352817;;-80.470342;;-98.427437;;-119.22073;;-142.40925;;-166.73013;;-189.57841;;-207.98361;;-222.33517;;-234.69546;;-246.23879;;-257.2646;;-267.87354;;-278.43067;;-289.53577;;-301.51933;;-313.96351;;-325.84436;;-336.22246;;-344.84614;;-352.27875;;-359.49702;;-367.16466;;-375.16475;;-382.87336;;-389.85069;;-396.21496;;-402.45623;;-409.0062;;-415.94475;;-423.00819;;-429.76863;;-435.71408;;-440.2155;;-442.69338;;-443.13979;;-442.56521;;-442.57776;;-444.05067;;-446.32205;;-448.08594;;-448.8411;;-449.02428;;-449.08981;;-449.08981
-17.768123;;-18.007793;;-18.54413;;-19.388901;;-20.450803;;-21.65952;;-22.670361;;-23.150878;;-23.177073;;-23.040919;;-22.927126;;-23.005977;;-23.492438;;-24.325799;;-24.965955;;-25.069733;;-28.225589;;-33.584992;;-40.899025;;-50.316418;;-62.125441;;-76.454729;;-93.537136;;-113.43414;;-135.83642;;-159.74077;;-182.9682;;-202.5174;;-218.09097;;-231.60498;;-244.18385;;-256.0093;;-267.09006;;-277.81163;;-288.86993;;-300.68239;;-312.92464;;-324.71713;;-335.23659;;-344.2148;;-352.05888;;-359.52563;;-367.13393;;-374.84045;;-382.28664;;-389.27388;;-395.98089;;-402.82444;;-410.11359;;-417.73882;;-425.17146;;-431.76823;;-437.04039;;-440.70679;;-442.67597;;-443.17969;;-443.02076;;-443.37772;;-444.84553;;-446.79043;;-448.14339;;-448.63955;;-448.7753;;-448.88535;;-448.88535
-19.410242;;-19.653315;;-20.113205;;-20.98829;;-22.295692;;-23.786284;;-24.880928;;-25.064131;;-24.475485;;-23.657391;;-22.996749;;-22.712291;;-22.931138;;-23.499715;;-23.982016;;-24.230613;;-27.038069;;-31.969312;;-38.741395;;-47.487462;;-58.492078;;-71.95356;;-88.091791;;-107.05265;;-128.6878;;-152.30715;;-176.2798;;-197.90968;;-215.86849;;-231.36963;;-245.29257;;-257.73147;;-268.80982;;-279.12242;;-289.52033;;-300.5147;;-311.94007;;-323.18139;;-333.62696;;-342.98209;;-351.37908;;-359.21271;;-366.78517;;-374.14543;;-381.26694;;-388.248;;-395.3271;;-402.79006;;-410.75707;;-418.90335;;-426.48247;;-432.7695;;-437.4718;;-440.74047;;-442.88738;;-444.18539;;-445.00217;;-445.89194;;-447.13221;;-448.30707;;-448.85627;;-448.87735;;-448.88226;;-449.01034;;-449.01034
-20.501916;;-20.501916;;-21.205514;;-22.282899;;-23.937727;;-25.741243;;-26.940643;;-26.854372;;-25.757091;;-24.364909;;-23.212267;;-22.575744;;-22.505928;;-22.790628;;-23.134217;;-23.627955;;-26.162716;;-30.6825;;-36.92611;;-45.025715;;-55.269456;;-67.973539;;-83.334555;;-101.54891;;-122.59788;;-146.04043;;-170.69009;;-194.34467;;-215.05364;;-232.91016;;-248.2257;;-261.03623;;-271.77738;;-281.35697;;-290.74523;;-300.53513;;-310.79138;;-321.23732;;-331.49267;;-341.20838;;-350.18564;;-358.42741;;-366.04433;;-373.19304;;-380.13421;;-387.20662;;-394.67669;;-402.66083;;-411.06379;;-419.41944;;-426.94534;;-433.0041;;-437.52005;;-440.89492;;-443.56392;;-445.6912;;-447.3008;;-448.51525;;-449.39629;;-449.74222;;-449.48141;;-449.07209;;-449.02447;;-449.23371;;-449.23371
-21.035002;;-21.035002;;-21.782774;;-23.029891;;-24.91909;;-26.922443;;-28.195014;;-27.97003;;-26.623614;;-24.937623;;-23.496605;;-22.601446;;-22.266391;;-22.275217;;-22.49836;;-23.296488;;-25.822196;;-30.029953;;-35.830855;;-43.389256;;-52.998685;;-65.029104;;-79.780613;;-97.40565;;-117.94448;;-141.10922;;-166.02242;;-190.9764;;-214.04214;;-234.27111;;-251.04863;;-264.2577;;-274.72072;;-283.64399;;-292.03783;;-300.58282;;-309.63461;;-319.24924;;-329.22251;;-339.14232;;-348.54616;;-357.14946;;-364.94772;;-372.17666;;-379.24791;;-386.60001;;-394.45368;;-402.725;;-411.1427;;-419.30799;;-426.71324;;-432.94648;;-437.92884;;-441.86573;;-444.97703;;-447.34674;;-449.02101;;-450.0952;;-450.57097;;-450.35397;;-449.66875;;-449.18332;;-449.32828;;-449.73608;;-449.73608
-21.396802;;-21.639951;;-22.035029;;-23.17631;;-24.997671;;-26.946542;;-28.184359;;-28.021661;;-26.775008;;-25.150419;;-23.703237;;-22.718009;;-22.191033;;-21.973457;;-22.123599;;-23.282077;;-25.986713;;-30.012718;;-35.436343;;-42.51486;;-51.582282;;-63.011387;;-77.19525;;-94.293822;;-114.3131;;-137.05845;;-161.87274;;-187.46065;;-212.17076;;-234.39008;;-252.55886;;-266.28768;;-276.69051;;-285.17642;;-292.77724;;-300.30953;;-308.42665;;-317.41401;;-327.12248;;-337.06897;;-346.65365;;-355.47785;;-363.53428;;-371.11725;;-378.6306;;-386.40933;;-394.51078;;-402.67612;;-410.62358;;-418.30068;;-425.72961;;-432.70997;;-438.8034;;-443.58792;;-446.90326;;-448.9283;;-450.06538;;-450.6549;;-450.74599;;-450.30632;;-449.69098;;-449.55417;;-450.10393;;-450.75435;;-450.75435
-21.623737;;-21.867993;;-22.04368;;-22.886937;;-24.445636;;-26.167965;;-27.260035;;-27.198256;;-26.246772;;-24.954723;;-23.752535;;-22.853238;;-22.260562;;-21.942928;;-22.142247;;-23.670206;;-26.597275;;-30.616223;;-35.759076;;-42.371584;;-50.9511;;-61.910235;;-75.626098;;-92.35581;;-112.01141;;-134.43431;;-159.0949;;-184.92741;;-210.43175;;-233.68109;;-252.60424;;-266.61231;;-276.93097;;-285.06906;;-292.13015;;-299.09003;;-306.78475;;-315.55539;;-325.17876;;-335.08826;;-344.6527;;-353.50808;;-361.75206;;-369.7534;;-377.80713;;-385.97107;;-394.04168;;-401.68606;;-408.84879;;-416.01755;;-423.7639;;-431.9215;;-439.43039;;-445.10499;;-448.49918;;-450.06856;;-450.65242;;-450.81571;;-450.6509;;-450.2105;;-449.93042;;-450.31748;;-451.28345;;-452.11327;;-452.11327
-21.591696;;-21.836794;;-21.827285;;-22.400871;;-23.689818;;-25.14141;;-26.030733;;-26.02531;;-25.397801;;-24.536415;;-23.69616;;-23.00105;;-22.491247;;-22.251149;;-22.627393;;-24.383167;;-27.454681;;-31.54214;;-36.587689;;-42.888327;;-51.194811;;-61.977568;;-75.578392;;-92.286027;;-111.95983;;-134.41048;;-159.09978;;-184.92007;;-210.26548;;-233.14546;;-251.58408;;-265.08742;;-274.89085;;-282.59532;;-289.45722;;-296.49207;;-304.42218;;-313.42141;;-323.14842;;-333.0185;;-342.46374;;-351.22283;;-359.51562;;-367.77609;;-376.1802;;-384.49715;;-392.29071;;-399.27208;;-405.73161;;-412.64614;;-420.91336;;-430.22172;;-438.9283;;-445.30765;;-448.84368;;-450.31099;;-450.83037;;-450.99498;;-450.84791;;-450.51059;;-450.4941;;-451.19688;;-452.3503;;-453.22242;;-453.22242
-21.284909;;-21.530596;;-21.446624;;-21.890604;;-23.001986;;-24.225421;;-24.928405;;-24.96141;;-24.620673;;-24.150836;;-23.652709;;-23.20205;;-22.892883;;-22.872623;;-23.450823;;-25.24053;;-28.308003;;-32.392327;;-37.426052;;-43.757064;;-52.21879;;-63.257079;;-77.195945;;-94.307329;;-114.4107;;-137.26703;;-162.19786;;-187.80208;;-212.11497;;-233.28213;;-249.95582;;-261.98917;;-270.64796;;-277.77082;;-284.87098;;-292.74591;;-301.54513;;-311.03985;;-320.87167;;-330.64601;;-339.96834;;-348.65222;;-356.92473;;-365.20142;;-373.60052;;-381.78902;;-389.28062;;-395.89473;;-402.13968;;-409.16049;;-417.86151;;-427.77013;;-437.01684;;-443.7726;;-447.6257;;-449.51327;;-450.56159;;-451.21413;;-451.39852;;-451.23747;;-451.26274;;-451.87087;;-452.85054;;-453.59102;;-453.59102
-20.816453;;-21.062699;;-21.00488;;-21.449305;;-22.484663;;-23.563629;;-24.152608;;-24.235029;;-24.11046;;-23.920162;;-23.679433;;-23.461003;;-23.400066;;-23.638208;;-24.372588;;-26.04763;;-28.943509;;-32.920139;;-38.024795;;-44.783381;;-53.8053;;-65.452772;;-80.066469;;-97.850769;;-118.62203;;-142.08084;;-167.32912;;-192.52301;;-215.21317;;-233.93026;;-248.20976;;-258.2653;;-265.4415;;-271.96661;;-279.66213;;-288.87313;;-298.83104;;-308.78539;;-318.54524;;-328.14106;;-337.42251;;-346.17595;;-354.45335;;-362.53764;;-370.5868;;-378.44471;;-385.81057;;-392.59082;;-399.21163;;-406.58143;;-415.3775;;-425.1098;;-434.14558;;-440.97334;;-445.33391;;-448.04259;;-449.95093;;-451.29834;;-451.96344;;-452.05343;;-452.03434;;-452.32421;;-452.91571;;-453.41855;;-453.41855
-20.311641;;-20.558384;;-20.586247;;-21.113548;;-22.161643;;-23.199531;;-23.754087;;-23.860284;;-23.825465;;-23.779329;;-23.722252;;-23.715757;;-23.887351;;-24.336588;;-25.165895;;-26.678492;;-29.297876;;-33.180738;;-38.637358;;-46.095778;;-55.875266;;-68.304846;;-83.742071;;-102.24924;;-123.71705;;-147.73993;;-173.1625;;-197.67109;;-218.51159;;-234.87104;;-247.05103;;-255.49011;;-261.56006;;-267.75506;;-276.0566;;-286.35512;;-297.09945;;-307.17834;;-316.67939;;-326.09647;;-335.47852;;-344.46718;;-352.79929;;-360.56111;;-368.04478;;-375.47361;;-382.86376;;-390.13213;;-397.38624;;-405.07948;;-413.61665;;-422.65822;;-431.08868;;-437.891;;-442.87699;;-446.4984;;-449.19473;;-451.08139;;-452.1442;;-452.5402;;-452.63455;;-452.79319;;-453.14159;;-453.47617;;-453.47617
-19.845118;;-20.092543;;-20.210938;;-20.84031;;-21.957259;;-23.047779;;-23.633006;;-23.715736;;-23.642421;;-23.633229;;-23.718212;;-23.906966;;-24.266143;;-24.860251;;-25.745494;;-27.129102;;-29.530241;;-33.651677;;-39.778378;;-48.022968;;-58.627327;;-71.927789;;-88.164758;;-107.35959;;-129.42734;;-153.80891;;-179.07064;;-202.53495;;-221.63509;;-236.29088;;-247.24124;;-255.03328;;-260.93014;;-267.25862;;-275.81499;;-286.26539;;-296.88565;;-306.60104;;-315.73745;;-325.04298;;-334.632;;-343.94014;;-352.35668;;-359.78487;;-366.69032;;-373.67361;;-381.0131;;-388.59219;;-396.22292;;-403.99272;;-412.13927;;-420.53049;;-428.51983;;-435.43335;;-440.99797;;-445.27206;;-448.39894;;-450.5176;;-451.8084;;-452.53208;;-452.98547;;-453.40364;;-453.85486;;-454.19494;;-454.19494
-19.429257;;-19.677618;;-19.836497;;-20.50424;;-21.66343;;-22.839111;;-23.520576;;-23.619048;;-23.502025;;-23.503716;;-23.70049;;-24.046888;;-24.544107;;-25.236424;;-26.166279;;-27.491104;;-30.070545;;-34.947721;;-41.907636;;-51.031171;;-62.576405;;-76.820977;;-93.840994;;-113.72305;;-136.259;;-160.67094;;-185.23064;;-207.2085;;-224.80519;;-238.44141;;-248.9521;;-256.92803;;-263.43123;;-270.24906;;-278.68594;;-288.4133;;-298.11862;;-307.10233;;-315.81097;;-324.99461;;-334.73397;;-344.29614;;-352.80178;;-360.03071;;-366.56353;;-373.17229;;-380.21451;;-387.58328;;-395.05565;;-402.63465;;-410.51586;;-418.68327;;-426.6838;;-433.87909;;-439.80442;;-444.30485;;-447.49299;;-449.6371;;-451.06753;;-452.12679;;-453.07598;;-453.98193;;-454.73377;;-455.17307;;-455.17307
-19.057726;;-19.306806;;-19.444773;;-20.048997;;-21.158513;;-22.380781;;-23.209725;;-23.460437;;-23.431098;;-23.493413;;-23.767927;;-24.209694;;-24.798752;;-25.563853;;-26.533446;;-27.953575;;-31.519928;;-37.380104;;-45.337041;;-55.538529;;-68.261242;;-83.577248;;-101.60511;;-122.27631;;-145.11313;;-168.97709;;-191.90478;;-211.799;;-227.96213;;-240.93805;;-251.37464;;-259.79815;;-267.08192;;-274.46524;;-282.71487;;-291.54752;;-300.19523;;-308.39009;;-316.61262;;-325.51005;;-335.13866;;-344.72531;;-353.28211;;-360.52332;;-367.00455;;-373.4023;;-379.98197;;-386.72877;;-393.65485;;-400.92288;;-408.73545;;-417.03191;;-425.29626;;-432.75102;;-438.77956;;-443.21882;;-446.31637;;-448.47131;;-450.07904;;-451.50633;;-452.95407;;-454.3081;;-455.29558;;-455.78663;;-455.78663
-18.739066;;-18.988499;;-19.095893;;-19.596379;;-20.596011;;-21.813764;;-22.802444;;-23.315799;;-23.505393;;-23.679049;;-23.997316;;-24.481362;;-25.135025;;-25.962348;;-26.969708;;-29.055506;;-33.864185;;-40.803878;;-49.907563;;-61.413706;;-75.49146;;-92.204395;;-111.57423;;-133.24265;;-156.21547;;-178.66356;;-198.76271;;-215.97404;;-230.55762;;-242.93597;;-253.40247;;-262.25625;;-270.16782;;-278.01463;;-286.21243;;-294.49228;;-302.43262;;-310.02884;;-317.74392;;-326.13053;;-335.28657;;-344.57061;;-353.07548;;-360.47597;;-367.15234;;-373.53405;;-379.75176;;-385.91627;;-392.33369;;-399.36675;;-407.19006;;-415.59563;;-423.9511;;-431.42528;;-437.40221;;-441.78263;;-444.89936;;-447.19622;;-449.07774;;-450.8912;;-452.74206;;-454.36684;;-455.42889;;-455.89188;;-455.89188
-18.416221;;-18.665293;;-18.805014;;-19.276054;;-20.200392;;-21.408799;;-22.544559;;-23.331578;;-23.767011;;-24.05892;;-24.405683;;-24.918067;;-25.63343;;-26.516828;;-27.613173;;-30.895106;;-36.691971;;-44.662026;;-54.934992;;-67.795882;;-83.309175;;-101.5774;;-122.45469;;-145.22383;;-168.15286;;-188.40703;;-205.08131;;-219.45222;;-232.39036;;-244.19045;;-254.79097;;-264.14057;;-272.58912;;-280.74523;;-288.90683;;-296.89636;;-304.47757;;-311.72101;;-318.98914;;-326.7233;;-335.1095;;-343.79077;;-352.08783;;-359.62912;;-366.54253;;-373.04389;;-379.21958;;-385.26457;;-391.59799;;-398.61159;;-406.37948;;-414.58293;;-422.62663;;-429.84476;;-435.75729;;-440.27783;;-443.65824;;-446.24781;;-448.39822;;-450.4392;;-452.4582;;-454.173;;-455.25683;;-455.71322;;-455.71322
-17.910132;;-17.910132;;-18.438275;;-19.026934;;-19.981367;;-21.222613;;-22.494442;;-23.512453;;-24.160962;;-24.566421;;-24.957361;;-25.512816;;-26.283783;;-27.188034;;-28.487316;;-32.703709;;-39.266552;;-48.074041;;-59.33405;;-73.310436;;-90.048971;;-109.63885;;-131.78581;;-155.44098;;-178.14953;;-196.30276;;-210.26097;;-222.42855;;-234.057;;-245.42976;;-256.26534;;-266.17279;;-275.09614;;-283.36942;;-291.32106;;-299.00508;;-306.35783;;-313.41099;;-320.3226;;-327.36929;;-334.84255;;-342.74141;;-350.66278;;-358.18319;;-365.21829;;-371.91259;;-378.41894;;-384.92409;;-391.69095;;-398.90171;;-406.49091;;-414.18192;;-421.62837;;-428.47374;;-434.40404;;-439.27094;;-443.10328;;-446.00497;;-448.19582;;-450.06627;;-451.90976;;-453.6137;;-454.83593;;-455.4266;;-455.4266
-17.121572;;-17.121572;;-17.875005;;-18.708063;;-19.80022;;-21.126254;;-22.529953;;-23.745154;;-24.590366;;-25.128416;;-25.594374;;-26.194394;;-26.969576;;-27.795542;;-29.198527;;-33.850745;;-40.838946;;-50.123932;;-61.943708;;-76.528196;;-93.937739;;-114.23332;;-137.03379;;-161.10597;;-183.62856;;-200.91042;;-213.87298;;-225.13449;;-236.15977;;-247.34759;;-258.37787;;-268.6716;;-277.87126;;-286.09011;;-293.71362;;-301.03893;;-308.15038;;-314.99081;;-321.49197;;-327.79985;;-334.34149;;-341.42969;;-348.86902;;-356.21466;;-363.3044;;-370.32471;;-377.49333;;-384.86927;;-392.38169;;-399.89075;;-407.2431;;-414.35417;;-421.21228;;-427.74787;;-433.76638;;-439.03308;;-443.31175;;-446.38988;;-448.32915;;-449.67583;;-451.10491;;-452.773;;-454.25576;;-455.09608;;-455.09608
-16.223514;;-16.223514;;-17.221954;;-18.339305;;-19.625201;;-21.063905;;-22.588033;;-23.975944;;-25.016197;;-25.710333;;-26.261953;;-26.867091;;-27.546115;;-28.152858;;-29.370547;;-34.064235;;-41.103691;;-50.436595;;-62.29598;;-76.8874;;-94.277511;;-114.51897;;-137.22598;;-161.19466;;-183.77884;;-201.74135;;-215.51781;;-227.24073;;-238.42376;;-249.65243;;-260.72717;;-271.09749;;-280.34738;;-288.49295;;-295.89777;;-302.92348;;-309.66767;;-315.96248;;-321.64707;;-326.97786;;-332.6382;;-339.09907;;-346.17067;;-353.40995;;-360.7283;;-368.36983;;-376.47871;;-384.87207;;-393.15248;;-400.96088;;-408.17103;;-414.91311;;-421.40898;;-427.74867;;-433.80956;;-439.30902;;-443.83371;;-446.95716;;-448.63758;;-449.52858;;-450.573;;-452.1385;;-453.76904;;-454.78266;;-454.78266
-15.530721;;-15.530721;;-16.736874;;-18.086661;;-19.554003;;-21.09502;;-22.706531;;-24.220585;;-25.424044;;-26.264665;;-26.887732;;-27.451726;;-27.953447;;-28.25824;;-29.102889;;-33.593342;;-40.421135;;-49.489994;;-61.008226;;-75.163824;;-92.018859;;-111.63426;;-133.6762;;-157.11471;;-179.8084;;-199.17835;;-214.8146;;-227.93804;;-239.87313;;-251.36541;;-262.43722;;-272.75097;;-282.03314;;-290.28069;;-297.71146;;-304.52355;;-310.63944;;-315.74493;;-319.82837;;-323.71501;;-328.60205;;-334.91045;;-342.09279;;-349.60679;;-357.52876;;-366.13509;;-375.34057;;-384.67057;;-393.5645;;-401.66616;;-408.94701;;-415.63163;;-421.99854;;-428.18527;;-434.11457;;-439.53185;;-444.04757;;-447.24767;;-449.02908;;-449.91202;;-450.77255;;-452.08537;;-453.5571;;-454.53161;;-454.53161
-15.202847;;-15.202847;;-16.292425;;-18.036686;;-19.631553;;-21.23649;;-22.874499;;-24.431251;;-25.719673;;-26.667701;;-27.362449;;-27.905185;;-28.268564;;-28.359325;;-28.828178;;-32.940883;;-39.409168;;-48.055756;;-59.045333;;-72.553417;;-88.618135;;-107.30976;;-128.36109;;-150.95027;;-173.46969;;-193.96961;;-211.49497;;-226.34898;;-239.43378;;-251.49174;;-262.77595;;-273.24958;;-282.83938;;-291.50756;;-299.24142;;-305.94687;;-311.23254;;-314.58656;;-316.35802;;-318.38742;;-322.66869;;-329.40378;;-337.30197;;-345.50399;;-354.25696;;-363.89704;;-374.09104;;-384.13263;;-393.48374;;-401.93361;;-409.49856;;-416.33385;;-422.65868;;-428.60564;;-434.13648;;-439.14043;;-443.48981;;-446.94848;;-449.27069;;-450.57267;;-451.43264;;-452.41468;;-453.54642;;-454.35789;;-454.35789
-15.060119;;-15.060119;;-16.228824;;-18.068935;;-19.755205;;-21.386964;;-22.978664;;-24.478419;;-25.764135;;-26.791499;;-27.606004;;-28.242401;;-28.650761;;-28.791547;;-29.11173;;-32.528129;;-38.49299;;-46.609497;;-56.962512;;-69.733368;;-84.901257;;-102.52918;;-122.40586;;-143.8869;;-165.78728;;-186.66564;;-205.45661;;-221.86017;;-236.25255;;-249.1943;;-261.09325;;-272.19118;;-282.56647;;-292.09623;;-300.52046;;-307.44306;;-312.14393;;-313.9385;;-313.59407;;-313.98678;;-317.8603;;-325.15196;;-333.79465;;-342.55111;;-351.81033;;-362.04299;;-372.81365;;-383.31842;;-393.10053;;-402.04044;;-410.06484;;-417.14523;;-423.38345;;-428.87745;;-433.67579;;-437.98999;;-442.13145;;-446.02681;;-449.1188;;-451.0083;;-451.99321;;-452.75876;;-453.63253;;-454.31381;;-454.31381
-14.806537;;-14.806537;;-16.033971;;-17.953052;;-19.732996;;-21.397185;;-22.899399;;-24.279444;;-25.522734;;-26.639819;;-27.650848;;-28.530392;;-29.215176;;-29.707584;;-30.337933;;-32.782259;;-38.000143;;-45.395391;;-54.944887;;-66.81312;;-80.99466;;-97.455932;;-116.03525;;-136.23397;;-157.17904;;-177.80253;;-197.1471;;-214.65205;;-230.26293;;-244.26772;;-257.11505;;-269.2405;;-280.8213;;-291.65574;;-301.27735;;-309.01999;;-313.94524;;-315.37633;;-314.39105;;-314.27156;;-317.91748;;-325.09436;;-333.51446;;-341.91049;;-350.81958;;-360.87291;;-371.70647;;-382.52292;;-392.84496;;-402.45876;;-411.08851;;-418.47806;;-424.56216;;-429.38958;;-433.20339;;-436.69166;;-440.61786;;-444.93645;;-448.70519;;-451.11657;;-452.3189;;-453.07549;;-453.85692;;-454.4681;;-454.4681
-14.397175;;-14.397175;;-15.646956;;-17.606894;;-19.465359;;-21.199318;;-22.63243;;-23.902225;;-25.126845;;-26.365268;;-27.617925;;-28.826412;;-29.930215;;-30.954238;;-32.16358;;-34.335338;;-38.516365;;-44.853965;;-53.306197;;-63.96243;;-76.973687;;-92.201588;;-109.4742;;-128.42532;;-148.41166;;-168.59668;;-188.1344;;-206.38305;;-223.02126;;-238.07679;;-251.93376;;-265.12294;;-277.92872;;-290.1778;;-301.29566;;-310.39853;;-316.46494;;-319.02499;;-319.27164;;-320.04012;;-323.59586;;-329.68606;;-336.5928;;-343.5639;;-351.32043;;-360.59616;;-371.16549;;-382.24849;;-393.19291;;-403.53024;;-412.75579;;-420.41784;;-426.29888;;-430.4528;;-433.39614;;-436.23091;;-439.94629;;-444.39249;;-448.40371;;-451.06195;;-452.49122;;-453.39949;;-454.20875;;-454.78161;;-454.78161
-13.983592;;-13.983592;;-15.221454;;-17.178214;;-19.075191;;-20.891356;;-22.320868;;-23.535996;;-24.784687;;-26.14872;;-27.613628;;-29.1192;;-30.628646;;-32.183686;;-33.985621;;-36.476047;;-40.160925;;-45.387731;;-52.502727;;-61.763721;;-73.334375;;-87.328649;;-103.52196;;-121.59247;;-141.04015;;-161.13106;;-181.02135;;-199.97428;;-217.49413;;-233.42605;;-248.05249;;-261.92417;;-275.46594;;-288.68061;;-301.03071;;-311.51323;;-319.11382;;-323.59997;;-326.05529;;-328.39167;;-331.92342;;-336.51458;;-341.41606;;-346.63838;;-353.07306;;-361.46911;;-371.69468;;-382.947;;-394.33695;;-405.1191;;-414.62124;;-422.30733;;-427.93988;;-431.69444;;-434.31244;;-436.98452;;-440.53854;;-444.66271;;-448.29964;;-450.79761;;-452.36971;;-453.53727;;-454.50309;;-455.10679;;-455.10679
-13.705932;;-13.705932;;-14.928562;;-16.874613;;-18.793518;;-20.678911;;-22.158275;;-23.360642;;-24.640334;;-26.081729;;-27.660886;;-29.340874;;-31.127098;;-33.084076;;-35.362741;;-38.215281;;-41.864842;;-46.445386;;-52.329828;;-60.243659;;-70.615846;;-83.583957;;-99.187267;;-117.04655;;-136.68764;;-157.38469;;-178.1551;;-198.01922;;-216.28847;;-232.75273;;-247.69256;;-261.67604;;-275.26108;;-288.67805;;-301.53379;;-312.85378;;-321.70854;;-327.96837;;-332.40836;;-336.07428;;-339.59068;;-343.04876;;-346.51163;;-350.53223;;-356.05842;;-363.78717;;-373.61417;;-384.71078;;-396.03612;;-406.68862;;-415.94917;;-423.33039;;-428.71866;;-432.46923;;-435.37941;;-438.3627;;-441.80925;;-445.29337;;-448.14612;;-450.21792;;-451.86546;;-453.36309;;-454.60923;;-455.33608;;-455.33608
-13.605996;;-13.605996;;-14.82939;;-16.78361;;-18.732548;;-20.677825;;-22.213828;;-23.394858;;-24.666217;;-26.113379;;-27.701595;;-29.424837;;-31.33959;;-33.533906;;-36.120325;;-39.227302;;-42.91316;;-47.1555;;-52.197532;;-59.111793;;-68.806106;;-81.425062;;-97.002003;;-115.37112;;-135.90838;;-157.87479;;-180.06628;;-201.06676;;-219.90613;;-236.45635;;-251.18546;;-264.76974;;-277.86889;;-290.86054;;-303.50484;;-314.9983;;-324.57417;;-332.04667;;-337.75453;;-342.17145;;-345.70715;;-348.74209;;-351.74307;;-355.39027;;-360.52358;;-367.74053;;-376.94426;;-387.35611;;-397.96152;;-407.88714;;-416.4925;;-423.41194;;-428.66721;;-432.69338;;-436.14943;;-439.53476;;-442.84367;;-445.67652;;-447.81219;;-449.5388;;-451.28442;;-453.08997;;-454.60452;;-455.46294;;-455.46294
-13.594187;;-13.594187;;-14.826548;;-16.544956;;-18.778474;;-20.772067;;-22.349492;;-23.48016;;-24.701319;;-26.111022;;-27.656458;;-29.348967;;-31.289866;;-33.587994;;-36.322653;;-39.537796;;-43.195311;;-47.178528;;-51.688351;;-58.12576;;-67.758453;;-80.609658;;-96.682653;;-115.89948;;-137.60776;;-161.07031;;-184.90893;;-207.23254;;-226.63158;;-243.02559;;-257.17861;;-270.00878;;-282.31305;;-294.54959;;-306.60779;;-317.92243;;-327.89539;;-336.1623;;-342.60924;;-347.42258;;-351.12921;;-354.38005;;-357.70317;;-361.58569;;-366.62341;;-373.29127;;-381.54282;;-390.7686;;-400.14344;;-408.96256;;-416.7445;;-423.24516;;-428.50741;;-432.84295;;-436.65067;;-440.14359;;-443.2054;;-445.60494;;-447.42024;;-449.10001;;-450.99519;;-452.9736;;-454.58759;;-455.47888;;-455.47888
-13.494241;;-13.494241;;-14.719848;;-16.433192;;-18.677153;;-20.703362;;-22.346904;;-23.451927;;-24.622315;;-25.993637;;-27.499001;;-29.14809;;-31.065552;;-33.373331;;-36.1271;;-39.318597;;-42.852969;;-46.580555;;-50.762389;;-57.218306;;-67.175509;;-80.488217;;-97.178646;;-117.19578;;-139.95685;;-164.77398;;-190.19827;;-213.97356;;-234.14325;;-250.47979;;-263.98162;;-275.87986;;-287.19663;;-298.52272;;-309.92213;;-321.0574;;-331.38138;;-340.25798;;-347.22004;;-352.38754;;-356.51615;;-360.42983;;-364.52307;;-368.93908;;-373.96957;;-379.99107;;-387.08302;;-394.88808;;-402.838;;-410.44359;;-417.40036;;-423.54413;;-428.81254;;-433.25287;;-437.01284;;-440.24632;;-442.9877;;-445.21248;;-447.07952;;-448.9378;;-450.96553;;-452.94295;;-454.4689;;-455.28485;;-455.28485
-13.215492;;-13.215492;;-14.406754;;-16.07881;;-18.30078;;-20.345481;;-22.112863;;-23.290324;;-24.448876;;-25.79891;;-27.285755;;-28.908423;;-30.782968;;-33.028888;;-35.694585;;-38.753886;;-42.089672;;-45.564439;;-49.601638;;-56.396604;;-66.741798;;-80.453925;;-97.611647;;-118.1749;;-141.67298;;-167.49128;;-194.20798;;-219.39683;;-240.59742;;-257.22268;;-270.328;;-281.39867;;-291.71495;;-302.10317;;-312.89375;;-323.93163;;-334.58245;;-343.93285;;-351.33984;;-356.98481;;-361.77556;;-366.55357;;-371.50899;;-376.46076;;-381.45617;;-386.84146;;-392.85064;;-399.35177;;-406.00069;;-412.51317;;-418.73191;;-424.49979;;-429.58678;;-433.80678;;-437.19629;;-440.00936;;-442.48869;;-444.72519;;-446.79239;;-448.83267;;-450.87607;;-452.71637;;-454.07205;;-454.78573;;-454.78573
-12.852724;;-12.852724;;-13.996928;;-15.610816;;-17.79518;;-19.848131;;-21.749625;;-23.089094;;-24.280023;;-25.628088;;-27.120051;;-28.742819;;-30.568587;;-32.688994;;-35.158624;;-37.973356;;-41.045429;;-44.29251;;-48.391685;;-55.626461;;-66.269038;;-80.21479;;-97.605418;;-118.40071;;-142.24777;;-168.60651;;-196.14205;;-222.45303;;-244.80431;;-262.17654;;-275.44998;;-286.16709;;-295.78939;;-305.41726;;-315.67782;;-326.54962;;-337.30351;;-346.9085;;-354.746;;-361.04488;;-366.62899;;-372.17052;;-377.69996;;-382.90644;;-387.77247;;-392.67611;;-397.92992;;-403.49086;;-409.1565;;-414.82505;;-420.43974;;-425.7801;;-430.46897;;-434.24273;;-437.19085;;-439.68908;;-442.06894;;-444.39799;;-446.60486;;-448.66833;;-450.57392;;-452.21212;;-453.4232;;-454.08243;;-454.08243
-12.551879;;-12.551879;;-13.656758;;-15.221516;;-17.371731;;-19.423434;;-21.409939;;-22.916842;;-24.171537;;-25.544609;;-27.069955;;-28.718161;;-30.493207;;-32.437354;;-34.616523;;-37.08636;;-39.835731;;-42.887301;;-47.232679;;-54.856861;;-65.677456;;-79.685811;;-97.070846;;-117.76499;;-141.52332;;-167.86822;;-195.59283;;-222.51126;;-245.98853;;-264.6503;;-278.90928;;-290.0621;;-299.60245;;-308.85839;;-318.69293;;-329.19274;;-339.68553;;-349.29544;;-357.57394;;-364.65924;;-371.00282;;-376.96504;;-382.5588;;-387.62702;;-392.27776;;-396.91254;;-401.77863;;-406.77684;;-411.77409;;-416.82075;;-421.927;;-426.81219;;-431.05026;;-434.44067;;-437.17304;;-439.63657;;-442.0819;;-444.46874;;-446.63994;;-448.54687;;-450.23025;;-451.68236;;-452.8083;;-453.45775;;-453.45775
-12.318088;;-12.318088;;-13.389288;;-14.910986;;-17.022464;;-19.055276;;-21.077119;;-22.718158;;-24.06718;;-25.498551;;-27.078372;;-28.759792;;-30.481205;;-32.232081;;-34.092316;;-36.190802;;-38.610494;;-41.498057;;-46.171269;;-54.072196;;-64.968306;;-78.908804;;-96.097691;;-116.39486;;-139.65059;;-165.42665;;-192.67936;;-219.61702;;-244.06981;;-264.50089;;-280.58567;;-293.04099;;-303.20783;;-312.53947;;-322.06095;;-332.01389;;-341.99071;;-351.47339;;-360.19383;;-368.03678;;-374.92023;;-380.88977;;-386.11713;;-390.80811;;-395.25652;;-399.78739;;-404.46632;;-409.09484;;-413.59367;;-418.12407;;-422.74452;;-427.18647;;-431.09845;;-434.40027;;-437.30693;;-440.05787;;-442.68028;;-445.01496;;-446.95646;;-448.5973;;-450.08387;;-451.42756;;-452.50471;;-453.13762;;-453.13762
-12.021097;;-12.021097;;-13.045098;;-14.503906;;-16.296729;;-18.533767;;-20.565206;;-22.343893;;-23.821833;;-25.318072;;-26.933062;;-28.622624;;-30.29092;;-31.891011;;-33.508173;;-35.325586;;-37.491582;;-40.256239;;-45.215632;;-53.286028;;-64.203633;;-78.044793;;-94.975132;;-114.7827;;-137.36104;;-162.27831;;-188.66304;;-215.21473;;-240.37531;;-262.61946;;-280.91996;;-295.23167;;-306.52782;;-316.2405;;-325.53446;;-334.92264;;-344.39334;;-353.77639;;-362.85886;;-371.21195;;-378.30387;;-384.00002;;-388.72255;;-393.05178;;-397.38565;;-401.86458;;-406.35261;;-410.61785;;-414.66831;;-418.73491;;-422.89497;;-426.93441;;-430.64156;;-434.07593;;-437.4331;;-440.7012;;-443.58317;;-445.80145;;-447.42524;;-448.81071;;-450.20956;;-451.55157;;-452.60991;;-453.2067;;-453.2067
-11.605412;;-11.605412;;-12.561778;;-13.929354;;-15.622353;;-17.780535;;-19.796808;;-21.700886;;-23.302808;;-24.804129;;-26.368395;;-28.007129;;-29.636803;;-31.186988;;-32.72263;;-34.434602;;-36.482145;;-39.169546;;-44.32679;;-52.503623;;-63.452904;;-77.271378;;-94.055374;;-113.60009;;-135.7723;;-160.10365;;-185.80344;;-211.93617;;-237.43396;;-260.92935;;-281.03782;;-297.08864;;-309.56195;;-319.71695;;-328.85101;;-337.82383;;-346.9861;;-356.32462;;-365.54006;;-374.00925;;-381.03602;;-386.45707;;-390.84542;;-394.96408;;-399.2056;;-403.54026;;-407.73034;;-411.60785;;-415.27939;;-418.98779;;-422.77245;;-426.43013;;-429.8585;;-433.29512;;-437.01946;;-440.82613;;-444.05755;;-446.28088;;-447.75092;;-449.07765;;-450.56218;;-452.01072;;-453.09673;;-453.66882;;-453.66882
-11.158146;;-11.158146;;-12.040895;;-13.308241;;-14.888668;;-16.947777;;-18.909598;;-20.852293;;-22.492727;;-23.873716;;-25.259161;;-26.774323;;-28.386192;;-30.003939;;-31.63706;;-33.424077;;-35.483712;;-38.157593;;-43.523136;;-51.83358;;-62.893122;;-76.832362;;-93.732322;;-113.43511;;-135.80078;;-160.30779;;-186.05775;;-212.08228;;-237.52557;;-261.32328;;-282.18834;;-299.20457;;-312.44547;;-322.92824;;-332.01865;;-340.8319;;-349.88962;;-359.12626;;-368.13341;;-376.33929;;-383.19191;;-388.55889;;-392.92293;;-396.95882;;-401.00215;;-405.00326;;-408.80023;;-412.35826;;-415.82856;;-419.37062;;-422.90649;;-426.15469;;-429.04169;;-432.02645;;-435.67506;;-439.79725;;-443.44478;;-445.9702;;-447.6814;;-449.28005;;-451.01801;;-452.61174;;-453.72633;;-454.27805;;-454.27805
-10.788761;;-10.788761;;-11.607894;;-12.786852;;-14.263359;;-16.216733;;-18.083373;;-19.953359;;-21.491063;;-22.619234;;-23.735655;;-25.087361;;-26.689892;;-28.442697;;-30.28728;;-32.265696;;-34.418886;;-37.205224;;-42.933173;;-51.499502;;-62.816959;;-77.077592;;-94.384469;;-114.65525;;-137.77522;;-163.17938;;-189.7349;;-216.02355;;-241.07492;;-264.25592;;-284.74877;;-301.774;;-315.23999;;-325.96489;;-335.24255;;-344.18447;;-353.24235;;-362.22208;;-370.72626;;-378.44656;;-385.12195;;-390.62189;;-395.15674;;-399.14597;;-402.87302;;-406.416;;-409.82254;;-413.21121;;-416.7083;;-420.30153;;-423.72711;;-426.564;;-428.70449;;-430.82438;;-433.89923;;-437.97096;;-441.96567;;-445.0028;;-447.25694;;-449.31311;;-451.29838;;-452.92055;;-453.95855;;-454.44461;;-454.44461
-10.5294;;-10.5294;;-11.297847;;-12.404125;;-13.78993;;-15.637456;;-17.383239;;-19.106811;;-20.415408;;-21.224686;;-22.074469;;-23.283254;;-24.883334;;-26.768902;;-28.836676;;-31.031593;;-33.311927;;-36.446268;;-42.6798;;-51.629021;;-63.339619;;-78.080967;;-95.979194;;-117.0395;;-141.17001;;-167.75953;;-195.41613;;-222.07683;;-246.4438;;-268.42752;;-287.85734;;-304.30119;;-317.72235;;-328.80039;;-338.578;;-347.88111;;-356.95107;;-365.55692;;-373.47595;;-380.70666;;-387.21437;;-392.82726;;-397.4953;;-401.40685;;-404.82526;;-407.98814;;-411.13875;;-414.49711;;-418.13296;;-421.86512;;-425.25909;;-427.77971;;-429.28339;;-430.56544;;-432.89699;;-436.60012;;-440.66469;;-444.06872;;-446.75989;;-449.09769;;-451.09339;;-452.5308;;-453.36711;;-453.74538;;-453.74538
-10.321827;;-10.321827;;-11.044351;;-12.083668;;-13.383436;;-15.125254;;-16.742863;;-18.300095;;-19.352229;;-19.899036;;-20.575521;;-21.706838;;-23.309387;;-25.272532;;-27.483474;;-29.834889;;-32.247191;;-35.950217;;-42.63989;;-51.960633;;-64.057555;;-79.264093;;-97.719453;;-119.50614;;-144.54094;;-172.1621;;-200.74378;;-227.57604;;-251.03734;;-271.70772;;-290.03883;;-305.9366;;-319.46649;;-331.15012;;-341.64729;;-351.38392;;-360.44123;;-368.7178;;-376.23362;;-383.16289;;-389.53171;;-395.12921;;-399.79242;;-403.60882;;-406.85292;;-409.8622;;-412.94991;;-416.31566;;-419.95798;;-423.63371;;-426.88459;;-429.18742;;-430.40765;;-431.31077;;-433.16239;;-436.40703;;-440.21441;;-443.59325;;-446.327;;-448.58875;;-450.34963;;-451.50662;;-452.15394;;-452.46352;;-452.46352
-10.089654;;-10.089654;;-10.760602;;-11.725992;;-12.933369;;-14.320756;;-16.068047;;-17.498911;;-18.419718;;-18.860602;;-19.482006;;-20.590428;;-22.174561;;-24.128389;;-26.360193;;-28.76346;;-31.282015;;-35.465108;;-42.405018;;-51.912969;;-64.199083;;-79.635816;;-98.373299;;-120.54436;;-146.07249;;-174.26638;;-203.3466;;-230.09715;;-252.68695;;-272.41034;;-290.19142;;-306.10374;;-320.1759;;-332.67542;;-343.87877;;-353.94197;;-362.9781;;-371.12049;;-378.55145;;-385.42991;;-391.72973;;-397.26002;;-401.88787;;-405.68666;;-408.9265;;-411.96732;;-415.08484;;-418.35291;;-421.68017;;-424.88396;;-427.66603;;-429.64935;;-430.7697;;-431.71521;;-433.54562;;-436.59256;;-440.12387;;-443.26443;;-445.77432;;-447.77808;;-449.29356;;-450.30603;;-450.93433;;-451.27937;;-451.27937
-9.8287399;;-9.8287399;;-10.440168;;-11.323513;;-12.43368;;-13.722646;;-15.377183;;-16.755502;;-17.746319;;-18.273392;;-18.938449;;-20.022175;;-21.519201;;-23.363337;;-25.504858;;-27.862078;;-30.404259;;-34.718628;;-41.633012;;-51.050352;;-63.210293;;-78.500312;;-97.090098;;-119.13409;;-144.5795;;-172.76247;;-201.89727;;-228.55516;;-250.71501;;-270.19904;;-288.22934;;-304.87395;;-319.94367;;-333.36208;;-345.12785;;-355.36863;;-364.40692;;-372.6009;;-380.16078;;-387.12145;;-393.40449;;-398.91473;;-403.61474;;-407.55556;;-410.92661;;-414.0351;;-417.0986;;-420.07782;;-422.81002;;-425.20225;;-427.13439;;-428.3809;;-429.04821;;-429.99397;;-432.21098;;-435.70782;;-439.48382;;-442.62221;;-444.96979;;-446.78154;;-448.21159;;-449.29644;;-450.07915;;-450.53864;;-450.53864
-9.610317;;-9.610317;;-10.156795;;-10.960369;;-11.983902;;-13.199106;;-14.79652;;-16.180503;;-17.352774;;-18.093228;;-18.827776;;-19.845044;;-21.197912;;-22.884288;;-24.892073;;-27.155838;;-29.614913;;-33.677146;;-40.29427;;-49.351527;;-61.079656;;-75.861321;;-93.90152;;-115.35121;;-140.20585;;-167.89391;;-196.79252;;-223.63633;;-246.09665;;-266.06405;;-284.96653;;-302.82339;;-319.16214;;-333.54995;;-345.8147;;-356.19814;;-365.27257;;-373.55995;;-381.24678;;-388.25802;;-394.50589;;-400.01924;;-404.86215;;-409.04143;;-412.60333;;-415.73968;;-418.62894;;-421.22051;;-423.34135;;-424.8969;;-425.73248;;-425.63179;;-425.06221;;-425.57097;;-428.4696;;-433.2553;;-438.11305;;-441.75162;;-444.15542;;-445.88523;;-447.32505;;-448.56456;;-449.5431;;-450.12121;;-450.12121
-9.4968481;;-9.4968481;;-9.9781193;;-10.721325;;-11.686514;;-12.859334;;-14.429547;;-15.831244;;-17.127832;;-18.036139;;-18.797617;;-19.738563;;-20.977183;;-22.555782;;-24.469936;;-26.64884;;-28.983106;;-32.468398;;-38.55168;;-47.028431;;-58.08753;;-72.088524;;-89.291993;;-109.82334;;-133.74728;;-160.63999;;-189.17506;;-216.56806;;-240.13992;;-261.20621;;-281.31258;;-300.52028;;-318.16976;;-333.55217;;-346.37717;;-356.98733;;-366.14031;;-374.49006;;-382.23781;;-389.24304;;-395.39935;;-400.82385;;-405.68443;;-409.99114;;-413.6857;;-416.84111;;-419.59871;;-421.9485;;-423.73127;;-424.7206;;-424.4798;;-422.67411;;-420.3056;;-420.0015;;-423.67576;;-430.211;;-436.6451;;-441.08889;;-443.67315;;-445.3539;;-446.78818;;-448.13644;;-449.2604;;-449.92691;;-449.92691
-9.4582632;;-9.4582632;;-9.8969825;;-10.609504;;-11.546245;;-12.694598;;-14.245414;;-15.638895;;-16.948633;;-17.867662;;-18.593881;;-19.500231;;-20.728582;;-22.303588;;-24.19039;;-26.309616;;-28.539524;;-31.301047;;-36.59147;;-44.293435;;-54.500174;;-67.517375;;-83.677159;;-103.07097;;-125.8342;;-151.72589;;-179.79089;;-207.90047;;-233.2827;;-256.03353;;-277.56889;;-298.12009;;-317.02016;;-333.40742;;-346.89027;;-357.85414;;-367.19001;;-375.68097;;-383.55565;;-390.58712;;-396.59667;;-401.75422;;-406.35718;;-410.50733;;-414.15658;;-417.33841;;-420.15421;;-422.57575;;-424.39882;;-425.22488;;-424.32518;;-421.25446;;-417.45636;;-416.41319;;-420.53791;;-428.2857;;-435.84706;;-440.86535;;-443.56934;;-445.21602;;-446.66327;;-448.11753;;-449.38228;;-450.1423;;-450.1423
-9.4376841;;-9.4376841;;-9.8359467;;-10.520467;;-11.429529;;-12.547328;;-13.818002;;-15.422139;;-16.687371;;-17.539887;;-18.227529;;-19.168035;;-20.47862;;-22.120513;;-24.013148;;-26.070322;;-28.209612;;-30.477753;;-34.608957;;-41.367216;;-50.591915;;-62.491317;;-77.424767;;-95.535317;;-116.96889;;-141.67875;;-169.08467;;-197.7215;;-225.17032;;-250.1314;;-273.35443;;-295.29395;;-315.45921;;-332.93955;;-347.23378;;-358.74124;;-368.48592;;-377.35102;;-385.51908;;-392.62233;;-398.40803;;-403.12353;;-407.22238;;-410.94171;;-414.33626;;-417.50839;;-420.54154;;-423.29578;;-425.44195;;-426.50002;;-425.70204;;-422.6032;;-418.6613;;-417.37213;;-421.20453;;-428.70416;;-436.10365;;-441.01974;;-443.66574;;-445.32861;;-446.89265;;-448.54332;;-450.017;;-450.91244;;-450.91244
-9.4149957;;-9.4149957;;-9.6993869;;-10.311722;;-11.150723;;-12.194603;;-13.397859;;-14.942717;;-16.182039;;-17.068439;;-17.79823;;-18.807666;;-20.191298;;-21.87207;;-23.743364;;-25.741769;;-27.833412;;-29.984705;;-32.918575;;-38.598986;;-46.757019;;-57.491336;;-71.109965;;-87.895082;;-107.93817;;-131.35273;;-157.8708;;-186.56884;;-215.60125;;-242.86663;;-267.94339;;-291.35841;;-312.93935;;-331.80181;;-347.278;;-359.69856;;-370.17089;;-379.61367;;-388.11223;;-395.20068;;-400.65221;;-404.83995;;-408.34905;;-411.52661;;-414.55887;;-417.68067;;-420.98705;;-424.18919;;-426.80507;;-428.38924;;-428.39812;;-426.48834;;-423.70019;;-422.70221;;-425.55681;;-431.37726;;-437.31968;;-441.44896;;-443.86596;;-445.59698;;-447.36101;;-449.25541;;-450.94959;;-451.9779;;-451.9779
-9.4055675;;-9.4055675;;-9.5068662;;-9.9783921;;-10.691218;;-11.60847;;-12.705165;;-14.165015;;-15.397937;;-16.451578;;-17.307151;;-18.304951;;-19.580852;;-21.083504;;-22.816085;;-24.84033;;-27.080966;;-29.421015;;-31.942709;;-36.383018;;-43.475604;;-53.103954;;-65.482715;;-80.970762;;-99.696796;;-121.80403;;-147.24497;;-175.46975;;-205.13567;;-234.0954;;-260.88544;;-285.76539;;-308.92572;;-329.59958;;-346.86154;;-360.72418;;-372.16841;;-382.1156;;-390.69634;;-397.56131;;-402.63885;;-406.39303;;-409.43413;;-412.16932;;-414.9178;;-418.03597;;-421.62447;;-425.28032;;-428.41166;;-430.6396;;-431.69619;;-431.37873;;-430.20421;;-429.75363;;-431.47456;;-435.12074;;-439.07868;;-442.10884;;-444.21482;;-446.02998;;-447.98222;;-450.03502;;-451.82141;;-452.88655;;-452.88655
-9.4028623;;-9.4028623;;-9.4245652;;-9.6495212;;-10.20077;;-10.973239;;-11.939177;;-13.057752;;-14.517701;;-15.716792;;-16.728419;;-17.565195;;-18.452805;;-19.503798;;-20.982378;;-23.016959;;-25.536296;;-28.347357;;-31.247385;;-34.902764;;-41.060594;;-49.720951;;-61.041747;;-75.348428;;-92.916641;;-113.819;;-138.13421;;-165.54498;;-195.06701;;-224.84223;;-252.92696;;-279.07159;;-303.74071;;-326.41301;;-345.87234;;-361.50025;;-373.86023;;-383.93372;;-392.2185;;-398.75309;;-403.6457;;-407.28817;;-410.16893;;-412.73344;;-415.43914;;-418.69265;;-422.54196;;-426.53774;;-430.08359;;-432.84841;;-434.70925;;-435.56393;;-435.60083;;-435.61765;;-436.53638;;-438.49917;;-440.82866;;-442.9043;;-444.72204;;-446.59962;;-448.67857;;-450.77348;;-452.50488;;-453.49977;;-453.49977
-9.4016326;;-9.4016326;;-9.4083909;;-9.4611389;;-9.8021606;;-10.428937;;-11.267751;;-12.296332;;-13.463043;;-14.941743;;-16.053822;;-16.708139;;-17.07402;;-17.663497;;-18.917952;;-20.88149;;-23.477576;;-26.614116;;-30.081696;;-33.939446;;-39.512205;;-47.468285;;-57.992208;;-71.388683;;-88.0354;;-108.00973;;-131.41126;;-158.07067;;-187.24548;;-217.36252;;-246.3391;;-273.3697;;-299.03923;;-323.18822;;-344.43094;;-361.46011;;-374.318;;-384.1327;;-391.98064;;-398.37414;;-403.48824;;-407.46624;;-410.58179;;-413.31709;;-416.25224;;-419.76049;;-423.77785;;-427.87211;;-431.56341;;-434.58038;;-436.80332;;-438.1241;;-438.59924;;-438.71406;;-439.19033;;-440.36893;;-441.98067;;-443.63653;;-445.30967;;-447.20413;;-449.34711;;-451.4534;;-453.11427;;-454.02805;;-454.02805
-9.4011884;;-9.4011884;;-9.4028394;;-9.4144846;;-9.5310839;;-10.008483;;-10.72538;;-11.641821;;-12.720035;;-13.882001;;-15.228145;;-15.825549;;-15.719367;;-15.8881;;-16.995554;;-18.898103;;-21.47649;;-24.692529;;-28.472042;;-32.870714;;-38.562385;;-46.281596;;-56.412564;;-69.328763;;-85.451786;;-104.9758;;-127.97418;;-154.3599;;-183.52474;;-214.0335;;-243.66085;;-271.0514;;-296.79669;;-321.15036;;-342.82538;;-360.19638;;-373.00981;;-382.51952;;-390.196;;-396.82147;;-402.52801;;-407.20276;;-410.90917;;-414.11089;;-417.43013;;-421.17825;;-425.21197;;-429.17061;;-432.74006;;-435.71984;;-437.92227;;-439.12039;;-439.26886;;-438.87303;;-438.91988;;-440.07757;;-442.06089;;-444.11306;;-445.93768;;-447.80516;;-449.91449;;-452.01696;;-453.65774;;-454.53914;;-454.53914
-9.4010867;;-9.4010867;;-9.401334;;-9.4034925;;-9.4226041;;-9.6628413;;-10.219925;;-10.984168;;-11.916738;;-12.940599;;-13.926993;;-14.759064;;-14.473616;;-14.331137;;-15.423468;;-17.286429;;-19.811024;;-23.010197;;-26.932753;;-31.746746;;-37.892558;;-45.848422;;-56.071929;;-69.022687;;-85.184972;;-104.82402;;-128.05358;;-154.81181;;-184.5149;;-215.6787;;-245.75596;;-272.84596;;-297.57264;;-320.62366;;-341.13243;;-357.72459;;-370.18931;;-379.70308;;-387.66036;;-394.8108;;-401.25632;;-406.78694;;-411.30884;;-415.14623;;-418.84581;;-422.70684;;-426.6425;;-430.40726;;-433.78811;;-436.5949;;-438.55624;;-439.28814;;-438.58889;;-437.10493;;-436.45241;;-437.92625;;-441.06423;;-444.24565;;-446.56003;;-448.38237;;-450.30557;;-452.2791;;-453.84678;;-454.68831;;-454.68831
-9.4010752;;-9.4010752;;-9.4010936;;-9.4013644;;-9.4054815;;-9.4524336;;-9.7767569;;-10.35533;;-11.110187;;-11.970327;;-12.810462;;-13.327974;;-13.277695;;-13.086144;;-14.220178;;-15.78698;;-18.237791;;-21.399707;;-25.676379;;-30.7894;;-37.325392;;-45.677545;;-56.292695;;-69.668;;-86.279591;;-106.42238;;-130.29951;;-157.85606;;-188.46906;;-220.48554;;-250.84597;;-277.03763;;-299.86518;;-320.53588;;-338.88491;;-354.18452;;-366.38678;;-376.3265;;-384.95368;;-392.80738;;-400.01386;;-406.40642;;-411.78587;;-416.26362;;-420.25514;;-424.125;;-427.96211;;-431.63673;;-434.9217;;-437.55513;;-439.22157;;-439.46267;;-437.92531;;-435.31636;;-433.83918;;-435.4826;;-439.70707;;-444.05916;;-446.9398;;-448.71933;;-450.34041;;-452.00363;;-453.34279;;-454.06577;;-454.06577
-9.401075;;-9.401075;;-9.4010756;;-9.401102;;-9.4021383;;-9.4129834;;-9.4926749;;-9.8369567;;-10.391352;;-11.072197;;-11.76015;;-12.194981;;-11.936645;;-11.900996;;-13.036928;;-14.795492;;-17.183323;;-20.321761;;-24.650939;;-29.901567;;-36.643229;;-45.262816;;-56.21379;;-69.988972;;-87.002954;;-107.63236;;-132.14098;;-160.49627;;-192.05402;;-225.00727;;-255.70721;;-280.73616;;-301.23022;;-319.16735;;-335.25834;;-349.44117;;-361.72219;;-372.45722;;-382.06306;;-390.81459;;-398.83253;;-406.01677;;-412.12767;;-417.12186;;-421.32429;;-425.19618;;-429.00188;;-432.67923;;-435.93157;;-438.42792;;-439.89686;;-439.95191;;-438.17993;;-435.1718;;-433.22538;;-434.6349;;-439.01416;;-443.71383;;-446.8213;;-448.55098;;-449.8782;;-451.13939;;-452.13082;;-452.66665;;-452.66665
-9.401075;;-9.401075;;-9.401075;;-9.4010777;;-9.4012761;;-9.4037477;;-9.4203079;;-9.5100876;;-9.8308177;;-10.319592;;-10.847109;;-11.18475;;-10.981023;;-11.183921;;-12.301086;;-13.990323;;-16.293473;;-19.345572;;-23.596109;;-28.778079;;-35.45759;;-44.025995;;-54.943176;;-68.683403;;-85.674972;;-106.3446;;-131.0085;;-159.69481;;-191.82532;;-225.61168;;-257.06809;;-281.39323;;-299.8659;;-315.51248;;-329.85386;;-343.3446;;-355.99988;;-367.77353;;-378.59848;;-388.42567;;-397.27859;;-405.11811;;-411.76425;;-417.14364;;-421.54338;;-425.47499;;-429.28989;;-432.95654;;-436.16256;;-438.59575;;-440.08672;;-440.39664;;-439.16256;;-436.75052;;-435.00007;;-435.93573;;-439.46619;;-443.49853;;-446.34373;;-447.97939;;-449.08237;;-449.96581;;-450.60638;;-450.95579;;-450.95579
-9.401075;;-9.401075;;-9.401075;;-9.4010752;;-9.4010946;;-9.4014332;;-9.4044973;;-9.4207939;;-9.4920442;;-9.7518648;;-10.116226;;-10.360373;;-10.211796;;-10.586069;;-11.643943;;-13.214052;;-15.358918;;-18.215018;;-21.9729;;-27.126098;;-33.464332;;-41.620189;;-52.048473;;-65.229707;;-81.600376;;-101.61563;;-125.64562;;-153.8146;;-185.71083;;-219.81931;;-252.45453;;-277.53277;;-295.33921;;-309.83157;;-323.13328;;-336.15646;;-349.15696;;-361.94796;;-374.03768;;-384.9673;;-394.59278;;-402.95295;;-410.01235;;-415.7494;;-420.4173;;-424.49552;;-428.33764;;-431.95237;;-435.11891;;-437.63328;;-439.40284;;-440.28215;;-440.01032;;-438.76876;;-437.7387;;-438.34725;;-440.73878;;-443.66912;;-445.96291;;-447.41787;;-448.34361;;-448.96852;;-449.39251;;-449.63965;;-449.63965
-9.401075;;-9.401075;;-9.401075;;-9.401075;;-9.4010753;;-9.4010955;;-9.4014513;;-9.4038965;;-9.4131925;;-9.4456391;;-9.595863;;-9.7459517;;-9.6550635;;-10.058141;;-11.0106;;-12.415996;;-14.342037;;-16.917812;;-20.320995;;-25.030554;;-30.814995;;-38.280708;;-47.858391;;-60.029051;;-75.230082;;-93.920366;;-116.51636;;-143.24715;;-173.91959;;-207.45821;;-240.98462;;-268.51256;;-287.66141;;-302.4765;;-315.47232;;-328.08092;;-341.15084;;-354.6641;;-367.82367;;-379.78013;;-390.20111;;-399.151;;-406.70185;;-412.8863;;-417.92508;;-422.239;;-426.15641;;-429.74195;;-432.93031;;-435.6679;;-437.88722;;-439.43516;;-440.13608;;-440.10152;;-439.98986;;-440.62717;;-442.2149;;-444.1794;;-445.86414;;-447.06885;;-447.91229;;-448.53255;;-448.9969;;-449.28071;;-449.28071
-9.401075;;-9.401075;;-9.401075;;-9.401075;;-9.401075;;-9.4010753;;-9.4010967;;-9.4012871;;-9.4020755;;-9.404025;;-9.4088365;;-9.4214917;;-9.4135856;;-9.6432085;;-10.43891;;-11.648123;;-13.324293;;-15.580946;;-18.57639;;-22.515287;;-27.893368;;-34.531895;;-43.073112;;-53.97253;;-67.672789;;-84.612222;;-105.23151;;-129.84525;;-158.4621;;-190.44247;;-223.80728;;-254.01528;;-276.15849;;-292.5837;;-306.11671;;-318.68589;;-331.7929;;-345.74867;;-359.70579;;-372.65624;;-384.11434;;-393.9989;;-402.30313;;-409.06194;;-414.52249;;-419.12078;;-423.19026;;-426.83787;;-430.12921;;-433.15034;;-435.84949;;-438.0338;;-439.57685;;-440.57618;;-441.34411;;-442.23111;;-443.36462;;-444.58397;;-445.69231;;-446.68859;;-447.67009;;-448.61573;;-449.37309;;-449.79643;;-449.79643
-9.401075;;-9.401075;;-9.401075;;-9.401075;;-9.401075;;-9.401075;;-9.4010752;;-9.4010767;;-9.4010829;;-9.4010983;;-9.4011254;;-9.4011675;;-9.4011588;;-9.4238355;;-9.9747325;;-10.962614;;-12.383647;;-14.321861;;-16.910594;;-20.328195;;-25.040376;;-30.837639;;-38.315901;;-47.891018;;-60.004685;;-75.067161;;-93.518424;;-115.72687;;-141.85096;;-171.59362;;-203.71684;;-235.1557;;-260.60927;;-279.39891;;-294.362;;-307.71418;;-321.25072;;-335.57912;;-350.13805;;-364.10202;;-376.88046;;-388.04981;;-397.32851;;-404.72107;;-410.59646;;-415.50761;;-419.83477;;-423.69901;;-427.21577;;-430.54823;;-433.68512;;-436.44918;;-438.74078;;-440.58982;;-442.03168;;-443.0901;;-443.83617;;-444.40263;;-445.00667;;-445.92307;;-447.25834;;-448.73588;;-449.88634;;-450.46098;;-450.46098
-9.401075;;-9.401075;;-9.401075;;-9.401075;;-9.401075;;-9.401075;;-9.401075;;-9.401075;;-9.401075;;-9.4010751;;-9.4010752;;-9.4010753;;-9.401076;;-9.4015773;;-9.608251;;-10.388975;;-11.580272;;-13.232954;;-15.457474;;-18.407839;;-22.522348;;-27.561589;;-34.077324;;-42.444518;;-53.090733;;-66.410665;;-82.823822;;-102.72636;;-126.37681;;-153.71845;;-184.03317;;-215.2926;;-243.23374;;-264.61661;;-281.48211;;-296.14875;;-310.36674;;-325.0208;;-340.09731;;-355.11747;;-369.32723;;-381.84327;;-392.0773;;-400.06059;;-406.35014;;-411.63642;;-416.34762;;-420.60869;;-424.51877;;-428.23777;;-431.80717;;-435.12982;;-438.0999;;-440.58064;;-442.36807;;-443.35503;;-443.6803;;-443.69932;;-443.91561;;-444.82586;;-446.53885;;-448.52594;;-450.0245;;-450.71816;;-450.71816
-9.401075;;-9.401075;;-9.401075;;-9.401075;;-9.401075;;-9.401075;;-9.401075;;-9.401075;;-9.401075;;-9.401075;;-9.401075;;-9.401075;;-9.4010751;;-9.4011009;;-9.4219529;;-9.963198;;-10.945247;;-12.359483;;-14.287616;;-16.860568;;-20.494185;;-24.92444;;-30.667772;;-38.06568;;-47.517104;;-59.427263;;-74.189138;;-92.2128;;-113.82411;;-139.12727;;-167.7444;;-198.326;;-227.72895;;-251.5044;;-269.96021;;-285.54006;;-300.09405;;-314.92711;;-330.59289;;-346.78359;;-362.39772;;-376.09103;;-387.10318;;-395.59963;;-402.31599;;-408.00843;;-413.12934;;-417.84101;;-422.22752;;-426.39849;;-430.42592;;-434.28899;;-437.82369;;-440.68148;;-442.51643;;-443.29864;;-443.33481;;-443.07929;;-443.10346;;-444.00606;;-445.92502;;-448.18712;;-449.84338;;-450.56068;;-450.56068
-9.401075;;-9.401075;;-9.401075;;-9.401075;;-9.401075;;-9.401075;;-9.401075;;-9.401075;;-9.401075;;-9.401075;;-9.401075;;-9.401075;;-9.401075;;-9.4010794;;-9.402312;;-9.6625442;;-10.481023;;-11.717377;;-13.427547;;-15.7262;;-18.771672;;-23.00684;;-28.201765;;-34.910789;;-43.507496;;-54.409697;;-67.998896;;-84.687992;;-104.84753;;-128.68477;;-156.03609;;-185.97458;;-216.08779;;-241.73157;;-261.05359;;-276.70973;;-291.13004;;-306.15067;;-322.62931;;-340.10657;;-357.02208;;-371.68588;;-383.319;;-392.25881;;-399.34038;;-405.30751;;-410.64535;;-415.62019;;-420.35054;;-424.89409;;-429.31094;;-433.59684;;-437.49871;;-440.5144;;-442.28855;;-442.97635;;-443.05315;;-442.94711;;-443.09292;;-444.00147;;-445.77103;;-447.68598;;-448.84856;;-449.17666;;-449.17666
-9.401075;;-9.401075;;-9.401075;;-9.401075;;-9.401075;;-9.401075;;-9.401075;;-9.401075;;-9.401075;;-9.401075;;-9.401075;;-9.401075;;-9.401075;;-9.4010761;;-9.4012678;;-9.485457;;-10.174872;;-11.279444;;-12.837206;;-14.949413;;-17.761485;;-21.704873;;-26.536629;;-32.789668;;-40.81576;;-51.034609;;-63.831256;;-79.615206;;-98.784864;;-121.61081;;-148.05996;;-177.45812;;-207.83179;;-234.81782;;-254.6569;;-270.09184;;-284.43679;;-299.91051;;-317.33379;;-335.95185;;-353.87164;;-369.24226;;-381.32607;;-390.56216;;-397.79961;;-403.75738;;-408.9918;;-413.91002;;-418.69613;;-423.37594;;-427.97052;;-432.43985;;-436.46336;;-439.50365;;-441.2853;;-442.11141;;-442.54296;;-442.93469;;-443.46293;;-444.2473;;-445.03056;;-445.08064;;-444.05789;;-442.87685;;-442.87685
-9.401075;;-9.401075;;-9.401075;;-9.401075;;-9.401075;;-9.401075;;-9.401075;;-9.401075;;-9.401075;;-9.401075;;-9.401075;;-9.401075;;-9.401075;;-9.4010752;;-9.4011118;;-9.4209445;;-9.9725593;;-10.975745;;-12.426185;;-14.409891;;-17.06244;;-20.564532;;-25.145289;;-31.087922;;-38.98028;;-48.735744;;-60.992276;;-76.159789;;-94.657672;;-116.79902;;-142.63686;;-171.66425;;-202.21697;;-230.3663;;-251.04732;;-266.65819;;-281.31637;;-297.36572;;-315.45239;;-334.65903;;-353.02323;;-368.68463;;-380.91616;;-390.15968;;-397.25066;;-402.92431;;-407.81898;;-412.44258;;-417.02874;;-421.59535;;-426.12606;;-430.53108;;-434.47479;;-437.48863;;-439.38963;;-440.49395;;-441.31976;;-442.16682;;-442.94184;;-443.02206;;-441.26184;;-436.87026;;-430.866;;-426.34917;;-426.34917
-9.401075;;-9.401075;;-9.401075;;-9.401075;;-9.401075;;-9.401075;;-9.401075;;-9.401075;;-9.401075;;-9.401075;;-9.401075;;-9.401075;;-9.401075;;-9.401075;;-9.4010798;;-9.4062968;;-9.8366916;;-10.770513;;-12.149658;;-14.04915;;-16.598812;;-19.973949;;-24.39777;;-30.147089;;-37.558454;;-47.280285;;-59.211412;;-74.012578;;-92.124063;;-113.89148;;-139.43091;;-168.35905;;-199.25311;;-228.61345;;-250.72387;;-267.06473;;-282.21266;;-298.52367;;-316.59873;;-335.62241;;-353.7845;;-369.27106;;-381.29851;;-390.25127;;-396.97142;;-402.24031;;-406.73667;;-410.99397;;-415.26878;;-419.5886;;-423.90731;;-428.09702;;-431.86229;;-434.85594;;-436.94094;;-438.28007;;-439.20278;;-440.01043;;-440.49306;;-439.12547;;-433.39319;;-422.3768;;-409.19939;;-400.05599;;-400.05599
-9.401075;;-9.401075;;-9.401075;;-9.401075;;-9.401075;;-9.401075;;-9.401075;;-9.401075;;-9.401075;;-9.401075;;-9.401075;;-9.401075;;-9.401075;;-9.401075;;-9.4010756;;-9.4029349;;-9.7459099;;-10.633523;;-11.964685;;-13.808009;;-16.290138;;-19.583209;;-23.906942;;-29.764502;;-36.799063;;-46.098418;;-58.086518;;-72.676764;;-90.577251;;-112.16153;;-137.59654;;-166.59903;;-197.94564;;-228.51833;;-252.48122;;-269.97926;;-285.61638;;-301.76436;;-319.18611;;-337.40975;;-354.92325;;-369.96482;;-381.62706;;-390.20174;;-396.54683;;-401.46969;;-405.62953;;-409.54991;;-413.51783;;-417.57474;;-421.63694;;-425.55964;;-429.13326;;-432.13774;;-434.41138;;-435.84077;;-436.46923;;-436.67985;;-436.45752;;-433.66926;;-424.43054;;-407.56631;;-388.09511;;-374.90237;;-374.90237
-9.401075;;-9.401075;;-9.401075;;-9.401075;;-9.401075;;-9.401075;;-9.401075;;-9.401075;;-9.401075;;-9.401075;;-9.401075;;-9.401075;;-9.401075;;-9.401075;;-9.4010752;;-9.4017658;;-9.6646702;;-10.507491;;-11.789288;;-13.573083;;-15.982025;;-19.184427;;-23.624234;;-29.116166;;-36.213151;;-45.07535;;-56.833459;;-71.169476;;-88.802278;;-110.12898;;-135.36462;;-164.3223;;-195.97307;;-227.58217;;-253.57857;;-272.56378;;-288.78971;;-304.64901;;-321.17619;;-338.40044;;-355.20852;;-369.89056;;-381.35305;;-389.74852;;-395.92184;;-400.66359;;-404.58339;;-408.2129;;-411.89919;;-415.69709;;-419.48411;;-423.13327;;-426.54814;;-429.60115;;-432.04801;;-433.49685;;-433.73886;;-433.28187;;-432.56629;;-429.56474;;-419.80534;;-401.67882;;-380.61314;;-366.27422;;-366.27422
-9.401075;;-9.401075;;-9.401075;;-9.401075;;-9.401075;;-9.401075;;-9.401075;;-9.401075;;-9.401075;;-9.401075;;-9.401075;;-9.401075;;-9.401075;;-9.401075;;-9.4010751;;-9.4012625;;-9.5682875;;-10.349422;;-11.561472;;-13.260295;;-15.563073;;-18.631577;;-22.90285;;-28.183826;;-35.017728;;-43.790118;;-54.932146;;-68.850481;;-86.012731;;-106.83923;;-131.59575;;-160.19733;;-191.81972;;-224.1296;;-252.05149;;-272.59496;;-289.42933;;-305.07215;;-320.87079;;-337.3698;;-353.83736;;-368.57426;;-380.25706;;-388.84573;;-395.12586;;-399.85969;;-403.62877;;-406.98781;;-410.328;;-413.71731;;-417.07452;;-420.40899;;-423.76639;;-427.00795;;-429.72582;;-431.35235;;-431.59479;;-431.04959;;-430.56089;;-428.8426;;-422.06722;;-408.36134;;-391.87038;;-380.57741;;-380.57741
-9.401075;;-9.401075;;-9.401075;;-9.401075;;-9.401075;;-9.401075;;-9.401075;;-9.401075;;-9.401075;;-9.401075;;-9.401075;;-9.401075;;-9.401075;;-9.401075;;-9.401075;;-9.4011102;;-9.4727321;;-10.162207;;-11.280828;;-12.869917;;-15.035823;;-17.930579;;-21.752689;;-26.752299;;-33.468856;;-41.805163;;-52.435767;;-65.773158;;-82.266973;;-102.35871;;-126.36255;;-154.29409;;-185.53171;;-218.13879;;-247.65795;;-269.53886;;-286.68;;-302.07552;;-317.48266;;-333.82332;;-350.55315;;-365.89103;;-378.26621;;-387.41369;;-394.02961;;-398.88614;;-402.58614;;-405.65357;;-408.39554;;-410.87541;;-413.28254;;-416.10375;;-419.64152;;-423.52684;;-426.9421;;-429.18761;;-430.09262;;-430.29137;;-430.71329;;-430.86617;;-428.26317;;-421.22567;;-411.8984;;-405.2459;;-405.24589
-9.401075;;-9.401075;;-9.401075;;-9.401075;;-9.401075;;-9.401075;;-9.401075;;-9.401075;;-9.401075;;-9.401075;;-9.401075;;-9.401075;;-9.401075;;-9.401075;;-9.401075;;-9.40108;;-9.4174971;;-9.9602994;;-10.966208;;-12.428439;;-14.435556;;-17.12734;;-20.690232;;-25.360988;;-31.663135;;-39.483705;;-49.486869;;-62.099629;;-77.752356;;-96.898961;;-119.8954;;-146.85129;;-177.34042;;-209.82171;;-240.54464;;-263.74713;;-280.94041;;-296.02536;;-311.3466;;-328.05426;;-345.57905;;-361.9605;;-375.37624;;-385.32612;;-392.41749;;-397.48715;;-401.18381;;-403.88468;;-405.61469;;-406.39046;;-406.98877;;-408.89924;;-412.92183;;-418.19736;;-423.08214;;-426.58384;;-428.73942;;-430.23388;;-431.81297;;-433.38899;;-433.71529;;-431.72741;;-428.19899;;-425.45039;;-425.45039
-9.401075;;-9.401075;;-9.401075;;-9.401075;;-9.401075;;-9.401075;;-9.401075;;-9.401075;;-9.401075;;-9.401075;;-9.401075;;-9.401075;;-9.401075;;-9.401075;;-9.401075;;-9.4010755;;-9.4030025;;-9.7451395;;-10.6271;;-11.948224;;-13.77656;;-16.238449;;-19.506124;;-24.031635;;-29.622414;;-36.844297;;-46.105908;;-57.846072;;-72.477055;;-90.452321;;-112.16271;;-137.8049;;-167.1447;;-199.04298;;-230.51352;;-255.56794;;-273.2664;;-288.34472;;-303.85813;;-321.15415;;-339.63334;;-357.19656;;-371.79283;;-382.66935;;-390.32684;;-395.66702;;-399.35987;;-401.56833;;-401.9698;;-400.54457;;-398.80611;;-399.49692;;-404.08975;;-411.19437;;-418.14054;;-423.40778;;-427.09527;;-429.9432;;-432.50311;;-434.76182;;-436.19725;;-436.40044;;-435.69526;;-434.98007;;-434.98007
-9.401075;;-9.401075;;-9.401075;;-9.401075;;-9.401075;;-9.401075;;-9.401075;;-9.401075;;-9.401075;;-9.401075;;-9.401075;;-9.401075;;-9.401075;;-9.401075;;-9.401075;;-9.4010751;;-9.4012161;;-9.5388227;;-10.286108;;-11.453;;-13.089086;;-15.305455;;-18.257601;;-22.377889;;-27.453642;;-34.026611;;-42.47728;;-53.242071;;-66.728419;;-83.375045;;-103.60081;;-127.68106;;-155.56175;;-186.4875;;-218.24256;;-245.80452;;-265.35583;;-281.22949;;-297.17562;;-314.86287;;-333.91574;;-352.3342;;-367.94148;;-379.72145;;-388.0034;;-393.66421;;-397.32658;;-399.00146;;-398.24365;;-395.16262;;-391.75954;;-391.49883;;-396.33533;;-404.7023;;-413.35226;;-420.25442;;-425.28986;;-429.14644;;-432.31269;;-434.78929;;-436.35177;;-436.99296;;-437.05348;;-436.96269;;-436.96269
-9.401075;;-9.401075;;-9.401075;;-9.401075;;-9.401075;;-9.401075;;-9.401075;;-9.401075;;-9.401075;;-9.401075;;-9.401075;;-9.401075;;-9.401075;;-9.401075;;-9.401075;;-9.401075;;-9.4010928;;-9.4242039;;-9.984049;;-10.988883;;-12.438516;;-14.420476;;-17.071969;;-20.807046;;-25.392242;;-31.345798;;-39.022853;;-48.83884;;-61.222087;;-76.589035;;-95.379618;;-117.94039;;-144.37742;;-174.27551;;-206.13597;;-236.33516;;-259.34543;;-276.89379;;-293.34445;;-310.92212;;-329.76052;;-348.19347;;-364.07316;;-376.26567;;-385.0446;;-391.20933;;-395.14848;;-396.71364;;-395.66777;;-392.48837;;-389.18658;;-388.89616;;-393.47109;;-401.71706;;-410.71118;;-418.28855;;-423.95823;;-428.21295;;-431.57017;;-434.10688;;-435.67602;;-436.36257;;-436.53759;;-436.55274;;-436.55274
-9.401075;;-9.401075;;-9.401075;;-9.401075;;-9.401075;;-9.401075;;-9.401075;;-9.401075;;-9.401075;;-9.401075;;-9.401075;;-9.401075;;-9.401075;;-9.401075;;-9.401075;;-9.401075;;-9.4010836;;-9.404051;;-9.7390605;;-10.605118;;-11.899596;;-13.687605;;-16.092272;;-19.282205;;-23.700961;;-29.156534;;-36.213792;;-45.269824;;-56.777384;;-71.15268;;-88.846745;;-110.27038;;-135.66409;;-164.8839;;-196.97868;;-229.35995;;-256.57109;;-276.32835;;-293.18914;;-310.21885;;-328.06264;;-345.28332;;-359.84278;;-371.01702;;-379.74862;;-386.96656;;-392.33565;;-395.04179;;-395.05035;;-393.38015;;-391.80932;;-392.43321;;-396.53151;;-403.52547;;-411.45409;;-418.46149;;-423.79856;;-427.75149;;-430.89134;;-433.40529;;-435.12778;;-436.00496;;-436.28746;;-436.32558;;-436.32558
-9.401075;;-9.401075;;-9.401075;;-9.401075;;-9.401075;;-9.401075;;-9.401075;;-9.401075;;-9.401075;;-9.401075;;-9.401075;;-9.401075;;-9.401075;;-9.401075;;-9.401075;;-9.401075;;-9.4010797;;-9.4018884;;-9.5695252;;-10.331304;;-11.509952;;-13.15757;;-15.38791;;-18.359935;;-22.506538;;-27.626707;;-34.272702;;-42.831436;;-53.761955;;-67.520352;;-84.555578;;-105.32769;;-130.17507;;-159.13407;;-191.5899;;-225.56822;;-256.39605;;-278.56999;;-295.87115;;-312.39415;;-328.89811;;-343.66515;;-354.75832;;-362.77465;;-370.61788;;-379.75054;;-388.35381;;-393.93661;;-396.19039;;-396.70949;;-397.26105;;-399.09567;;-402.91427;;-408.56024;;-414.93986;;-420.67709;;-425.0294;;-428.20545;;-430.82742;;-433.18377;;-435.07954;;-436.2479;;-436.72228;;-436.81561;;-436.81561
-9.401075;;-9.401075;;-9.401075;;-9.401075;;-9.401075;;-9.401075;;-9.401075;;-9.401075;;-9.401075;;-9.401075;;-9.401075;;-9.401075;;-9.401075;;-9.401075;;-9.401075;;-9.401075;;-9.4010769;;-9.4013502;;-9.4745771;;-10.146224;;-11.237418;;-12.785822;;-14.896229;;-17.720583;;-21.684189;;-26.582249;;-32.958896;;-41.195321;;-51.748182;;-65.110422;;-81.734171;;-102.10585;;-126.62702;;-155.44628;;-188.15696;;-223.18434;;-256.56386;;-281.33312;;-299.52675;;-316.09434;;-331.50883;;-343.30986;;-349.63732;;-353.14003;;-359.56886;;-371.07785;;-383.92116;;-393.26489;;-398.05599;;-400.41166;;-402.48372;;-405.27851;;-409.14624;;-414.00308;;-419.18956;;-423.74291;;-427.10583;;-429.50814;;-431.58315;;-433.68516;;-435.63604;;-437.03071;;-437.70399;;-437.88325;;-437.88325
-9.401075;;-9.401075;;-9.401075;;-9.401075;;-9.401075;;-9.401075;;-9.401075;;-9.401075;;-9.401075;;-9.401075;;-9.401075;;-9.401075;;-9.401075;;-9.4010751;;-9.4010759;;-9.4010794;;-9.4010904;;-9.4011861;;-9.4279427;;-9.9960192;;-11.007046;;-12.467291;;-14.47019;;-17.381745;;-20.953043;;-25.645887;;-31.768625;;-39.694178;;-49.871938;;-62.812747;;-78.977207;;-98.859225;;-122.90196;;-151.33557;;-183.91441;;-219.38847;;-254.41849;;-282.03238;;-301.87522;;-319.28498;;-334.47631;;-344.31345;;-347.04491;;-347.08162;;-352.3762;;-365.49391;;-381.24327;;-393.08883;;-399.34614;;-402.54868;;-405.4018;;-408.96064;;-413.23151;;-417.90434;;-422.48426;;-426.36001;;-429.18661;;-431.19228;;-432.95052;;-434.83908;;-436.74038;;-438.22384;;-439.01451;;-439.25775;;-439.25774
-9.401075;;-9.401075;;-9.401075;;-9.401075;;-9.401075;;-9.401075;;-9.401075;;-9.401075;;-9.401075;;-9.401075;;-9.401075;;-9.401075;;-9.4010754;;-9.4010881;;-9.4011904;;-9.4015948;;-9.4025553;;-9.4040613;;-9.4131483;;-9.8450512;;-10.766826;;-12.1267;;-14.003547;;-16.752653;;-20.117624;;-24.550939;;-30.34597;;-37.861485;;-47.530426;;-59.861504;;-75.326196;;-94.408941;;-117.5781;;-145.12909;;-176.95816;;-212.11357;;-247.86962;;-278.11567;;-300.11608;;-319.1421;;-335.62253;;-346.13187;;-348.90051;;-348.7125;;-353.77091;;-366.62421;;-382.04437;;-393.44872;;-399.13491;;-401.96811;;-405.17386;;-409.74559;;-414.97484;;-420.0139;;-424.48821;;-428.18635;;-430.94828;;-432.93577;;-434.6223;;-436.38412;;-438.16916;;-439.58855;;-440.35469;;-440.58848;;-440.58848
-9.401075;;-9.401075;;-9.401075;;-9.401075;;-9.401075;;-9.401075;;-9.401075;;-9.401075;;-9.401075;;-9.401075;;-9.401075;;-9.4010751;;-9.4010833;;-9.4012539;;-9.4024632;;-9.4069793;;-9.4174183;;-9.4346966;;-9.4674501;;-9.7152224;;-10.524525;;-11.759672;;-13.481429;;-16.030889;;-19.141209;;-23.247379;;-28.624338;;-35.609922;;-44.61326;;-56.119797;;-70.61098;;-88.54714;;-110.40277;;-136.51837;;-166.90549;;-200.86938;;-236.24246;;-268.0053;;-291.80341;;-312.82708;;-332.42967;;-346.94859;;-353.77453;;-356.48716;;-362.06285;;-373.05175;;-385.5624;;-394.2936;;-397.9187;;-399.54328;;-402.88665;;-408.77147;;-415.45403;;-421.27917;;-425.96459;;-429.74938;;-432.65627;;-434.7656;;-436.45025;;-438.06579;;-439.61156;;-440.79134;;-441.39695;;-441.56451;;-441.56451
-9.401075;;-9.401075;;-9.401075;;-9.401075;;-9.401075;;-9.401075;;-9.401075;;-9.401075;;-9.401075;;-9.401075;;-9.401075;;-9.4010759;;-9.4011484;;-9.402253;;-9.4092421;;-9.4339834;;-9.4927577;;-9.6204116;;-9.8152869;;-9.9651294;;-10.425357;;-11.454291;;-13.186604;;-15.291469;;-18.11478;;-21.855194;;-26.765082;;-33.155922;;-41.407768;;-51.975194;;-65.339338;;-81.932213;;-102.21543;;-126.55419;;-155.04254;;-187.18511;;-221.26326;;-253.17485;;-277.77842;;-300.58229;;-324.47416;;-345.24974;;-358.39446;;-365.1533;;-371.25294;;-379.99053;;-389.52108;;-395.97082;;-398.04938;;-398.70694;;-402.0105;;-408.77085;;-416.50452;;-422.90211;;-427.70445;;-431.50433;;-434.49655;;-436.69568;;-438.34158;;-439.71154;;-440.85609;;-441.65769;;-442.0657;;-442.1952;;-442.1952
-9.401075;;-9.401075;;-9.401075;;-9.401075;;-9.401075;;-9.401075;;-9.401075;;-9.401075;;-9.401075;;-9.401075;;-9.4010797;;-9.4011235;;-9.4016242;;-9.4064143;;-9.4326612;;-9.5220246;;-9.7335008;;-10.067732;;-10.408712;;-10.614645;;-10.804744;;-11.635624;;-12.870717;;-14.697507;;-17.213631;;-20.586325;;-25.041583;;-30.863172;;-38.401246;;-48.077945;;-60.37206;;-75.697974;;-94.49266;;-117.13863;;-143.79555;;-174.13158;;-206.79721;;-238.43057;;-263.5504;;-287.71881;;-315.50645;;-342.22571;;-361.30676;;-371.36844;;-377.48144;;-384.50772;;-392.74152;;-399.14871;;-401.7853;;-402.73692;;-405.87093;;-412.24151;;-419.55748;;-425.52418;;-429.89286;;-433.37388;;-436.2622;;-438.50055;;-440.11735;;-441.2297;;-441.94495;;-442.38494;;-442.67277;;-442.83879;;-442.83879
-9.401075;;-9.401075;;-9.401075;;-9.401075;;-9.401075;;-9.401075;;-9.401075;;-9.401075;;-9.401075;;-9.4010754;;-9.4011271;;-9.4015909;;-9.4044542;;-9.4210457;;-9.4987953;;-9.7458029;;-10.170863;;-10.692055;;-11.179056;;-11.65812;;-11.81811;;-12.268401;;-13.130064;;-14.514832;;-16.643315;;-19.63612;;-23.676113;;-29.012962;;-35.967014;;-44.93196;;-56.372297;;-70.728675;;-88.406679;;-109.81514;;-135.1894;;-164.36815;;-196.36536;;-228.52823;;-255.58955;;-281.04534;;-310.92279;;-340.89683;;-363.5459;;-375.62829;;-381.63117;;-387.78692;;-396.07464;;-403.94852;;-408.65671;;-410.96852;;-413.8994;;-418.76924;;-424.26935;;-428.80812;;-432.20694;;-435.07931;;-437.72222;;-439.9855;;-441.64532;;-442.63121;;-443.08807;;-443.30973;;-443.52094;;-443.69893;;-443.69893
-9.401075;;-9.401075;;-9.401075;;-9.401075;;-9.401075;;-9.401075;;-9.401075;;-9.401075;;-9.401075;;-9.4010772;;-9.401351;;-9.4038097;;-9.4159859;;-9.4674581;;-9.6833518;;-10.138664;;-10.751689;;-11.445489;;-12.278769;;-12.641469;;-12.821165;;-13.238564;;-14.022337;;-15.090709;;-16.564013;;-19.050398;;-22.664721;;-27.578224;;-34.063564;;-42.483056;;-53.281214;;-66.946545;;-83.87578;;-104.50572;;-129.16664;;-157.88298;;-190.03777;;-223.70197;;-254.65171;;-281.87574;;-311.82017;;-341.96979;;-365.70812;;-379.31219;;-386.15028;;-392.39359;;-400.82498;;-409.59933;;-415.87573;;-419.41409;;-422.11907;;-425.32507;;-428.77696;;-431.76048;;-434.20447;;-436.54164;;-438.99249;;-441.30076;;-443.03808;;-443.99941;;-444.32472;;-444.33263;;-444.28184;;-444.26293;;-444.26293
-9.401075;;-9.401075;;-9.401075;;-9.401075;;-9.401075;;-9.401075;;-9.401075;;-9.401075;;-9.401075;;-9.4010825;;-9.4019977;;-9.4102893;;-9.4487616;;-9.6026824;;-10.021067;;-10.644143;;-11.417025;;-12.454124;;-13.221762;;-13.661218;;-13.862965;;-14.258615;;-14.96824;;-15.874684;;-16.895258;;-18.590374;;-21.713288;;-26.189127;;-32.209819;;-40.098494;;-50.274982;;-63.241153;;-79.44733;;-99.327611;;-123.303;;-151.57089;;-183.84938;;-218.87704;;-253.59523;;-283.73225;;-312.83321;;-341.61016;;-365.53387;;-381.29714;;-390.64145;;-398.17114;;-406.50995;;-414.79499;;-421.07206;;-424.89103;;-427.3159;;-429.44709;;-431.6238;;-433.72421;;-435.76217;;-437.98857;;-440.47153;;-442.83458;;-444.53914;;-445.3261;;-445.31229;;-444.79504;;-444.12053;;-443.65519;;-443.65519
-9.401075;;-9.401075;;-9.401075;;-9.401075;;-9.401075;;-9.401075;;-9.401075;;-9.401075;;-9.4010753;;-9.4011045;;-9.403372;;-9.4239497;;-9.5265694;;-9.8667965;;-10.440993;;-11.192888;;-12.282078;;-13.222373;;-14.06507;;-14.547895;;-14.766455;;-15.101279;;-15.639723;;-16.273073;;-16.966887;;-18.000556;;-20.533911;;-24.478636;;-29.917409;;-37.116658;;-46.459942;;-58.42525;;-73.5188;;-92.161227;;-114.82179;;-141.8317;;-173.17265;;-208.09586;;-244.41152;;-277.63634;;-306.58968;;-334.21051;;-358.64225;;-377.37591;;-390.74974;;-401.16918;;-410.29505;;-418.03787;;-423.68685;;-427.23795;;-429.45279;;-431.20832;;-433.01373;;-434.9989;;-437.21202;;-439.73099;;-442.41235;;-444.74659;;-446.1565;;-446.40089;;-445.64337;;-444.28527;;-442.87045;;-441.97711;;-441.97711
-9.401075;;-9.401075;;-9.401075;;-9.401075;;-9.401075;;-9.401075;;-9.401075;;-9.4010751;;-9.4010837;;-9.4012881;;-9.4064726;;-9.4533838;;-9.7099072;;-10.230067;;-10.936139;;-11.789756;;-12.926081;;-13.853117;;-14.60618;;-15.024305;;-15.240035;;-15.484509;;-15.803834;;-16.138479;;-16.559246;;-17.275437;;-19.110178;;-22.437953;;-27.164097;;-33.487827;;-41.74214;;-52.355947;;-65.83529;;-82.598326;;-103.09798;;-127.73661;;-156.66841;;-189.51697;;-224.84201;;-259.32972;;-289.14726;;-316.30557;;-341.36678;;-363.0793;;-381.26791;;-396.49733;;-408.87443;;-418.09724;;-424.22494;;-427.95374;;-430.29243;;-432.14445;;-434.05309;;-436.21834;;-438.70913;;-441.51547;;-444.3434;;-446.55177;;-447.50326;;-447.01467;;-445.44917;;-443.47534;;-441.7927;;-440.87324;;-440.87324
-9.401075;;-9.401075;;-9.401075;;-9.401075;;-9.401075;;-9.401075;;-9.401075;;-9.4010756;;-9.4011494;;-9.402315;;-9.4160344;;-9.5599196;;-10.022654;;-10.695237;;-11.531962;;-12.666519;;-13.605746;;-14.374378;;-14.85253;;-15.109839;;-15.261353;;-15.398941;;-15.526343;;-15.640587;;-15.881409;;-16.46966;;-17.703903;;-20.351541;;-24.294121;;-29.658765;;-36.713162;;-45.823236;;-57.436177;;-71.972165;;-89.823993;;-111.40426;;-136.95556;;-166.34398;;-198.6842;;-231.7455;;-261.90306;;-288.90781;;-314.3258;;-338.47799;;-361.61231;;-383.18542;;-401.46804;;-414.89754;;-423.42205;;-428.34107;;-431.26789;;-433.39142;;-435.31521;;-437.28588;;-439.50811;;-442.14926;;-444.99699;;-447.27537;;-448.11499;;-447.31404;;-445.52665;;-443.7191;;-442.54397;;-442.07253;;-442.07253
-9.401075;;-9.401075;;-9.401075;;-9.401075;;-9.401075;;-9.4010751;;-9.4010763;;-9.4010881;;-9.4014582;;-9.4059715;;-9.4564263;;-9.813032;;-10.432517;;-11.244535;;-12.205443;;-13.428047;;-14.353026;;-14.839276;;-14.948439;;-14.972768;;-15.008552;;-15.050261;;-15.05976;;-15.058144;;-15.211545;;-15.735353;;-16.669226;;-18.488202;;-21.617187;;-26.028047;;-31.902111;;-39.531951;;-49.2927;;-61.583658;;-76.734457;;-95.130142;;-117.05101;;-142.51385;;-171.01455;;-201.12455;;-230.26344;;-257.16009;;-283.12908;;-309.70581;;-337.66702;;-365.84576;;-391.01812;;-410.069;;-422.23304;;-429.09992;;-432.87713;;-435.10411;;-436.50365;;-437.48552;;-438.62978;;-440.61051;;-443.52673;;-446.4385;;-448.01207;;-447.80964;;-446.65859;;-445.70548;;-445.4259;;-445.52073;;-445.52073
-9.401075;;-9.401075;;-9.401075;;-9.401075;;-9.4010754;;-9.4010928;;-9.401239;;-9.4018575;;-9.4043984;;-9.4199731;;-9.6031146;;-10.133108;;-10.883825;;-11.820624;;-13.087699;;-14.186431;;-15.077244;;-15.254992;;-15.024205;;-14.811388;;-14.729033;;-14.721635;;-14.709182;;-14.693652;;-14.813404;;-15.254445;;-16.04152;;-17.159039;;-19.383297;;-22.85503;;-27.62346;;-33.891065;;-41.952499;;-52.16808;;-64.832186;;-80.275561;;-98.797211;;-120.52156;;-145.23551;;-172.1522;;-199.82251;;-227.34623;;-255.54165;;-285.74374;;-318.4451;;-351.94551;;-382.52617;;-406.30634;;-421.82012;;-430.54808;;-434.95917;;-436.85979;;-437.21144;;-436.77217;;-436.61814;;-437.93736;;-441.1058;;-445.02311;;-447.88589;;-448.88614;;-448.77672;;-448.71838;;-449.08233;;-449.48488;;-449.48488
-9.401075;;-9.401075;;-9.4010751;;-9.401079;;-9.4011096;;-9.4013837;;-9.4030663;;-9.4094367;;-9.4305981;;-9.5023055;;-9.8110177;;-10.427173;;-11.259373;;-12.276987;;-13.609729;;-14.737203;;-15.541773;;-15.520725;;-15.133025;;-14.799611;;-14.663447;;-14.672872;;-14.723543;;-14.771752;;-14.885399;;-15.20246;;-15.801999;;-16.657149;;-17.880796;;-20.400441;;-24.180482;;-29.295237;;-35.952339;;-44.443705;;-55.076384;;-68.124621;;-83.910298;;-102.66794;;-124.45821;;-149.08318;;-176.16628;;-205.7712;;-238.35049;;-273.58422;;-310.38298;;-346.79896;;-379.71066;;-405.6208;;-422.82994;;-432.43808;;-436.84597;;-438.10777;;-437.59108;;-436.42293;;-435.84967;;-437.07082;;-440.44177;;-444.86015;;-448.46574;;-450.28167;;-450.85619;;-451.22492;;-451.75825;;-452.18288;;-452.18288
-9.4010751;;-9.4010751;;-9.4010904;;-9.4012646;;-9.402174;;-9.4056832;;-9.4184545;;-9.4809616;;-9.6894954;;-9.8973133;;-10.132316;;-10.656391;;-11.450594;;-12.443549;;-13.740676;;-14.793512;;-15.481242;;-15.526124;;-15.249398;;-14.992965;;-14.912566;;-14.993313;;-15.139382;;-15.274013;;-15.404414;;-15.625556;;-16.048446;;-16.725653;;-17.614699;;-18.922709;;-21.791955;;-26.003439;;-31.634505;;-38.906118;;-48.132748;;-59.623632;;-73.739103;;-90.901445;;-111.55617;;-136.18592;;-165.22909;;-198.78253;;-236.12805;;-275.5025;;-314.43106;;-350.71206;;-382.53214;;-407.57824;;-424.31939;;-433.50522;;-437.43369;;-438.43871;;-438.23253;;-437.93534;;-438.31685;;-439.96946;;-443.00931;;-446.6398;;-449.54374;;-451.03388;;-451.56592;;-451.97083;;-452.52879;;-452.9646;;-452.9646
-9.4010762;;-9.4010762;;-9.4012266;;-9.4028175;;-9.4106317;;-9.4368267;;-9.549705;;-9.8738268;;-10.266113;;-10.558333;;-10.755823;;-11.096156;;-11.670283;;-12.664433;;-13.568474;;-14.419228;;-15.045;;-15.339588;;-15.380618;;-15.349643;;-15.397712;;-15.564452;;-15.796359;;-16.010967;;-16.174005;;-16.34361;;-16.640863;;-17.159211;;-17.872495;;-18.718292;;-21.054497;;-24.960309;;-30.370734;;-37.493571;;-46.68286;;-58.402946;;-73.152974;;-91.411987;;-113.72286;;-140.55056;;-172.15155;;-208.33981;;-248.08889;;-288.96188;;-327.00178;;-359.88534;;-387.70093;;-409.41;;-423.896;;-431.96545;;-435.89585;;-437.96732;;-439.65657;;-441.49555;;-443.42999;;-445.37264;;-447.29626;;-448.92065;;-449.79768;;-449.92692;;-449.96281;;-450.51959;;-451.49512;;-452.24998;;-452.24998
-9.4010813;;-9.4010813;;-9.4017898;;-9.4091006;;-9.4454798;;-9.5955875;;-9.981502;;-10.511634;;-11.058045;;-11.425749;;-11.593817;;-12.018869;;-12.190753;;-12.858003;;-13.401843;;-14.023394;;-14.664261;;-15.216004;;-15.587057;;-15.798414;;-15.974954;;-16.20619;;-16.491537;;-16.762649;;-16.956777;;-17.100012;;-17.309728;;-17.681449;;-18.190126;;-19.511624;;-22.71315;;-27.361978;;-33.57911;;-41.664128;;-52.034349;;-65.206823;;-81.685462;;-102.01211;;-126.72882;;-156.24156;;-190.64789;;-229.40877;;-270.76018;;-310.80301;;-344.08432;;-370.35179;;-391.83152;;-408.47687;;-420.01703;;-427.58528;;-433.03162;;-437.71497;;-442.1018;;-445.94352;;-448.74409;;-450.23471;;-450.46284;;-449.58675;;-447.94525;;-446.38724;;-446.03018;;-447.2953;;-449.36914;;-450.87211;;-450.87211
-9.4011123;;-9.4011123;;-9.4033337;;-9.4262573;;-9.5791086;;-10.0073;;-10.617363;;-11.336522;;-12.039689;;-12.473843;;-12.771558;;-12.864589;;-13.018904;;-13.200844;;-13.489407;;-13.980076;;-14.646427;;-15.341262;;-15.897723;;-16.260027;;-16.505741;;-16.745434;;-17.033223;;-17.328261;;-17.546521;;-17.683915;;-17.844305;;-18.100912;;-18.839328;;-21.564637;;-25.738398;;-31.415822;;-38.85266;;-48.428271;;-60.626998;;-75.969871;;-94.995476;;-118.28258;;-146.32729;;-179.39559;;-217.25763;;-258.70017;;-300.57122;;-336.2978;;-361.30644;;-379.33176;;-393.5073;;-404.91108;;-414.42181;;-423.10692;;-431.46684;;-439.15853;;-445.49887;;-449.98673;;-452.40863;;-452.77583;;-451.22824;;-448.10507;;-444.28897;;-441.40874;;-441.10459;;-443.57155;;-447.1351;;-449.57987;;-449.57987
-9.4012967;;-9.4012967;;-9.4074743;;-9.5095432;;-9.9435389;;-10.59477;;-11.411433;;-12.310601;;-13.162218;;-13.829186;;-13.782995;;-13.612449;;-13.458531;;-13.476528;;-13.751945;;-14.276706;;-14.96682;;-15.679583;;-16.273469;;-16.676937;;-16.918691;;-17.103873;;-17.339771;;-17.634147;;-17.93538;;-18.362048;;-18.941147;;-19.484442;;-21.115358;;-24.722181;;-29.92283;;-36.85968;;-45.858515;;-57.366925;;-71.911823;;-89.997741;;-112.21976;;-139.13021;;-171.12082;;-208.1869;;-249.44793;;-292.3782;;-331.27368;;-358.18438;;-374.43147;;-385.21412;;-393.67889;;-401.95725;;-411.52507;;-422.53799;;-433.59297;;-442.86939;;-449.35152;;-453.02669;;-454.31868;;-453.50014;;-450.6249;;-446.00683;;-440.86525;;-437.37486;;-437.46247;;-441.02046;;-445.71152;;-448.80785;;-448.80785
-9.4020765;;-9.4020765;;-9.4378953;;-9.8087357;;-10.448765;;-11.2888;;-12.288295;;-13.361325;;-14.554626;;-14.982166;;-14.631406;;-14.012137;;-13.559016;;-13.57066;;-14.02371;;-14.701102;;-15.430185;;-16.101441;;-16.650989;;-17.030301;;-17.242013;;-17.468174;;-17.931767;;-18.694735;;-19.727991;;-20.840166;;-21.828596;;-22.613543;;-24.52542;;-28.911603;;-35.252222;;-43.68949;;-54.588861;;-68.456618;;-85.797814;;-107.14362;;-133.0735;;-164.01578;;-200.07035;;-240.64167;;-283.70878;;-324.43963;;-354.12981;;-371.1569;;-381.27153;;-388.37099;;-395.12706;;-403.65076;;-414.83763;;-427.54027;;-439.21149;;-447.78493;;-452.81556;;-455.04538;;-455.29327;;-453.79179;;-450.37039;;-445.25552;;-439.80527;;-436.34049;;-436.70644;;-440.54423;;-445.36473;;-448.48032;;-448.48032
-9.4064045;;-9.4064045;;-9.621444;;-10.198495;;-11.005538;;-12.013025;;-13.169185;;-14.593997;;-15.667655;;-15.838862;;-15.082546;;-14.175268;;-13.574261;;-13.686206;;-14.337936;;-15.160789;;-15.908446;;-16.506125;;-16.980333;;-17.463424;;-18.427372;;-19.451278;;-20.369832;;-21.519185;;-23.021106;;-24.640579;;-26.033594;;-27.094082;;-29.04273;;-34.152483;;-41.753475;;-51.907517;;-64.998168;;-81.573699;;-102.07682;;-127.0496;;-156.96389;;-191.98624;;-231.66453;;-274.27765;;-315.53167;;-346.7969;;-364.6767;;-375.61545;;-383.99861;;-391.98132;;-400.89179;;-411.59757;;-423.87383;;-436.03042;;-445.83767;;-452.10064;;-455.19609;;-456.23167;;-455.96469;;-454.41194;;-451.23773;;-446.57764;;-441.65332;;-438.49629;;-438.63304;;-441.70283;;-445.61846;;-448.1628;;-448.1628
-9.4590053;;-9.4590053;;-9.9140555;;-10.637964;;-11.583755;;-12.731616;;-14.013278;;-15.530109;;-16.554308;;-16.29423;;-15.36776;;-14.41721;;-13.863035;;-14.113179;;-14.849453;;-15.692257;;-16.375316;;-16.900525;;-17.905457;;-19.50317;;-21.211152;;-22.752532;;-24.054158;;-25.605236;;-27.608573;;-29.769804;;-31.623303;;-33.022321;;-34.945606;;-40.52578;;-49.419661;;-61.456348;;-76.980206;;-96.550138;;-120.49905;;-149.31559;;-183.25087;;-221.98813;;-264.0595;;-305.61142;;-338.26595;;-356.64906;;-367.70417;;-377.41583;;-388.12516;;-399.80922;;-411.88573;;-423.86147;;-435.03024;;-444.35051;;-450.93362;;-454.6872;;-456.34118;;-456.79382;;-456.4909;;-455.30755;;-452.89795;;-449.28881;;-445.32111;;-442.4713;;-441.92312;;-443.56907;;-446.02892;;-447.71425;;-447.71425
-9.693158;;-9.693158;;-10.284722;;-11.146045;;-12.238423;;-13.525752;;-15.149912;;-16.553176;;-17.450042;;-16.819717;;-15.791066;;-14.905105;;-14.520525;;-14.870647;;-15.592502;;-16.330528;;-16.990477;;-18.401283;;-20.416265;;-22.78743;;-25.195908;;-27.282169;;-28.996155;;-31.005672;;-33.601433;;-36.406402;;-38.815547;;-40.639424;;-42.682731;;-48.256821;;-58.325365;;-72.299148;;-90.385589;;-113.09666;;-140.58346;;-173.16869;;-210.71342;;-252.07254;;-294.02452;;-329.19609;;-350.12635;;-361.8806;;-371.59358;;-383.44231;;-397.74555;;-412.52064;;-425.7792;;-436.50036;;-444.49523;;-450.01902;;-453.52028;;-455.51883;;-456.52279;;-456.90926;;-456.81839;;-456.13896;;-454.63324;;-452.22197;;-449.29668;;-446.7493;;-445.48645;;-445.7147;;-446.75433;;-447.60263;;-447.60263
-10.007796;;-10.007796;;-10.681551;;-11.655782;;-12.884176;;-14.315993;;-16.092484;;-17.613229;;-18.424714;;-17.538645;;-16.395739;;-15.567816;;-15.376821;;-15.789403;;-16.443194;;-17.195687;;-18.829427;;-21.184179;;-24.060984;;-27.249817;;-30.444651;;-33.171744;;-35.368145;;-37.920487;;-41.229542;;-44.81497;;-47.904413;;-50.262085;;-52.661428;;-57.9241;;-68.657321;;-84.354801;;-104.89831;;-130.63437;;-161.43488;;-197.25462;;-237.30938;;-279.12078;;-316.86506;;-342.70124;;-358.54958;;-370.07252;;-381.9546;;-396.3616;;-412.26559;;-427.02264;;-438.52885;;-446.14489;;-450.47395;;-452.74258;;-454.11536;;-455.22148;;-456.14084;;-456.73405;;-456.92064;;-456.6799;;-455.92813;;-454.54158;;-452.5749;;-450.46004;;-448.85659;;-448.15608;;-448.17757;;-448.39189;;-448.39189
-10.275408;;-10.275408;;-11.010082;;-12.071443;;-13.408183;;-14.961464;;-16.869492;;-18.502778;;-19.287421;;-18.240561;;-16.994235;;-16.196295;;-16.165556;;-16.632639;;-17.39065;;-19.160234;;-21.764012;;-25.043949;;-28.858794;;-33.014784;;-37.151725;;-40.649923;;-43.419107;;-46.597922;;-50.716734;;-55.201569;;-59.093757;;-62.113004;;-65.220562;;-70.498548;;-81.09691;;-97.725955;;-120.14388;;-148.32231;;-181.74607;;-219.65344;;-260.28696;;-299.38014;;-329.91265;;-351.54913;;-368.29404;;-383.13091;;-398.01282;;-413.20709;;-427.44854;;-439.09806;;-447.1686;;-451.64215;;-453.35055;;-453.65454;;-453.85395;;-454.55918;;-455.58087;;-456.43225;;-456.86419;;-456.91974;;-456.65901;;-455.99875;;-454.84196;;-453.32693;;-451.86292;;-450.83351;;-450.31842;;-450.14312;;-450.14312
-10.484969;;-10.484969;;-11.262445;;-12.384733;;-13.796344;;-15.431624;;-17.423475;;-19.115383;;-19.808649;;-18.680792;;-17.407682;;-16.674723;;-16.762863;;-17.464894;;-19.346739;;-22.134212;;-25.720464;;-30.032705;;-34.960904;;-40.289819;;-45.546845;;-49.922564;;-53.326655;;-57.193028;;-62.232825;;-67.765602;;-72.615623;;-76.45824;;-80.466503;;-86.613112;;-97.199792;;-113.58253;;-136.32609;;-165.39611;;-199.88363;;-237.75705;;-276.11877;;-309.90698;;-336.72268;;-358.92441;;-378.82406;;-397.43156;;-414.30935;;-428.35237;;-438.96838;;-446.4441;;-451.31636;;-453.87541;;-454.48017;;-454.01891;;-453.66514;;-454.10204;;-455.14143;;-456.1576;;-456.76368;;-456.99049;;-456.98775;;-456.76175;;-456.21157;;-455.33381;;-454.31496;;-453.40201;;-452.7467;;-452.40229;;-452.40229
-10.679569;;-10.679569;;-11.490805;;-12.6596;;-14.124928;;-15.810751;;-17.84002;;-19.517493;;-19.952504;;-18.822149;;-17.646707;;-17.073798;;-17.481352;;-19.377831;;-22.278722;;-26.076965;;-30.771175;;-36.289345;;-42.525546;;-49.222637;;-55.781141;;-61.172946;;-65.295633;;-69.913985;;-75.962862;;-82.66556;;-88.624162;;-93.483273;;-98.654898;;-106.32967;;-117.98983;;-134.48135;;-156.14017;;-183.36988;;-215.40185;;-249.33662;;-282.67594;;-313.44181;;-340.39893;;-364.01068;;-386.15452;;-407.2627;;-425.26163;;-437.93009;;-445.38955;;-449.71714;;-452.65455;;-454.50884;;-455.01071;;-454.48698;;-453.91791;;-454.0887;;-454.97738;;-456.00275;;-456.69906;;-457.02106;;-457.13047;;-457.11204;;-456.92877;;-456.54588;;-456.00795;;-455.41278;;-454.87768;;-454.54318;;-454.54318
-10.862817;;-10.862817;;-11.702617;;-12.909522;;-14.415895;;-16.13223;;-18.166994;;-19.780366;;-19.916135;;-18.854574;;-17.882156;;-17.65334;;-19.318021;;-22.211783;;-26.116291;;-31.050592;;-36.982749;;-43.88519;;-51.664686;;-59.980949;;-68.054378;;-74.588922;;-79.479443;;-84.850356;;-91.911435;;-99.828989;;-107.01913;;-113.13162;;-119.80525;;-129.40228;;-143.2031;;-161.00554;;-182.02701;;-205.45179;;-230.19917;;-256.98045;;-286.65612;;-316.60027;;-342.91349;;-365.04008;;-386.55957;;-408.9025;;-428.61031;;-441.74272;;-448.24804;;-451.23223;;-453.29016;;-454.88819;;-455.50957;;-455.15027;;-454.55448;;-454.48596;;-455.09698;;-455.97902;;-456.67757;;-457.05053;;-457.20432;;-457.25656;;-457.23561;;-457.12742;;-456.92327;;-456.63522;;-456.32024;;-456.09796;;-456.09796
