-8.0302765;;-8.0302765;;-8.0626307;;-8.3470462;;-8.8077722;;-9.4274898;;-10.217922;;-11.201013;;-12.633412;;-14.054776;;-15.72806;;-17.674094;;-19.97149;;-22.866416;;-26.609331;;-31.358496;;-37.236222;;-44.253633;;-52.319967;;-61.294056;;-70.894041;;-80.797903;;-90.919206;;-101.46083;;-112.61786;;-124.28097;;-135.94855;;-146.92822;;-156.77811;;-165.62654;;-173.92927;;-181.90696;;-189.3709;;-196.09153;;-202.15164;;-207.87943;;-213.54582;;-219.14967;;-224.38486;;-228.83633;;-232.34713;;-235.20717;;-237.94099;;-240.94913;;-244.3112;;-247.79764;;-251.06731;;-253.93635;;-256.46628;;-258.82772;;-261.14314;;-263.40061;;-265.42225;;-266.95898;;-267.90738;;-268.42497;;-268.78053;;-269.09917;;-269.26111;;-268.98518;;-268.00233;;-266.29986;;-264.34844;;-263.02042;;-263.02042
-8.0320287;;-8.0320287;;-8.1515872;;-8.5032206;;-9.0052091;;-9.649489;;-10.441233;;-11.374925;;-12.704522;;-13.955648;;-15.380993;;-16.966455;;-18.727482;;-21.045927;;-24.302575;;-28.57801;;-33.963104;;-40.531275;;-48.218046;;-56.969152;;-66.611354;;-76.872986;;-87.592772;;-98.893175;;-110.91475;;-123.44677;;-135.81152;;-147.09145;;-156.70292;;-164.89716;;-172.47825;;-179.98169;;-187.29994;;-194.07095;;-200.20778;;-205.97014;;-211.6422;;-217.22462;;-222.38423;;-226.70236;;-230.05179;;-232.7396;;-235.28958;;-238.12555;;-241.37215;;-244.83906;;-248.24366;;-251.48653;;-254.6447;;-257.75841;;-260.74528;;-263.44971;;-265.6755;;-267.24626;;-268.13909;;-268.55471;;-268.79402;;-269.01973;;-269.14114;;-268.93994;;-268.301;;-267.34749;;-266.40431;;-265.83288;;-265.83288
-8.0582339;;-8.0582339;;-8.3221251;;-8.752587;;-9.3221036;;-10.027659;;-10.849293;;-12.009634;;-12.988508;;-13.988102;;-15.088682;;-16.282271;;-17.484648;;-19.175591;;-21.97214;;-25.79314;;-30.692379;;-36.780601;;-44.056973;;-52.537391;;-62.166463;;-72.762994;;-84.107997;;-96.173975;;-108.9871;;-122.19488;;-134.94494;;-146.1698;;-155.2849;;-162.75358;;-169.70867;;-176.96094;;-184.46401;;-191.67939;;-198.25037;;-204.25997;;-209.96879;;-215.42375;;-220.3375;;-224.34787;;-227.38731;;-229.77382;;-232.00621;;-234.52944;;-237.55641;;-240.98974;;-244.59711;;-248.28697;;-252.09637;;-255.95302;;-259.6056;;-262.76031;;-265.198;;-266.82185;;-267.70659;;-268.12527;;-268.43111;;-268.80309;;-269.12991;;-269.19889;;-268.95137;;-268.53098;;-268.15023;;-267.95076;;-267.95076
-8.2051414;;-8.2051414;;-8.5559991;;-9.0689113;;-9.7229266;;-10.5041;;-11.385643;;-12.560895;;-13.417692;;-14.06307;;-14.808655;;-15.678545;;-16.475075;;-17.589523;;-20.011022;;-23.450876;;-27.93278;;-33.574231;;-40.444049;;-48.599735;;-58.09102;;-68.860723;;-80.743614;;-93.539615;;-107.00799;;-120.59912;;-133.32816;;-144.10675;;-152.51331;;-159.26736;;-165.74863;;-172.95733;;-180.88573;;-188.81184;;-196.05188;;-202.42047;;-208.11388;;-213.28908;;-217.82721;;-221.5064;;-224.30879;;-226.49286;;-228.47589;;-230.7199;;-233.56048;;-237.01257;;-240.83913;;-244.85603;;-249.04515;;-253.35108;;-257.5106;;-261.13833;;-263.92555;;-265.76608;;-266.79077;;-267.34384;;-267.8269;;-268.42961;;-269.03744;;-269.44517;;-269.58111;;-269.51999;;-269.3918;;-269.31021;;-269.31021
-8.4258861;;-8.4258861;;-8.8295545;;-9.413296;;-10.149655;;-11.010152;;-11.960215;;-13.154073;;-13.837826;;-14.115401;;-14.573464;;-15.236376;;-15.815924;;-16.422638;;-18.54132;;-21.67453;;-25.818895;;-31.093232;;-37.622074;;-45.484436;;-54.805487;;-65.620043;;-77.830747;;-91.149424;;-105.04749;;-118.70091;;-131.02583;;-141.07692;;-148.71325;;-154.86599;;-161.04529;;-168.34317;;-176.75517;;-185.39474;;-193.28382;;-199.98577;;-205.62831;;-210.49161;;-214.68291;;-218.17525;;-220.98054;;-223.21804;;-225.16281;;-227.28036;;-230.02572;;-233.50547;;-237.44815;;-241.56298;;-245.81418;;-250.26543;;-254.75688;;-258.85962;;-262.1321;;-264.37334;;-265.70125;;-266.48502;;-267.1439;;-267.89423;;-268.68664;;-269.37362;;-269.85142;;-270.08225;;-270.11374;;-270.0799;;-270.0799
-8.6363927;;-8.6363927;;-9.081693;;-9.7233202;;-10.527934;;-11.455312;;-12.459833;;-13.656758;;-14.122628;;-14.138957;;-14.413765;;-14.972259;;-15.48743;;-15.74168;;-17.590193;;-20.482003;;-24.377315;;-29.38535;;-35.669562;;-43.316273;;-52.480835;;-63.244211;;-75.545562;;-89.07494;;-103.13675;;-116.6122;;-128.32787;;-137.62888;;-144.68254;;-150.52033;;-156.63604;;-164.09247;;-172.84303;;-181.89179;;-190.10923;;-196.95132;;-202.52935;;-207.20403;;-211.24713;;-214.78549;;-217.82788;;-220.33388;;-222.4348;;-224.58072;;-227.28849;;-230.71476;;-234.59161;;-238.60782;;-242.75446;;-247.19991;;-251.88269;;-256.37257;;-260.14063;;-262.88277;;-264.63504;;-265.70715;;-266.49367;;-267.26005;;-268.08277;;-268.92617;;-269.6791;;-270.18802;;-270.39575;;-270.4281;;-270.4281
-8.8053547;;-8.8053547;;-9.2800597;;-9.9620243;;-10.812715;;-11.781616;;-12.811115;;-13.982093;;-14.258031;;-14.158958;;-14.337864;;-14.841185;;-15.367983;;-15.528603;;-17.056762;;-19.747654;;-23.461011;;-28.280063;;-34.370672;;-41.842553;;-50.843195;;-61.477347;;-73.704621;;-87.220328;;-101.26761;;-114.52641;;-125.76311;;-134.64533;;-141.57307;;-147.53847;;-153.85356;;-161.43506;;-170.19089;;-179.13982;;-187.20426;;-193.90639;;-199.39866;;-204.05584;;-208.18328;;-211.94283;;-215.30581;;-218.13259;;-220.4736;;-222.73447;;-225.40857;;-228.68174;;-232.37532;;-236.25108;;-240.30685;;-244.70312;;-249.41571;;-254.08096;;-258.20317;;-261.4255;;-263.6503;;-265.04724;;-265.94673;;-266.6587;;-267.39375;;-268.26312;;-269.2018;;-269.96481;;-270.36803;;-270.48911;;-270.48911
-8.9486153;;-8.9486153;;-9.4438049;;-10.152799;;-11.031737;;-12.019484;;-13.287955;;-14.146419;;-14.328753;;-14.247055;;-14.392669;;-14.844064;;-15.382188;;-15.626103;;-16.736077;;-19.237143;;-22.786205;;-27.431165;;-33.330068;;-40.615154;;-49.41549;;-59.852153;;-71.904447;;-85.294074;;-99.283504;;-112.50942;;-123.71703;;-132.765;;-140.14476;;-146.67998;;-153.36722;;-160.91307;;-169.25867;;-177.61991;;-185.147;;-191.51484;;-196.90888;;-201.64872;;-205.96356;;-209.95511;;-213.56503;;-216.655;;-219.25596;;-221.68233;;-224.33722;;-227.44835;;-230.99081;;-234.81737;;-238.85873;;-243.16589;;-247.73069;;-252.33836;;-256.62461;;-260.21397;;-262.85835;;-264.57192;;-265.60707;;-266.27426;;-266.86742;;-267.64794;;-268.6526;;-269.59265;;-270.16256;;-270.36914;;-270.36914
-9.0994091;;-9.0994091;;-9.6112415;;-10.340707;;-11.237336;;-12.227773;;-13.467079;;-14.220734;;-14.435272;;-14.474682;;-14.642989;;-15.032199;;-15.523585;;-15.834722;;-16.490323;;-18.791613;;-22.158659;;-26.607081;;-32.285567;;-39.350691;;-47.906451;;-58.08852;;-69.902185;;-83.116741;;-97.076182;;-110.51518;;-122.17738;;-131.9053;;-140.13925;;-147.46718;;-154.52957;;-161.84873;;-169.50108;;-177.04519;;-183.93591;;-189.97066;;-195.29542;;-200.11911;;-204.55944;;-208.65976;;-212.39694;;-215.71183;;-218.6234;;-221.30458;;-224.04028;;-227.10398;;-230.60525;;-234.43899;;-238.44007;;-242.56959;;-246.88425;;-251.35133;;-255.72376;;-259.57287;;-262.51115;;-264.45906;;-265.62728;;-266.28636;;-266.73631;;-267.3449;;-268.27113;;-269.24703;;-269.89847;;-270.16169;;-270.16169
-9.2754689;;-9.2754689;;-9.8024167;;-10.547932;;-11.450534;;-12.666498;;-13.60362;;-14.271355;;-14.615648;;-14.831877;;-15.066837;;-15.398144;;-15.790713;;-16.090042;;-16.385555;;-18.422728;;-21.574594;;-25.811786;;-31.259495;;-38.09369;;-46.398301;;-56.316125;;-67.883193;;-80.925306;;-94.891329;;-108.67005;;-121.00375;;-131.55748;;-140.63466;;-148.63026;;-155.92409;;-162.9088;;-169.83908;;-176.64099;;-183.04762;;-188.90201;;-194.23682;;-199.12084;;-203.5828;;-207.67323;;-211.47889;;-215.0518;;-218.37829;;-221.46347;;-224.46022;;-227.6417;;-231.16423;;-234.92041;;-238.71775;;-242.55257;;-246.61358;;-251.01392;;-255.53073;;-259.61062;;-262.72931;;-264.77927;;-266.0007;;-266.64995;;-266.99259;;-267.41784;;-268.16013;;-269.01974;;-269.6373;;-269.90806;;-269.90806
-9.4839486;;-9.4839486;;-10.025402;;-10.783835;;-11.916125;;-12.844739;;-13.688059;;-14.336179;;-14.830911;;-15.21661;;-15.534201;;-15.836083;;-16.147769;;-16.428984;;-16.609306;;-18.195588;;-21.114966;;-25.162315;;-30.413989;;-37.040889;;-45.140412;;-54.842745;;-66.214892;;-79.133166;;-93.138433;;-107.25101;;-120.1826;;-131.33342;;-140.86975;;-149.13917;;-156.42604;;-163.05354;;-169.39579;;-175.65682;;-181.78735;;-187.65017;;-193.14235;;-198.17321;;-202.68778;;-206.77336;;-210.65506;;-214.51546;;-218.33191;;-221.95961;;-225.38891;;-228.80376;;-232.33206;;-235.88535;;-239.35061;;-242.84794;;-246.69064;;-251.06857;;-255.73399;;-260.00168;;-263.20888;;-265.21674;;-266.34073;;-266.9201;;-267.22503;;-267.57483;;-268.15765;;-268.82675;;-269.31287;;-269.53378;;-269.53378
-9.736728;;-9.736728;;-10.270743;;-11.025698;;-12.129476;;-12.984391;;-13.736738;;-14.407878;;-15.010703;;-15.511001;;-15.89644;;-16.206947;;-16.519646;;-16.864016;;-17.119837;;-18.106842;;-20.806753;;-24.690791;;-29.78363;;-36.243527;;-44.194799;;-53.742975;;-64.982411;;-77.829341;;-91.891544;;-106.27028;;-119.58897;;-130.93357;;-140.40814;;-148.49069;;-155.53651;;-161.83905;;-167.77645;;-173.68645;;-179.69987;;-185.74664;;-191.62021;;-197.0443;;-201.82714;;-206.04074;;-210.01743;;-214.09842;;-218.34315;;-222.52901;;-226.45477;;-230.131;;-233.63969;;-236.9861;;-240.20176;;-243.49461;;-247.1884;;-251.46675;;-256.08717;;-260.33451;;-263.45521;;-265.24038;;-266.07963;;-266.50436;;-266.87405;;-267.36047;;-267.94492;;-268.46042;;-268.77501;;-268.90569;;-268.90569
-10.23832;;-10.23832;;-10.691983;;-11.625583;;-12.408552;;-13.147095;;-13.827579;;-14.501535;;-15.136829;;-15.674726;;-16.086527;;-16.419404;;-16.799262;;-17.279252;;-17.661578;;-18.115462;;-20.589515;;-24.308713;;-29.251373;;-35.55836;;-43.377679;;-52.787843;;-63.904262;;-76.673829;;-90.750605;;-105.27615;;-118.74428;;-129.90549;;-138.92005;;-146.53344;;-153.25086;;-159.34617;;-165.11281;;-170.8968;;-176.96246;;-183.35142;;-189.80494;;-195.85944;;-201.13902;;-205.63059;;-209.71218;;-213.8826;;-218.36477;;-222.95495;;-227.28844;;-231.18471;;-234.69787;;-237.97686;;-241.1944;;-244.55101;;-248.24511;;-252.36271;;-256.68287;;-260.57571;;-263.30943;;-264.63484;;-265.01691;;-265.22984;;-265.76492;;-266.58701;;-267.35198;;-267.80976;;-267.98479;;-268.03265;;-268.03265
-10.990994;;-10.990994;;-11.380367;;-12.231008;;-12.890839;;-13.517584;;-14.133462;;-14.739697;;-15.299425;;-15.770255;;-16.131705;;-16.447054;;-16.879093;;-17.471443;;-17.93764;;-18.090074;;-20.316521;;-23.860956;;-28.639664;;-34.768298;;-42.407832;;-51.621681;;-62.53737;;-75.126576;;-89.080722;;-103.57641;;-117.01837;;-127.85477;;-136.36093;;-143.57587;;-150.13428;;-156.2754;;-162.17175;;-168.10358;;-174.39775;;-181.19105;;-188.2152;;-194.88299;;-200.67541;;-205.48785;;-209.69242;;-213.88013;;-218.41528;;-223.16684;;-227.70693;;-231.74571;;-235.33331;;-238.73083;;-242.19355;;-245.85587;;-249.73372;;-253.74838;;-257.65273;;-260.94004;;-263.02607;;-263.73747;;-263.63054;;-263.66182;;-264.39718;;-265.58343;;-266.57041;;-267.03912;;-267.15576;;-267.17717;;-267.17717
-11.929233;;-11.929233;;-12.276585;;-13.056047;;-13.648266;;-14.26712;;-14.846393;;-15.300811;;-15.641767;;-15.904177;;-16.104297;;-16.321925;;-16.721449;;-17.314329;;-17.768951;;-17.8183;;-19.847625;;-23.212568;;-27.785351;;-33.664848;;-41.017389;;-49.906;;-60.464264;;-72.690338;;-86.325;;-100.62552;;-114.06008;;-124.88211;;-133.32075;;-140.58862;;-147.37602;;-153.85892;;-160.09664;;-166.30398;;-172.83366;;-179.87991;;-187.19707;;-194.18309;;-200.28556;;-205.35633;;-209.7265;;-213.97033;;-218.47807;;-223.1809;;-227.71194;;-231.81255;;-235.55231;;-239.21953;;-243.06818;;-247.14536;;-251.29612;;-255.26895;;-258.76284;;-261.40804;;-262.86388;;-263.12586;;-262.78828;;-262.79698;;-263.66554;;-265.00479;;-266.04642;;-266.49573;;-266.61044;;-266.65799;;-266.65799
-12.950035;;-13.200692;;-13.515387;;-14.011228;;-14.634029;;-15.343198;;-15.936141;;-16.216996;;-16.230586;;-16.148812;;-16.080269;;-16.124994;;-16.409489;;-16.898227;;-17.27359;;-17.333436;;-19.188289;;-22.338915;;-26.638837;;-32.175825;;-39.119275;;-47.544519;;-57.58845;;-69.287509;;-82.459848;;-96.515403;;-110.17285;;-121.66756;;-130.82475;;-138.77101;;-146.16728;;-153.12038;;-159.6356;;-165.93973;;-172.44196;;-179.38769;;-186.58625;;-193.52043;;-199.70607;;-204.98525;;-209.59723;;-213.987;;-218.45969;;-222.98974;;-227.36632;;-231.47263;;-235.41382;;-239.43509;;-243.71831;;-248.1992;;-252.56697;;-256.44342;;-259.54123;;-261.69522;;-262.85176;;-263.14726;;-263.05388;;-263.26483;;-264.13009;;-265.27714;;-266.0771;;-266.37408;;-266.46074;;-266.5345;;-266.5345
-13.915668;;-14.169717;;-14.438838;;-14.951845;;-15.719366;;-16.594713;;-17.237;;-17.342908;;-16.994809;;-16.511819;;-16.121438;;-15.952313;;-16.079348;;-16.412282;;-16.694673;;-16.839578;;-18.489466;;-21.38828;;-25.369551;;-30.511862;;-36.982423;;-44.897535;;-54.386303;;-65.534911;;-78.256163;;-92.144129;;-106.23978;;-118.95794;;-129.51766;;-138.63235;;-146.81894;;-154.13281;;-160.64669;;-166.7104;;-172.82436;;-179.28917;;-186.00751;;-192.61769;;-198.75985;;-204.26054;;-209.19745;;-213.80277;;-218.25419;;-222.58046;;-226.76596;;-230.8685;;-235.02838;;-239.41379;;-244.09553;;-248.88274;;-253.33657;;-257.03075;;-259.7933;;-261.71325;;-262.97416;;-263.73661;;-264.21685;;-264.7409;;-265.47206;;-266.16599;;-266.49318;;-266.51076;;-266.52038;;-266.60479;;-266.60479
-14.557616;;-14.557616;;-15.081735;;-15.713795;;-16.685658;;-17.745032;;-18.448789;;-18.396024;;-17.748598;;-16.927934;;-16.248181;;-15.871948;;-15.829148;;-15.995055;;-16.195746;;-16.484754;;-17.974187;;-20.630986;;-24.301572;;-29.06381;;-35.087106;;-42.556994;;-51.588813;;-62.298486;;-74.675077;;-88.459126;;-102.95289;;-116.86161;;-129.03841;;-139.53807;;-148.54355;;-156.076;;-162.39165;;-168.02439;;-173.54477;;-179.30146;;-185.33244;;-191.47492;;-197.50511;;-203.21762;;-208.49553;;-213.34063;;-217.81798;;-222.01968;;-226.09897;;-230.25509;;-234.64477;;-239.33656;;-244.27459;;-249.18487;;-253.60733;;-257.16715;;-259.81996;;-261.80226;;-263.37012;;-264.62015;;-265.56652;;-266.28132;;-266.80098;;-267.00714;;-266.85776;;-266.62215;;-266.60081;;-266.733;;-266.733
-14.871093;;-14.871093;;-15.421511;;-16.153608;;-17.263242;;-18.439932;;-19.186433;;-19.052001;;-18.258104;;-17.264667;;-16.415292;;-15.886895;;-15.688017;;-15.691586;;-15.821307;;-16.289287;;-17.773418;;-20.246759;;-23.657114;;-28.101152;;-33.751531;;-40.825378;;-49.498918;;-59.862072;;-71.938722;;-85.559465;;-100.20829;;-114.8811;;-128.44368;;-140.33836;;-150.2035;;-157.9703;;-164.12245;;-169.36939;;-174.30518;;-179.32993;;-184.65268;;-190.30624;;-196.17036;;-202.00264;;-207.53116;;-212.58863;;-217.17239;;-221.42108;;-225.57669;;-229.89713;;-234.51227;;-239.37289;;-244.31955;;-249.11783;;-253.46926;;-257.13158;;-260.05859;;-262.37133;;-264.19927;;-265.59185;;-266.57621;;-267.20841;;-267.48952;;-267.36431;;-266.96506;;-266.68452;;-266.77633;;-267.02528;;-267.02528
-15.083846;;-15.337826;;-15.569629;;-16.239775;;-17.309571;;-18.454071;;-19.180038;;-19.082233;;-18.347049;;-17.389718;;-16.536663;;-15.955217;;-15.643336;;-15.513623;;-15.600362;;-16.280315;;-17.869722;;-20.236267;;-23.424859;;-27.586752;;-32.918493;;-39.638804;;-47.978574;;-58.032179;;-69.803392;;-83.177647;;-97.76841;;-112.81401;;-127.34346;;-140.40843;;-151.0916;;-159.16403;;-165.2809;;-170.27081;;-174.7404;;-179.16968;;-183.94274;;-189.22727;;-194.93544;;-200.78314;;-206.41775;;-211.60488;;-216.34023;;-220.7969;;-225.21232;;-229.7835;;-234.54427;;-239.34252;;-244.01263;;-248.52381;;-252.88911;;-256.99074;;-260.57109;;-263.38229;;-265.33025;;-266.52014;;-267.18857;;-267.53566;;-267.59039;;-267.33395;;-266.97546;;-266.89966;;-267.22937;;-267.62098;;-267.62098
-15.217293;;-15.472414;;-15.574687;;-16.069509;;-16.984965;;-17.996194;;-18.636409;;-18.597934;;-18.036357;;-17.274561;;-16.565468;;-16.034461;;-15.683868;;-15.495217;;-15.610859;;-16.508173;;-18.228462;;-20.590967;;-23.614546;;-27.50247;;-32.547264;;-38.991181;;-47.055769;;-56.892537;;-68.449973;;-81.634685;;-96.135196;;-111.32471;;-126.32118;;-139.9917;;-151.11839;;-159.35505;;-165.42253;;-170.20802;;-174.36025;;-178.45287;;-182.97741;;-188.13428;;-193.79214;;-199.61782;;-205.24027;;-210.4455;;-215.29093;;-219.99341;;-224.72644;;-229.52401;;-234.26658;;-238.75845;;-242.96712;;-247.17937;;-251.73133;;-256.52525;;-260.938;;-264.27266;;-266.26701;;-267.18898;;-267.53205;;-267.62842;;-267.53253;;-267.27543;;-267.11374;;-267.3457;;-267.92;;-268.41709;;-268.41709
-15.198452;;-15.454454;;-15.447734;;-15.783754;;-16.540566;;-17.392601;;-17.913604;;-17.908238;;-17.537107;;-17.028465;;-16.532143;;-16.121175;;-15.819275;;-15.676186;;-15.895869;;-16.92718;;-18.732518;;-21.135409;;-24.101816;;-27.806375;;-32.690538;;-39.030649;;-47.027609;;-56.851485;;-68.419678;;-81.620793;;-96.138267;;-111.32066;;-126.22369;;-139.67696;;-150.51871;;-158.4586;;-164.22311;;-168.75362;;-172.78866;;-176.92522;;-181.58797;;-186.87901;;-192.59754;;-198.39978;;-203.9519;;-209.10028;;-213.97421;;-218.82888;;-223.76778;;-228.65523;;-233.23483;;-237.33684;;-241.13201;;-245.1948;;-250.0531;;-255.52378;;-260.64092;;-264.39007;;-266.46788;;-267.32985;;-267.63498;;-267.73207;;-267.64649;;-267.44981;;-267.4428;;-267.86009;;-268.54444;;-269.06636;;-269.06636
-15.018049;;-15.274686;;-15.224233;;-15.483918;;-16.136275;;-16.854212;;-17.265735;;-17.282814;;-17.080205;;-16.801707;;-16.506496;;-16.239236;;-16.055314;;-16.041512;;-16.380008;;-17.431336;;-19.234288;;-21.635321;;-24.594806;;-28.31728;;-33.2927;;-39.78298;;-47.978743;;-58.040075;;-69.86087;;-83.30051;;-97.960045;;-113.01545;;-127.31137;;-139.75747;;-149.56139;;-156.63682;;-161.72817;;-165.91661;;-170.09165;;-174.72203;;-179.89561;;-185.47774;;-191.25764;;-197.00336;;-202.483;;-207.58694;;-212.44874;;-217.31277;;-222.24858;;-227.06042;;-231.46242;;-235.34847;;-239.0175;;-243.14284;;-248.25631;;-254.0801;;-259.51498;;-263.48559;;-265.74992;;-266.85904;;-267.47521;;-267.85919;;-267.96843;;-267.87521;;-267.89243;;-268.25375;;-268.83572;;-269.28019;;-269.28019
-14.742577;;-14.999832;;-14.964867;;-15.224848;;-15.83247;;-16.465561;;-16.810064;;-16.856079;;-16.780436;;-16.66614;;-16.522169;;-16.391409;;-16.35348;;-16.491689;;-16.922003;;-17.905871;;-19.607915;;-21.945657;;-24.946895;;-28.920864;;-34.22569;;-41.074136;;-49.666712;;-60.123745;;-72.337238;;-86.131121;;-100.97729;;-115.7914;;-129.1331;;-140.13849;;-148.53454;;-154.44685;;-158.66629;;-162.50312;;-167.02809;;-172.44393;;-178.2986;;-184.15075;;-189.88812;;-195.52869;;-200.98411;;-206.12875;;-210.99323;;-215.74396;;-220.47387;;-225.09123;;-229.41927;;-233.40303;;-237.29314;;-241.62378;;-246.79327;;-252.51354;;-257.82457;;-261.83765;;-264.40046;;-265.99246;;-267.11438;;-267.90695;;-268.2988;;-268.35303;;-268.34385;;-268.51768;;-268.87118;;-269.17583;;-269.17583
-14.445727;;-14.703538;;-14.719172;;-15.028081;;-15.643106;;-16.252094;;-16.576296;;-16.636213;;-16.613097;;-16.583413;;-16.547344;;-16.54111;;-16.63994;;-16.902297;;-17.388437;;-18.276675;;-19.816101;;-22.098799;;-25.30719;;-29.69275;;-35.442992;;-42.751281;;-51.828094;;-62.71018;;-75.333172;;-89.45866;;-104.40726;;-118.81833;;-131.07231;;-140.69128;;-147.85264;;-152.81436;;-156.38327;;-160.02583;;-164.90692;;-170.96201;;-177.27887;;-183.20404;;-188.78907;;-194.3244;;-199.83879;;-205.12155;;-210.018;;-214.57896;;-218.97622;;-223.34123;;-227.68355;;-231.95438;;-236.21696;;-240.73793;;-245.75535;;-251.06964;;-256.02491;;-260.02318;;-262.95387;;-265.08263;;-266.66793;;-267.7776;;-268.40327;;-268.63729;;-268.69452;;-268.79082;;-269.00113;;-269.20673;;-269.20673
-14.171393;;-14.429953;;-14.499058;;-14.868074;;-15.523595;;-16.163498;;-16.505637;;-16.551635;;-16.505622;;-16.497472;;-16.54485;;-16.653431;;-16.8625;;-17.210064;;-17.729111;;-18.541453;;-19.952656;;-22.375867;;-25.97836;;-30.826167;;-37.061374;;-44.881729;;-54.428788;;-65.715167;;-78.69089;;-93.027192;;-107.88106;;-121.67791;;-132.90843;;-141.52544;;-147.96368;;-152.54489;;-156.01196;;-159.73282;;-164.76352;;-170.90765;;-177.15133;;-182.86258;;-188.23306;;-193.70263;;-199.3385;;-204.80891;;-209.75482;;-214.11946;;-218.17664;;-222.27962;;-226.59219;;-231.04581;;-235.52999;;-240.09614;;-244.88405;;-249.81612;;-254.5122;;-258.57604;;-261.8471;;-264.35973;;-266.19822;;-267.4443;;-268.20398;;-268.63055;;-268.89864;;-269.1472;;-269.41771;;-269.62637;;-269.62637
-13.926849;;-14.186424;;-14.279487;;-14.671111;;-15.351479;;-16.041326;;-16.439955;;-16.495072;;-16.423168;;-16.421213;;-16.534262;;-16.735545;;-17.025739;;-17.431064;;-17.976372;;-18.754285;;-20.270509;;-23.138279;;-27.23072;;-32.595255;;-39.383626;;-47.759109;;-57.76658;;-69.456971;;-82.707894;;-97.061931;;-111.50282;;-124.42542;;-134.77174;;-142.7892;;-148.96885;;-153.65818;;-157.48165;;-161.49007;;-166.45029;;-172.16903;;-177.87451;;-183.15531;;-188.27404;;-193.67169;;-199.39569;;-205.01522;;-210.01337;;-214.26073;;-218.09876;;-221.98154;;-226.11938;;-230.44944;;-234.84064;;-239.29477;;-243.92687;;-248.72756;;-253.43044;;-257.66016;;-261.14346;;-263.78925;;-265.66377;;-266.92477;;-267.76651;;-268.39028;;-268.94969;;-269.48475;;-269.93171;;-270.19858;;-270.19858
-13.708374;;-13.968735;;-14.049801;;-14.404013;;-15.055132;;-15.772218;;-16.257477;;-16.402043;;-16.381595;;-16.415087;;-16.573754;;-16.831093;;-17.175324;;-17.623472;;-18.19221;;-19.026326;;-21.123123;;-24.568971;;-29.247602;;-35.245904;;-42.726571;;-51.732012;;-62.33203;;-74.486349;;-87.914101;;-101.94576;;-115.42677;;-127.12398;;-136.62724;;-144.25643;;-150.39255;;-155.34505;;-159.62732;;-163.96805;;-168.81796;;-174.01044;;-179.09377;;-183.91055;;-188.74311;;-193.9721;;-199.63066;;-205.26438;;-210.29248;;-214.54699;;-218.35469;;-222.11345;;-225.9794;;-229.94387;;-234.01401;;-238.28548;;-242.87744;;-247.75424;;-252.61248;;-256.99498;;-260.53909;;-263.14895;;-264.97019;;-266.23751;;-267.18343;;-268.02352;;-268.87592;;-269.67415;;-270.25931;;-270.5564;;-270.5564
-13.520989;;-13.781751;;-13.845256;;-14.138335;;-14.724771;;-15.439217;;-16.018357;;-16.317281;;-16.425473;;-16.524312;;-16.70855;;-16.990745;;-17.373014;;-17.857702;;-18.448735;;-19.674588;;-22.502147;;-26.582693;;-31.935515;;-38.700906;;-46.978245;;-56.804975;;-68.193955;;-80.934554;;-94.442133;;-107.64107;;-119.45868;;-129.5782;;-138.15262;;-145.43044;;-151.58416;;-156.78967;;-161.44102;;-166.05415;;-170.8734;;-175.74057;;-180.40772;;-184.8721;;-189.40586;;-194.33411;;-199.71452;;-205.17012;;-210.16758;;-214.51571;;-218.4382;;-222.18763;;-225.84086;;-229.46309;;-233.23431;;-237.36781;;-241.96631;;-246.90751;;-251.81954;;-256.21361;;-259.72747;;-262.30278;;-264.13526;;-265.48598;;-266.59283;;-267.65995;;-268.74927;;-269.70639;;-270.33496;;-270.61525;;-270.61525
-13.331143;;-13.59156;;-13.674133;;-13.95015;;-14.492557;;-15.201627;;-15.867179;;-16.326919;;-16.579573;;-16.747863;;-16.948732;;-17.24756;;-17.666103;;-18.183822;;-18.827254;;-20.756783;;-24.165538;;-28.851879;;-34.892127;;-42.454002;;-51.5753;;-62.316393;;-74.591631;;-87.979333;;-101.46102;;-113.36975;;-123.17339;;-131.62266;;-139.22954;;-146.16734;;-152.39984;;-157.89684;;-162.86394;;-167.65886;;-172.45662;;-177.15283;;-181.60838;;-185.86487;;-190.13538;;-194.67969;;-199.60722;;-204.70825;;-209.58344;;-214.01437;;-218.07628;;-221.89618;;-225.52487;;-229.07699;;-232.79899;;-236.92126;;-241.48739;;-246.30995;;-251.03883;;-255.28246;;-258.75855;;-261.41626;;-263.40378;;-264.92658;;-266.19148;;-267.3923;;-268.58039;;-269.59014;;-270.23104;;-270.50715;;-270.50715
-13.033542;;-13.033542;;-13.458355;;-13.804143;;-14.364417;;-15.092788;;-15.838208;;-16.433656;;-16.811531;;-17.04654;;-17.273324;;-17.597344;;-18.048622;;-18.578726;;-19.341617;;-21.820869;;-25.680038;;-30.858693;;-37.479193;;-45.696821;;-55.538396;;-67.056462;;-80.07816;;-93.986719;;-107.33863;;-118.01188;;-126.21839;;-133.37209;;-140.20889;;-146.8954;;-153.26604;;-159.09094;;-164.33711;;-169.20078;;-173.87487;;-178.39104;;-182.71184;;-186.85602;;-190.91662;;-195.05647;;-199.44705;;-204.08791;;-208.74214;;-213.16081;;-217.29436;;-221.22785;;-225.05113;;-228.874;;-232.85106;;-237.08948;;-241.55073;;-246.07213;;-250.44996;;-254.47451;;-257.96111;;-260.82253;;-263.0758;;-264.7821;;-266.07071;;-267.17114;;-268.25588;;-269.25896;;-269.98079;;-270.33553;;-270.33553
-12.569836;;-12.569836;;-13.127292;;-13.617163;;-14.25857;;-15.036684;;-15.859551;;-16.570842;;-17.064358;;-17.37733;;-17.648251;;-17.998368;;-18.452137;;-18.936319;;-19.7604;;-22.495898;;-26.605098;;-32.064444;;-39.013947;;-47.588963;;-57.824932;;-69.757818;;-83.163653;;-97.317291;;-110.55975;;-120.72058;;-128.34165;;-134.96258;;-141.44471;;-148.02244;;-154.50748;;-160.55938;;-165.96782;;-170.79921;;-175.27996;;-179.58476;;-183.76326;;-187.78209;;-191.60119;;-195.30651;;-199.14918;;-203.31331;;-207.6841;;-212.00006;;-216.16586;;-220.29115;;-224.50399;;-228.83909;;-233.25475;;-237.66877;;-241.99094;;-246.17146;;-250.20344;;-254.04589;;-257.58441;;-260.68097;;-263.19671;;-265.00672;;-266.14732;;-266.93965;;-267.78055;;-268.76226;;-269.63683;;-270.13803;;-270.13803
-12.041742;;-12.041742;;-12.743262;;-13.400536;;-14.156032;;-15.000197;;-15.893949;;-16.706935;;-17.315113;;-17.719909;;-18.041242;;-18.394394;;-18.79164;;-19.146945;;-19.862067;;-22.621839;;-26.761067;;-32.248507;;-39.221192;;-47.800126;;-58.024552;;-69.925499;;-83.276237;;-97.368897;;-110.64751;;-121.20858;;-129.30826;;-136.20049;;-142.77531;;-149.377;;-155.88811;;-161.98493;;-167.42265;;-172.2105;;-176.56217;;-180.69033;;-184.65261;;-188.35041;;-191.68928;;-194.81996;;-198.14435;;-201.93961;;-206.09424;;-210.34774;;-214.64806;;-219.13874;;-223.90461;;-228.83814;;-233.70561;;-238.29582;;-242.53453;;-246.49818;;-250.31721;;-254.04453;;-257.608;;-260.84145;;-263.50183;;-265.33845;;-266.32677;;-266.85107;;-267.46563;;-268.38671;;-269.34774;;-269.95057;;-269.95057
-11.634351;;-11.634351;;-12.457878;;-13.251911;;-14.114006;;-15.018504;;-15.96383;;-16.85118;;-17.555372;;-18.046316;;-18.409749;;-18.738815;;-19.031707;;-19.209404;;-19.70511;;-22.345275;;-26.359864;;-31.691956;;-38.463976;;-46.786548;;-56.696251;;-68.22896;;-81.188499;;-94.969311;;-108.31228;;-119.70095;;-128.89423;;-136.60997;;-143.62695;;-150.38354;;-156.8928;;-162.9561;;-168.41238;;-173.2597;;-177.62617;;-181.62842;;-185.22104;;-188.21939;;-190.61663;;-192.89802;;-195.7677;;-199.4734;;-203.69325;;-208.10838;;-212.76372;;-217.82186;;-223.2327;;-228.71717;;-233.94558;;-238.7084;;-242.98877;;-246.9187;;-250.66195;;-254.29934;;-257.78543;;-260.97051;;-263.62557;;-265.50722;;-266.55487;;-267.07433;;-267.58062;;-268.35288;;-269.22014;;-269.79974;;-269.79974
-11.441548;;-11.441548;;-12.082264;;-13.222528;;-14.159511;;-15.101773;;-16.062794;;-16.97539;;-17.729646;;-18.283814;;-18.689468;;-19.006087;;-19.217647;;-19.269356;;-19.54399;;-21.961875;;-25.764884;;-30.848594;;-37.309724;;-45.251516;;-54.696402;;-65.685806;;-78.062747;;-91.344062;;-104.58451;;-116.63762;;-126.94173;;-135.67506;;-143.36797;;-150.45699;;-157.09086;;-163.24776;;-168.88446;;-173.97869;;-178.52309;;-182.46243;;-185.56673;;-187.53504;;-188.57264;;-189.76187;;-192.2754;;-196.23211;;-200.87301;;-205.69283;;-210.83694;;-216.5031;;-222.49538;;-228.39844;;-233.89583;;-238.86351;;-243.31102;;-247.32958;;-251.04806;;-254.54441;;-257.79612;;-260.7381;;-263.2953;;-265.32894;;-266.6945;;-267.46028;;-267.96616;;-268.54375;;-269.21074;;-269.69427;;-269.69427
-11.357618;;-11.357618;;-12.044864;;-13.241723;;-14.232282;;-15.190201;;-16.124203;;-17.00333;;-17.756132;;-18.357048;;-18.833171;;-19.204987;;-19.443059;;-19.524107;;-19.711197;;-21.719428;;-25.226278;;-29.99816;;-36.084933;;-43.593197;;-52.510662;;-62.874483;;-74.5606;;-87.19025;;-100.06664;;-112.34225;;-123.39052;;-133.03492;;-141.49652;;-149.10492;;-156.09986;;-162.62341;;-168.72158;;-174.32213;;-179.27224;;-183.33911;;-186.09937;;-187.15055;;-186.94388;;-187.17071;;-189.44455;;-193.72864;;-198.80743;;-203.95342;;-209.3954;;-215.41019;;-221.74175;;-227.91733;;-233.66827;;-238.92419;;-243.64188;;-247.80453;;-251.472;;-254.70188;;-257.52275;;-260.05903;;-262.49387;;-264.78419;;-266.60233;;-267.71354;;-268.29284;;-268.74305;;-269.25811;;-269.66491;;-269.66491
-11.208501;;-11.208501;;-11.930283;;-13.173682;;-14.21925;;-15.196112;;-16.077619;;-16.886346;;-17.614309;;-18.268194;;-18.859993;;-19.374928;;-19.775614;;-20.063433;;-20.432804;;-21.869203;;-24.936641;;-29.284271;;-34.898489;;-41.875966;;-50.213388;;-59.891072;;-70.814201;;-82.689752;;-95.00436;;-107.13004;;-118.50372;;-128.79556;;-137.97341;;-146.20654;;-153.75874;;-160.88606;;-167.69274;;-174.0602;;-179.71418;;-184.26306;;-187.15511;;-187.99247;;-187.40894;;-187.33462;;-189.47472;;-193.69144;;-198.63949;;-203.57372;;-208.81002;;-214.71956;;-221.08828;;-227.44728;;-233.51579;;-239.16799;;-244.24161;;-248.58596;;-252.16266;;-255.00041;;-257.24219;;-259.29262;;-261.60074;;-264.13982;;-266.35585;;-267.77389;;-268.481;;-268.92595;;-269.38664;;-269.75216;;-269.75216
-10.96778;;-10.96778;;-11.702702;;-12.970087;;-14.061893;;-15.079854;;-15.920463;;-16.664434;;-17.381579;;-18.107072;;-18.841159;;-19.549568;;-20.196708;;-20.797187;;-21.506945;;-22.782858;;-25.240392;;-28.965962;;-33.934882;;-40.199649;;-47.848857;;-56.801182;;-66.95581;;-78.097655;;-89.848438;;-101.71614;;-113.20322;;-123.93211;;-133.71372;;-142.56436;;-150.70986;;-158.46231;;-165.98896;;-173.18796;;-179.72153;;-185.07009;;-188.63309;;-190.13428;;-190.27519;;-190.72312;;-192.81036;;-196.38825;;-200.44659;;-204.54313;;-209.10191;;-214.5544;;-220.76789;;-227.28371;;-233.71823;;-239.79584;;-245.21971;;-249.72415;;-253.18127;;-255.62276;;-257.35243;;-259.01838;;-261.20237;;-263.81638;;-266.17489;;-267.73803;;-268.57857;;-269.11281;;-269.58998;;-269.93304;;-269.93304
-10.724576;;-10.724576;;-11.452489;;-12.718069;;-13.8327;;-14.898854;;-15.737173;;-16.449085;;-17.180612;;-17.98016;;-18.839198;;-19.722329;;-20.608016;;-21.520754;;-22.5789;;-24.042005;;-26.207618;;-29.279913;;-33.46247;;-38.906731;;-45.708728;;-53.935543;;-63.455381;;-74.079244;;-85.513143;;-97.325329;;-109.01946;;-120.16217;;-130.46188;;-139.82748;;-148.42506;;-156.57848;;-164.5376;;-172.30412;;-179.56211;;-185.72187;;-190.18701;;-192.82085;;-194.26063;;-195.63072;;-197.70406;;-200.40067;;-203.28008;;-206.3485;;-210.13018;;-215.06553;;-221.07697;;-227.69237;;-234.38883;;-240.72793;;-246.31428;;-250.83268;;-254.14339;;-256.34978;;-257.88789;;-259.45797;;-261.54687;;-263.9713;;-266.1096;;-267.57846;;-268.50302;;-269.18993;;-269.75937;;-270.1208;;-270.1208
-10.561301;;-10.561301;;-11.280257;;-12.539807;;-13.667502;;-14.774293;;-15.641831;;-16.346293;;-17.096201;;-17.941332;;-18.867618;;-19.853345;;-20.901675;;-22.050717;;-23.389088;;-25.064989;;-27.209754;;-29.902006;;-33.360956;;-38.012939;;-44.110056;;-51.733298;;-60.905985;;-71.405408;;-82.952852;;-95.12126;;-107.33263;;-119.01083;;-129.75086;;-139.42913;;-148.21063;;-156.42944;;-164.41371;;-172.29899;;-179.85424;;-186.5065;;-191.70923;;-195.38616;;-197.99315;;-200.14527;;-202.20981;;-204.24038;;-206.27407;;-208.63605;;-211.88365;;-216.4267;;-222.20378;;-228.72758;;-235.38597;;-241.64868;;-247.09278;;-251.43158;;-254.59838;;-256.80215;;-258.51182;;-260.26461;;-262.29005;;-264.33791;;-266.01496;;-267.23316;;-268.20217;;-269.08341;;-269.81801;;-270.25226;;-270.25226
-10.502534;;-10.502534;;-11.22194;;-12.486705;;-13.631947;;-14.774216;;-15.675055;;-16.367031;;-17.112073;;-17.960552;;-18.892146;;-19.903292;;-21.027167;;-22.315641;;-23.83488;;-25.660393;;-27.826468;;-30.319852;;-33.283413;;-37.347512;;-43.045765;;-50.463388;;-59.620299;;-70.419273;;-82.493474;;-95.408064;;-108.4548;;-120.80089;;-131.87583;;-141.6043;;-150.26155;;-158.24531;;-165.94363;;-173.57873;;-181.00971;;-187.76409;;-193.39095;;-197.78107;;-201.13378;;-203.72773;;-205.80389;;-207.58591;;-209.34825;;-211.49086;;-214.50756;;-218.74969;;-224.16026;;-230.28134;;-236.51625;;-242.35133;;-247.40986;;-251.47685;;-254.56517;;-256.93071;;-258.96101;;-260.9499;;-262.89414;;-264.55882;;-265.81408;;-266.82926;;-267.85602;;-268.9186;;-269.81149;;-270.32361;;-270.32361
-10.49559;;-10.49559;;-11.220268;;-12.230763;;-13.659137;;-14.830188;;-15.755475;;-16.417892;;-17.133435;;-17.959793;;-18.866102;;-19.859118;;-20.998365;;-22.347827;;-23.954232;;-25.843375;;-27.992816;;-30.333809;;-32.984372;;-36.767834;;-42.429473;;-49.983282;;-59.431585;;-70.72881;;-83.491372;;-97.285495;;-111.30053;;-124.42434;;-135.82804;;-145.4643;;-153.78246;;-161.32254;;-168.55333;;-175.74443;;-182.83086;;-189.48015;;-195.34058;;-200.19797;;-203.98549;;-206.81282;;-208.98978;;-210.89906;;-212.85109;;-215.13227;;-218.09286;;-222.01217;;-226.86282;;-232.28638;;-237.79748;;-242.98166;;-247.55576;;-251.37623;;-254.46833;;-257.01542;;-259.25218;;-261.304;;-263.10265;;-264.51236;;-265.57907;;-266.56664;;-267.68144;;-268.84597;;-269.79785;;-270.32989;;-270.32989
-10.436818;;-10.436818;;-11.157524;;-12.165041;;-13.599747;;-14.790147;;-15.754533;;-16.40188;;-17.087563;;-17.891284;;-18.773895;;-19.741348;;-20.866862;;-22.22208;;-23.839713;;-25.715012;;-27.792089;;-29.982777;;-32.440253;;-36.234246;;-42.086276;;-49.911051;;-59.722122;;-71.489735;;-84.871168;;-99.461584;;-114.40877;;-128.38593;;-140.24247;;-149.84464;;-157.77965;;-164.77159;;-171.42172;;-178.07748;;-184.77651;;-191.32031;;-197.38721;;-202.60329;;-206.69395;;-209.72983;;-212.15524;;-214.45457;;-216.8597;;-219.45477;;-222.41124;;-225.95053;;-230.11928;;-234.70728;;-239.38034;;-243.85072;;-247.93936;;-251.54968;;-254.64505;;-257.25342;;-259.46178;;-261.36074;;-262.9707;;-264.27739;;-265.37433;;-266.46679;;-267.65961;;-268.82385;;-269.72451;;-270.21297;;-270.21297
-10.272902;;-10.272902;;-10.973412;;-11.95665;;-13.378527;;-14.579887;;-15.617132;;-16.307257;;-16.985947;;-17.777106;;-18.648785;;-19.600676;;-20.701058;;-22.020044;;-23.585993;;-25.383624;;-27.343979;;-29.385892;;-31.758004;;-35.750955;;-41.830674;;-49.889939;;-59.975493;;-72.064052;;-85.878687;;-101.05761;;-116.76454;;-131.57264;;-144.03512;;-153.80683;;-161.50851;;-168.01377;;-174.07553;;-180.17978;;-186.52077;;-193.00734;;-199.26655;;-204.76144;;-209.11403;;-212.43101;;-215.24607;;-218.05389;;-220.9662;;-223.87649;;-226.81244;;-229.97765;;-233.50966;;-237.33084;;-241.23876;;-245.06621;;-248.72063;;-252.10963;;-255.09804;;-257.57654;;-259.56675;;-261.21821;;-262.67374;;-263.98703;;-265.20147;;-266.40081;;-267.60286;;-268.68671;;-269.48787;;-269.91697;;-269.91697
-10.05958;;-10.05958;;-10.732418;;-11.68145;;-13.081305;;-14.28756;;-15.403675;;-16.189127;;-16.886901;;-17.676885;;-18.551632;;-19.503629;;-20.575419;;-21.820741;;-23.271602;;-24.925433;;-26.730654;;-28.638523;;-31.046773;;-35.297868;;-41.552002;;-49.748279;;-59.970545;;-72.195385;;-86.215077;;-101.71162;;-117.89981;;-133.36753;;-146.50641;;-156.71717;;-164.51759;;-170.81484;;-176.46848;;-182.12561;;-188.15495;;-194.54395;;-200.86396;;-206.50885;;-211.11493;;-214.81674;;-218.09858;;-221.35559;;-224.60563;;-227.66582;;-230.52578;;-233.40778;;-236.49563;;-239.76395;;-243.09359;;-246.42464;;-249.72369;;-252.86107;;-255.61513;;-257.83098;;-259.56131;;-261.0273;;-262.42402;;-263.79146;;-265.08773;;-266.30044;;-267.4214;;-268.38667;;-269.10338;;-269.50124;;-269.50124
-9.8826704;;-9.8826704;;-10.532385;;-11.452526;;-12.83232;;-14.038079;;-15.204158;;-16.088013;;-16.823394;;-17.628123;;-18.522617;;-19.489721;;-20.531709;;-21.673581;;-22.953729;;-24.40476;;-26.020039;;-27.812728;;-30.365393;;-34.845032;;-41.203369;;-49.436134;;-59.654932;;-71.820167;;-85.787538;;-101.27579;;-117.57495;;-133.39962;;-147.20038;;-158.16925;;-166.54906;;-173.10247;;-178.70793;;-184.14634;;-189.92523;;-196.09569;;-202.26245;;-207.91057;;-212.77632;;-216.94084;;-220.66949;;-224.17407;;-227.46208;;-230.44106;;-233.17452;;-235.89856;;-238.75849;;-241.69595;;-244.63251;;-247.5978;;-250.59777;;-253.46733;;-255.95611;;-257.94624;;-259.5494;;-260.99463;;-262.4296;;-263.83064;;-265.10552;;-266.22584;;-267.21603;;-268.07202;;-268.73918;;-269.13211;;-269.13211
-9.7451915;;-9.7451915;;-10.375101;;-11.269922;;-12.626987;;-13.821856;;-15.00883;;-15.971549;;-16.762387;;-17.60164;;-18.528324;;-19.515102;;-20.525646;;-21.553822;;-22.64643;;-23.879088;;-25.300393;;-26.99634;;-29.741363;;-34.383226;;-40.785528;;-48.978127;;-59.081463;;-71.013173;;-84.684908;;-99.838525;;-115.85997;;-131.69567;;-146.06984;;-158.07895;;-167.53233;;-174.85164;;-180.82549;;-186.30846;;-191.90344;;-197.75259;;-203.61628;;-209.18993;;-214.31585;;-218.92611;;-222.97238;;-226.48143;;-229.55412;;-232.31141;;-234.92606;;-237.58918;;-240.33919;;-243.05935;;-245.70291;;-248.36461;;-251.07885;;-253.68767;;-255.98446;;-257.92222;;-259.62757;;-261.24153;;-262.78019;;-264.15011;;-265.28946;;-266.25298;;-267.1272;;-267.91949;;-268.55849;;-268.94252;;-268.94252
-9.5705485;;-9.5705485;;-10.172703;;-11.030542;;-12.084795;;-13.515296;;-14.708353;;-15.752091;;-16.618817;;-17.496367;;-18.44399;;-19.435659;;-20.414969;;-21.354404;;-22.303989;;-23.371308;;-24.643341;;-26.266659;;-29.179422;;-33.920422;;-40.335004;;-48.468963;;-58.420172;;-70.063972;;-83.337316;;-97.985755;;-113.49655;;-129.10505;;-143.89524;;-156.97041;;-167.72667;;-176.1376;;-182.77556;;-188.48274;;-193.94417;;-199.46154;;-205.02794;;-210.5433;;-215.88233;;-220.79272;;-224.96172;;-228.31014;;-231.08616;;-233.63093;;-236.17846;;-238.81126;;-241.44925;;-243.95596;;-246.33601;;-248.72508;;-251.16858;;-253.54061;;-255.71678;;-257.73221;;-259.70214;;-261.61976;;-263.31057;;-264.61156;;-265.56361;;-266.3765;;-267.1988;;-267.99017;;-268.61866;;-268.98216;;-268.98216
-9.3261092;;-9.3261092;;-9.8884913;;-10.692682;;-11.688235;;-13.072306;;-14.256919;;-15.374751;;-16.31467;;-17.195394;;-18.113277;;-19.075082;;-20.031671;;-20.941732;;-21.843272;;-22.848536;;-24.050683;;-25.628133;;-28.656639;;-33.459743;;-39.89264;;-48.013116;;-57.878253;;-69.367477;;-82.401926;;-96.705617;;-111.8134;;-127.17535;;-142.16372;;-155.97462;;-167.79405;;-177.22768;;-184.55796;;-190.52543;;-195.8931;;-201.16651;;-206.55181;;-212.04121;;-217.45856;;-222.43736;;-226.56818;;-229.75502;;-232.33476;;-234.756;;-237.24954;;-239.79778;;-242.26086;;-244.53986;;-246.69733;;-248.87595;;-251.09875;;-253.24623;;-255.2583;;-257.27476;;-259.46013;;-261.69391;;-263.58967;;-264.89306;;-265.75415;;-266.532;;-267.40437;;-268.25838;;-268.90361;;-269.25316;;-269.25316
-9.0630981;;-9.0630981;;-9.5821906;;-10.327442;;-11.256797;;-12.582317;;-13.735173;;-14.876429;;-15.839328;;-16.649519;;-17.462325;;-18.351494;;-19.297632;;-20.24743;;-21.206314;;-22.255486;;-23.464398;;-25.03341;;-28.183863;;-33.06504;;-39.562535;;-47.753989;;-57.687327;;-69.269469;;-82.417573;;-96.824375;;-111.96147;;-127.25966;;-142.21596;;-156.20466;;-168.46904;;-178.47047;;-186.25226;;-192.41266;;-197.7549;;-202.9347;;-208.2587;;-213.68834;;-218.98331;;-223.80739;;-227.83601;;-230.9913;;-233.55704;;-235.92998;;-238.30733;;-240.6598;;-242.89211;;-244.98364;;-247.02308;;-249.1041;;-251.18076;;-253.08745;;-254.78097;;-256.53134;;-258.67166;;-261.09036;;-263.2301;;-264.71046;;-265.71277;;-266.65009;;-267.67116;;-268.61051;;-269.27292;;-269.61086;;-269.61086
-8.8458851;;-8.8458851;;-9.3275688;;-10.020844;;-10.88909;;-12.152189;;-13.249344;;-14.348159;;-15.251164;;-15.912901;;-16.567596;;-17.360697;;-18.301434;;-19.330767;;-20.413927;;-21.575424;;-22.838938;;-24.473564;;-27.836581;;-32.867842;;-39.516837;;-47.897277;;-58.069939;;-69.986031;;-83.577602;;-98.511813;;-114.12247;;-129.57591;;-144.30179;;-157.92792;;-169.97352;;-179.98037;;-187.89466;;-194.19762;;-199.65017;;-204.90581;;-210.23004;;-215.50871;;-220.50799;;-225.04667;;-228.97131;;-232.2051;;-234.87165;;-237.21754;;-239.40933;;-241.49287;;-243.49607;;-245.48843;;-247.54403;;-249.65542;;-251.66739;;-253.33223;;-254.58658;;-255.82796;;-257.63034;;-260.01861;;-262.36167;;-264.14214;;-265.46312;;-266.66904;;-267.83527;;-268.79128;;-269.40888;;-269.70849;;-269.70849
-8.6933702;;-8.6933702;;-9.1452481;;-9.7957848;;-10.610695;;-11.811462;;-12.837837;;-13.850601;;-14.619101;;-15.093598;;-15.591639;;-16.30084;;-17.240368;;-18.347777;;-19.562103;;-20.850683;;-22.18856;;-24.027266;;-27.687101;;-32.943218;;-39.823274;;-48.486426;;-59.006866;;-71.387269;;-85.573025;;-101.20416;;-117.46224;;-133.13448;;-147.45799;;-160.38019;;-171.80082;;-181.46589;;-189.35395;;-195.86475;;-201.61146;;-207.07964;;-212.41112;;-217.46995;;-222.12523;;-226.37619;;-230.20249;;-233.50305;;-236.24831;;-238.54894;;-240.55973;;-242.42029;;-244.27348;;-246.24846;;-248.38605;;-250.57948;;-252.57301;;-254.05188;;-254.93158;;-255.67992;;-257.04456;;-259.21527;;-261.5985;;-263.59389;;-265.17117;;-266.54222;;-267.71432;;-268.56159;;-269.06078;;-269.29732;;-269.29732
-8.5713089;;-8.5713089;;-8.9961825;;-9.607343;;-10.37166;;-11.510183;;-12.461528;;-13.376329;;-13.99398;;-14.314414;;-14.71085;;-15.374824;;-16.315906;;-17.46895;;-18.767363;;-20.147742;;-21.562833;;-23.735477;;-27.663097;;-33.137414;;-40.244602;;-49.181335;;-60.029524;;-72.837182;;-87.554705;;-103.79242;;-120.59452;;-136.36773;;-150.1588;;-162.30885;;-173.0835;;-182.42754;;-190.37967;;-197.24674;;-203.41672;;-209.13994;;-214.46409;;-219.32937;;-223.74764;;-227.82155;;-231.56648;;-234.85831;;-237.60112;;-239.84626;;-241.75506;;-243.52579;;-245.34247;;-247.32224;;-249.46403;;-251.62456;;-253.53409;;-254.88484;;-255.59769;;-256.12282;;-257.20464;;-259.10493;;-261.33604;;-263.31571;;-264.91728;;-266.24307;;-267.27682;;-267.95913;;-268.34736;;-268.54381;;-268.54381
-8.4347816;;-8.4347816;;-8.8293264;;-9.3970148;;-10.107002;;-10.922842;;-12.064684;;-12.905193;;-13.445589;;-13.703842;;-14.068368;;-14.71908;;-15.649469;;-16.797063;;-18.107638;;-19.518279;;-20.995526;;-23.450069;;-27.524444;;-33.108648;;-40.327068;;-49.399341;;-60.413631;;-73.447469;;-88.455141;;-105.02968;;-122.12505;;-137.85035;;-151.1291;;-162.7224;;-173.17369;;-182.52639;;-190.79755;;-198.14451;;-204.72985;;-210.64528;;-215.95705;;-220.74352;;-225.11203;;-229.15627;;-232.86088;;-236.11351;;-238.83592;;-241.07115;;-242.97789;;-244.76761;;-246.60227;;-248.52504;;-250.48186;;-252.36506;;-253.99901;;-255.16182;;-255.81572;;-256.3654;;-257.43423;;-259.21755;;-261.28545;;-263.12412;;-264.59327;;-265.76678;;-266.65593;;-267.25321;;-267.63051;;-267.848;;-267.848
-8.2813533;;-8.2813533;;-8.6408978;;-9.1603406;;-9.8131643;;-10.571129;;-11.658235;;-12.467999;;-13.04973;;-13.358882;;-13.749157;;-14.385579;;-15.264814;;-16.347894;;-17.605329;;-18.988728;;-20.479578;;-23.010952;;-27.070049;;-32.600792;;-39.745136;;-48.731374;;-59.659069;;-72.618359;;-87.577502;;-104.14578;;-121.2734;;-136.94438;;-149.97045;;-161.4231;;-172.021;;-181.80446;;-190.66235;;-198.54978;;-205.46599;;-211.48595;;-216.79912;;-221.61605;;-226.06052;;-230.15326;;-233.84822;;-237.08936;;-239.85454;;-242.17367;;-244.15795;;-245.98787;;-247.79116;;-249.54439;;-251.15155;;-252.55763;;-253.69181;;-254.42129;;-254.80856;;-255.35806;;-256.65377;;-258.70101;;-260.91198;;-262.74857;;-264.12153;;-265.18154;;-266.02011;;-266.65996;;-267.12828;;-267.4132;;-267.4132
-8.1529117;;-8.1529117;;-8.4742631;;-8.9467976;;-9.5486768;;-10.263266;;-11.316498;;-12.130038;;-12.818782;;-13.253548;;-13.684709;;-14.282023;;-15.076551;;-16.066849;;-17.245572;;-18.573881;;-20.015603;;-22.398427;;-26.28251;;-31.601536;;-38.492122;;-47.179675;;-57.784482;;-70.394511;;-85.006472;;-101.28396;;-118.27293;;-134.05341;;-147.25632;;-158.99327;;-170.10416;;-180.60062;;-190.2049;;-198.66251;;-205.87225;;-211.97624;;-217.31081;;-222.1828;;-226.70205;;-230.82466;;-234.4991;;-237.7423;;-240.59177;;-243.05139;;-245.14821;;-246.99485;;-248.69596;;-250.22147;;-251.46929;;-252.38348;;-252.87282;;-252.80999;;-252.46978;;-252.76205;;-254.45813;;-257.26271;;-260.10912;;-262.23907;;-263.64438;;-264.65561;;-265.4996;;-266.23038;;-266.81406;;-267.16875;;-267.16875
-8.0861874;;-8.0861874;;-8.3691945;;-8.8062298;;-9.3738002;;-10.063466;;-11.100615;;-11.925018;;-12.687079;;-13.220705;;-13.667698;;-14.220023;;-14.947307;;-15.874223;;-16.997835;;-18.27613;;-19.644294;;-21.687624;;-25.257748;;-30.235524;;-36.732898;;-44.961637;;-55.074706;;-67.145053;;-81.210016;;-97.020097;;-113.79555;;-129.89921;;-143.75588;;-156.13914;;-167.95811;;-179.24906;;-189.62426;;-198.66687;;-206.20622;;-212.44366;;-217.82459;;-222.73341;;-227.28859;;-231.40774;;-235.02844;;-238.21949;;-241.07949;;-243.61421;;-245.78926;;-247.6473;;-249.27116;;-250.65463;;-251.70375;;-252.28504;;-252.14144;;-251.07594;;-249.6778;;-249.49187;;-251.6437;;-255.47657;;-259.24937;;-261.85213;;-263.36285;;-264.34471;;-265.1851;;-265.97982;;-266.64918;;-267.0559;;-267.0559
-8.0634979;;-8.0634979;;-8.3214828;;-8.7404743;;-9.2913162;;-9.9665946;;-10.992449;;-11.812419;;-12.58222;;-13.12217;;-13.548395;;-14.080345;;-14.801543;;-15.72635;;-16.833881;;-18.077028;;-19.383724;;-21.001433;;-24.105358;;-28.627653;;-34.624019;;-42.27449;;-51.774178;;-63.176015;;-76.558836;;-91.780643;;-108.27997;;-124.80528;;-139.72671;;-153.10073;;-165.76015;;-177.84127;;-188.95201;;-198.58571;;-206.51205;;-212.95763;;-218.44627;;-223.43829;;-228.06818;;-232.20279;;-235.73716;;-238.77122;;-241.47974;;-243.92246;;-246.07087;;-247.94449;;-249.60262;;-251.02832;;-252.10117;;-252.58646;;-252.05543;;-250.24607;;-248.00721;;-247.38657;;-249.80304;;-254.34857;;-258.78374;;-261.72375;;-263.30426;;-264.26554;;-265.11323;;-265.97023;;-266.72255;;-267.18444;;-267.18444
-8.0513965;;-8.0513965;;-8.2855912;;-8.6881171;;-9.2226828;;-9.8799939;;-10.627202;;-11.68536;;-12.429106;;-12.929748;;-13.333279;;-13.885381;;-14.655041;;-15.619195;;-16.73014;;-17.936744;;-19.190268;;-20.517974;;-22.940252;;-26.907709;;-32.326724;;-39.320229;;-48.099131;;-58.7468;;-71.34822;;-85.875534;;-101.98765;;-118.82329;;-134.96025;;-149.63424;;-163.28627;;-176.1839;;-188.03876;;-198.31541;;-206.71907;;-213.48446;;-219.21364;;-224.4258;;-229.22826;;-233.40501;;-236.80763;;-239.5816;;-241.99355;;-244.18278;;-246.1813;;-248.04908;;-249.83491;;-251.45616;;-252.71893;;-253.34065;;-252.86947;;-251.04365;;-248.72024;;-247.95485;;-250.19936;;-254.59873;;-258.93833;;-261.8178;;-263.36371;;-264.33404;;-265.25009;;-266.22251;;-267.09779;;-267.63939;;-267.63939
-8.0380548;;-8.0380548;;-8.2052885;;-8.5653666;;-9.0587333;;-9.6725772;;-10.380141;;-11.4034;;-12.13236;;-12.652843;;-13.081053;;-13.673981;;-14.486803;;-15.473879;;-16.572153;;-17.744311;;-18.970088;;-20.229327;;-21.947525;;-25.28107;;-30.072944;;-36.381591;;-44.387739;;-54.256451;;-66.040785;;-79.806957;;-95.397429;;-112.26938;;-129.33789;;-145.36726;;-160.10963;;-173.87509;;-186.56255;;-197.65209;;-206.75098;;-214.05348;;-220.21067;;-225.76261;;-230.75941;;-234.92731;;-238.13321;;-240.59657;;-242.6614;;-244.53173;;-246.3169;;-248.1548;;-250.10101;;-251.98542;;-253.52425;;-254.45526;;-254.45854;;-253.33197;;-251.68711;;-251.09299;;-252.76251;;-256.17445;;-259.65707;;-262.07359;;-263.48447;;-264.49444;;-265.52782;;-266.64346;;-267.64849;;-268.26824;;-268.26824
-8.0325106;;-8.0325106;;-8.0920784;;-8.3693549;;-8.7885259;;-9.3279074;;-9.9728088;;-10.945505;;-11.671365;;-12.290517;;-12.792773;;-13.378975;;-14.128774;;-15.011102;;-16.027762;;-17.215249;;-18.529179;;-19.899888;;-21.375691;;-23.979808;;-28.145038;;-33.8034;;-41.080825;;-50.187302;;-61.197781;;-74.195826;;-89.153411;;-105.74744;;-123.18882;;-140.21496;;-155.96522;;-170.59241;;-184.2088;;-196.36365;;-206.51278;;-214.66345;;-221.39225;;-227.24082;;-232.28587;;-236.32216;;-239.30782;;-241.51582;;-243.30499;;-244.9147;;-246.5325;;-248.36778;;-250.47946;;-252.63031;;-254.47201;;-255.78144;;-256.40076;;-256.21054;;-255.51463;;-255.24261;;-256.24563;;-258.37913;;-260.6949;;-262.465;;-263.69277;;-264.75198;;-265.89581;;-267.10446;;-268.16374;;-268.80519;;-268.80519
-8.0309199;;-8.0309199;;-8.0436821;;-8.1759654;;-8.5001223;;-8.9543654;;-9.5223766;;-10.180144;;-11.15333;;-11.858869;;-12.453263;;-12.944798;;-13.466207;;-14.08315;;-14.950544;;-16.14453;;-17.623097;;-19.27153;;-20.969895;;-23.111966;;-26.727119;;-31.816032;;-38.471517;;-46.88382;;-57.214143;;-69.504308;;-83.800473;;-99.916224;;-117.27331;;-134.77943;;-151.29155;;-166.6629;;-181.16685;;-194.49706;;-205.93846;;-215.12728;;-222.39464;;-228.31745;;-233.18832;;-237.03006;;-239.90656;;-242.04835;;-243.74265;;-245.25136;;-246.84333;;-248.75755;;-251.02203;;-253.37231;;-255.45741;;-257.08234;;-258.17449;;-258.67355;;-258.69013;;-258.69316;;-259.22474;;-260.36864;;-261.72709;;-262.93601;;-263.99426;;-265.09015;;-266.30828;;-267.54149;;-268.56845;;-269.1686;;-269.1686
-8.0301968;;-8.0301968;;-8.0341709;;-8.0651889;;-8.2657236;;-8.6342938;;-9.1275503;;-9.7323982;;-10.418472;;-11.403194;;-12.057489;;-12.441779;;-12.656063;;-13.001488;;-13.737794;;-14.890847;;-16.415685;;-18.256647;;-20.288869;;-22.549099;;-25.819406;;-30.493618;;-36.680419;;-44.557858;;-54.346938;;-66.092087;;-79.851502;;-95.52581;;-112.67898;;-130.38646;;-147.42358;;-163.31655;;-178.40933;;-192.60829;;-205.09861;;-215.11151;;-222.67168;;-228.44223;;-233.05601;;-236.81443;;-239.82069;;-242.1592;;-243.99086;;-245.59922;;-247.32535;;-249.38862;;-251.75125;;-254.15886;;-256.32907;;-258.10201;;-259.40697;;-260.18014;;-260.45456;;-260.51545;;-260.78723;;-261.47045;;-262.40725;;-263.36967;;-264.34313;;-265.44898;;-266.70465;;-267.94436;;-268.9298;;-269.48225;;-269.48225
-8.0299355;;-8.0299355;;-8.0309065;;-8.0377543;;-8.1063194;;-8.3870497;;-8.8086144;;-9.3475189;;-9.9815528;;-10.664837;;-11.57214;;-11.92344;;-11.859879;;-11.957903;;-12.608541;;-13.7273;;-15.243214;;-17.132543;;-19.348145;;-21.925212;;-25.264247;;-29.798308;;-35.753692;;-43.348778;;-52.830418;;-64.311421;;-77.834345;;-93.348044;;-110.49552;;-128.43358;;-145.85387;;-161.95917;;-177.0972;;-191.41711;;-204.16206;;-214.37616;;-221.91023;;-227.50138;;-232.0141;;-235.90854;;-239.26263;;-242.01017;;-244.18851;;-246.07029;;-248.0214;;-250.2249;;-252.59639;;-254.92365;;-257.02174;;-258.7725;;-260.06526;;-260.76633;;-260.8488;;-260.60973;;-260.62945;;-261.30096;;-262.45684;;-263.65287;;-264.71581;;-265.80597;;-267.04181;;-268.27907;;-269.25256;;-269.78585;;-269.78585
-8.0298758;;-8.0298758;;-8.0300212;;-8.0312905;;-8.0425289;;-8.1837981;;-8.5113863;;-8.9607923;;-9.5091812;;-10.111253;;-10.691293;;-11.295809;;-11.127285;;-11.042823;;-11.68581;;-12.782709;;-14.268667;;-16.149658;;-18.449076;;-21.269412;;-24.874264;;-29.54638;;-35.555505;;-43.170785;;-52.675704;;-64.224937;;-77.884399;;-93.617534;;-111.08162;;-129.40494;;-147.09009;;-163.01923;;-177.55897;;-191.11355;;-203.17328;;-212.9298;;-220.25902;;-225.8526;;-230.53033;;-234.7331;;-238.52116;;-241.77123;;-244.42827;;-246.68294;;-248.85679;;-251.12578;;-253.43882;;-255.65142;;-257.63812;;-259.28684;;-260.4377;;-260.86463;;-260.4488;;-259.57023;;-259.17922;;-260.0373;;-261.87294;;-263.73372;;-265.0852;;-266.14907;;-267.27552;;-268.43674;;-269.36697;;-269.87659;;-269.87659
-8.029869;;-8.029869;;-8.0298798;;-8.0300391;;-8.0324601;;-8.0600698;;-8.2507852;;-8.5910097;;-9.0348966;;-9.5406938;;-10.034728;;-10.339046;;-10.422974;;-10.310163;;-10.978893;;-11.785042;;-13.226219;;-15.085555;;-17.713566;;-20.71122;;-24.544927;;-29.448887;;-35.68743;;-43.55197;;-53.3212;;-65.166969;;-79.207809;;-95.410826;;-113.4101;;-132.23481;;-150.08656;;-165.4878;;-178.9113;;-191.06673;;-201.85702;;-210.85403;;-218.02936;;-223.87368;;-228.94543;;-233.56158;;-237.79658;;-241.55272;;-244.71312;;-247.3434;;-249.68797;;-251.96127;;-254.21554;;-256.37446;;-258.30426;;-259.85072;;-260.828;;-260.96633;;-260.05789;;-258.51815;;-257.64278;;-258.60136;;-261.07675;;-263.62675;;-265.31189;;-266.35104;;-267.29987;;-268.27839;;-269.07378;;-269.51329;;-269.51329
-8.0298689;;-8.0298689;;-8.0298692;;-8.0298848;;-8.0304942;;-8.0368715;;-8.0837334;;-8.2861851;;-8.6121919;;-9.0125571;;-9.4171011;;-9.6727998;;-9.5208873;;-9.4999248;;-10.167899;;-11.202006;;-12.606148;;-14.451678;;-17.112198;;-20.193181;;-24.147857;;-29.208159;;-35.643098;;-43.742287;;-53.748078;;-65.880276;;-80.292853;;-96.966007;;-115.52099;;-134.89649;;-152.94784;;-167.6655;;-179.71714;;-190.26553;;-199.72845;;-208.06925;;-215.29142;;-221.60389;;-227.25148;;-232.39563;;-237.10748;;-241.32851;;-244.91817;;-247.85118;;-250.31882;;-252.59239;;-254.82739;;-256.98719;;-258.89726;;-260.36274;;-261.2237;;-261.25262;;-260.20639;;-258.4323;;-257.28158;;-258.10341;;-260.67073;;-263.42601;;-265.24533;;-266.25573;;-267.03196;;-267.77371;;-268.3638;;-268.6926;;-268.6926
-8.0298689;;-8.0298689;;-8.0298689;;-8.0298705;;-8.0299871;;-8.0314406;;-8.0411786;;-8.0939727;;-8.2825752;;-8.5699941;;-8.8801957;;-9.0787424;;-8.9589428;;-9.078255;;-9.7351939;;-10.728534;;-12.08288;;-13.877639;;-16.493234;;-19.535923;;-23.454421;;-28.483946;;-34.898209;;-42.976091;;-52.9685;;-65.124529;;-79.628782;;-96.49696;;-115.38893;;-135.25422;;-153.75026;;-168.05398;;-178.9171;;-188.11882;;-196.55325;;-204.48746;;-211.93019;;-218.85391;;-225.21879;;-230.99569;;-236.19845;;-240.80441;;-244.70814;;-247.86682;;-250.44956;;-252.75736;;-254.99693;;-257.14975;;-259.032;;-260.45989;;-261.33356;;-261.5123;;-260.78244;;-259.35923;;-258.32436;;-258.86825;;-260.93731;;-263.30111;;-264.96704;;-265.92282;;-266.56759;;-267.0869;;-267.46931;;-267.68716;;-267.68716
-8.0298689;;-8.0298689;;-8.0298689;;-8.029869;;-8.0298804;;-8.0300795;;-8.0318814;;-8.0414644;;-8.0833625;;-8.2361476;;-8.4504067;;-8.5939751;;-8.5066059;;-8.726694;;-9.3487667;;-10.272055;;-11.533324;;-13.212827;;-15.422615;;-18.566258;;-22.285621;;-27.072131;;-33.198319;;-40.946943;;-50.573795;;-62.34513;;-76.47692;;-93.041272;;-111.79562;;-131.85015;;-151.03904;;-165.78534;;-176.25664;;-184.77983;;-192.60319;;-200.26281;;-207.90895;;-215.43136;;-222.5403;;-228.96567;;-234.62279;;-239.53476;;-243.68105;;-247.04938;;-249.789;;-252.18215;;-254.43693;;-256.55851;;-258.41693;;-259.89208;;-260.92925;;-261.44262;;-261.27865;;-260.54397;;-259.93322;;-260.28544;;-261.68556;;-263.40226;;-264.74471;;-265.59498;;-266.13607;;-266.50309;;-266.75678;;-266.91224;;-266.91224
-8.0298689;;-8.0298689;;-8.0298689;;-8.0298689;;-8.0298691;;-8.029881;;-8.0300902;;-8.031528;;-8.0369944;;-8.0560744;;-8.1444122;;-8.2326705;;-8.1792245;;-8.4162508;;-8.976335;;-9.8027657;;-10.935356;;-12.450017;;-14.451228;;-17.335032;;-20.730049;;-25.110949;;-30.736548;;-37.89045;;-46.82928;;-57.821394;;-71.110226;;-86.829201;;-104.86401;;-124.58317;;-144.29567;;-160.48208;;-171.74256;;-180.4556;;-188.09935;;-195.51552;;-203.20287;;-211.15038;;-218.88869;;-225.91807;;-232.04309;;-237.30179;;-241.73678;;-245.36765;;-248.32468;;-250.85569;;-253.154;;-255.25768;;-257.12832;;-258.73421;;-260.03541;;-260.94168;;-261.34966;;-261.32492;;-261.25452;;-261.62425;;-262.5525;;-263.70193;;-264.68708;;-265.39087;;-265.88398;;-266.24828;;-266.52467;;-266.69965;;-266.69965
-8.0298689;;-8.0298689;;-8.0298689;;-8.0298689;;-8.0298689;;-8.0298691;;-8.0298817;;-8.0299936;;-8.0304572;;-8.0316036;;-8.034433;;-8.0418747;;-8.0372256;;-8.1722533;;-8.640158;;-9.351225;;-10.336881;;-11.663885;;-13.425329;;-15.741561;;-19.012843;;-22.908508;;-27.924709;;-34.330754;;-42.386839;;-52.349393;;-64.475995;;-78.950274;;-95.776266;;-114.57882;;-134.19589;;-151.95783;;-164.97872;;-174.6385;;-182.59834;;-189.99167;;-197.7012;;-205.90924;;-214.11679;;-221.73086;;-228.46589;;-234.27419;;-239.15192;;-243.12009;;-246.32457;;-249.02214;;-251.40918;;-253.54869;;-255.47925;;-257.25129;;-258.83412;;-260.11422;;-261.01723;;-261.60043;;-262.04748;;-262.56443;;-263.22614;;-263.93814;;-264.58506;;-265.16688;;-265.74148;;-266.29719;;-266.74521;;-267.00067;;-267.00067
-8.0298689;;-8.0298689;;-8.0298689;;-8.0298689;;-8.0298689;;-8.0298689;;-8.029869;;-8.0298699;;-8.0298735;;-8.0298826;;-8.0298985;;-8.0299233;;-8.0299181;;-8.043253;;-8.3672029;;-8.9481175;;-9.7837431;;-10.923492;;-12.445773;;-14.455461;;-17.335261;;-20.737965;;-25.129388;;-30.756477;;-37.879286;;-46.738092;;-57.590007;;-70.649917;;-86.009889;;-103.49627;;-122.38286;;-140.86822;;-155.83534;;-166.88524;;-175.68611;;-183.54014;;-191.5026;;-199.93003;;-208.49174;;-216.70205;;-224.21361;;-230.77731;;-236.22778;;-240.56823;;-244.01616;;-246.89713;;-249.43506;;-251.70132;;-253.76377;;-255.71822;;-257.55793;;-259.17853;;-260.52135;;-261.60406;;-262.44744;;-263.06536;;-263.49956;;-263.82827;;-264.17935;;-264.71467;;-265.49753;;-266.36588;;-267.04443;;-267.38708;;-267.38708
-8.0298689;;-8.0298689;;-8.0298689;;-8.0298689;;-8.0298689;;-8.0298689;;-8.0298689;;-8.0298689;;-8.0298689;;-8.0298689;;-8.029869;;-8.0298691;;-8.0298694;;-8.0301643;;-8.1516969;;-8.6107946;;-9.3113256;;-10.28317;;-11.591279;;-13.326214;;-15.854979;;-18.813753;;-22.639651;;-27.556238;;-33.815634;;-41.649579;;-51.303047;;-63.006827;;-76.911914;;-92.986152;;-110.80898;;-129.18851;;-145.61814;;-158.19266;;-168.11213;;-176.73924;;-185.10265;;-193.72185;;-202.58824;;-211.41986;;-219.7731;;-227.1285;;-233.14043;;-237.82788;;-241.5189;;-244.61995;;-247.38313;;-249.8821;;-252.17515;;-254.35625;;-256.44969;;-258.39825;;-260.13962;;-261.59348;;-262.63989;;-263.21569;;-263.40261;;-263.4098;;-263.53346;;-264.06573;;-265.07088;;-266.23866;;-267.12087;;-267.53147;;-267.53147
-8.0298689;;-8.0298689;;-8.0298689;;-8.0298689;;-8.0298689;;-8.0298689;;-8.0298689;;-8.0298689;;-8.0298689;;-8.0298689;;-8.0298689;;-8.0298689;;-8.029869;;-8.0298841;;-8.0421459;;-8.3604202;;-8.9379053;;-9.7695338;;-10.903355;;-12.416355;;-14.663021;;-17.26561;;-20.638266;;-24.985027;;-30.541139;;-37.545519;;-46.227679;;-56.826155;;-69.531717;;-84.406979;;-101.23131;;-119.21198;;-136.50102;;-150.48228;;-161.33676;;-170.50095;;-179.06215;;-187.78692;;-197.00009;;-206.52011;;-215.69901;;-223.74635;;-230.21549;;-235.20431;;-239.1459;;-242.4853;;-245.48883;;-248.2521;;-250.82461;;-253.2708;;-255.63294;;-257.89867;;-259.9716;;-261.6468;;-262.72072;;-263.17591;;-263.19278;;-263.03865;;-263.04966;;-263.57795;;-264.70462;;-266.03401;;-267.00781;;-267.43029;;-267.43029
-8.0298689;;-8.0298689;;-8.0298689;;-8.0298689;;-8.0298689;;-8.0298689;;-8.0298689;;-8.0298689;;-8.0298689;;-8.0298689;;-8.0298689;;-8.0298689;;-8.0298689;;-8.0298715;;-8.0305963;;-8.1836234;;-8.6649225;;-9.391949;;-10.397599;;-11.7493;;-13.540162;;-16.139867;;-19.192339;;-23.135015;;-28.187766;;-34.598327;;-42.590115;;-52.402905;;-64.25397;;-78.266686;;-94.346415;;-111.94881;;-129.65551;;-144.73546;;-156.09934;;-165.30857;;-173.79144;;-182.62678;;-192.31805;;-202.59448;;-212.53828;;-221.15586;;-227.98972;;-233.23884;;-237.39475;;-240.89517;;-244.02566;;-246.94298;;-249.71696;;-252.38154;;-254.97197;;-257.48575;;-259.77409;;-261.54164;;-262.57939;;-262.97869;;-263.01922;;-262.95284;;-263.03534;;-263.56737;;-264.60661;;-265.73222;;-266.41496;;-266.60671;;-266.60671
-8.0298689;;-8.0298689;;-8.0298689;;-8.0298689;;-8.0298689;;-8.0298689;;-8.0298689;;-8.0298689;;-8.0298689;;-8.0298689;;-8.0298689;;-8.0298689;;-8.0298689;;-8.0298695;;-8.0299823;;-8.0794889;;-8.4848929;;-9.1344267;;-10.050454;;-11.292518;;-12.946131;;-15.375264;;-18.216801;;-21.893416;;-26.610414;;-32.617705;;-40.141969;;-49.421003;;-60.688872;;-74.106304;;-89.655378;;-106.94016;;-124.80025;;-140.66981;;-152.33799;;-161.41742;;-169.85624;;-178.95817;;-189.20485;;-200.15177;;-210.68558;;-219.71824;;-226.81661;;-232.23947;;-236.48654;;-239.9809;;-243.0499;;-245.93322;;-248.73926;;-251.48325;;-254.17756;;-256.79867;;-259.15803;;-260.93948;;-261.98119;;-262.46141;;-262.71011;;-262.93605;;-263.24306;;-263.70207;;-264.16133;;-264.19063;;-263.5881;;-262.89119;;-262.89119
-8.0298689;;-8.0298689;;-8.0298689;;-8.0298689;;-8.0298689;;-8.0298689;;-8.0298689;;-8.0298689;;-8.0298689;;-8.0298689;;-8.0298689;;-8.0298689;;-8.0298689;;-8.029869;;-8.0298905;;-8.041553;;-8.365925;;-8.9558393;;-9.8087571;;-10.975257;;-12.535064;;-14.594437;;-17.288109;;-20.78262;;-25.534918;;-31.270144;;-38.474809;;-47.389277;;-58.260977;;-71.275559;;-86.465357;;-103.53246;;-121.49823;;-138.05229;;-150.21594;;-159.39907;;-168.02227;;-177.46268;;-188.09914;;-199.39158;;-210.18597;;-219.3889;;-226.57353;;-232.00023;;-236.16059;;-239.48721;;-242.35572;;-245.06508;;-247.75286;;-250.42967;;-253.08594;;-255.66878;;-257.98067;;-259.74609;;-260.85745;;-261.50076;;-261.98073;;-262.4738;;-262.9255;;-262.96999;;-261.9333;;-259.35072;;-255.81864;;-253.15972;;-253.15972
-8.0298689;;-8.0298689;;-8.0298689;;-8.0298689;;-8.0298689;;-8.0298689;;-8.0298689;;-8.0298689;;-8.0298689;;-8.0298689;;-8.0298689;;-8.0298689;;-8.0298689;;-8.0298689;;-8.0298717;;-8.0329395;;-8.2860292;;-8.835154;;-9.6461481;;-10.763127;;-12.262432;;-14.247151;;-16.848538;;-20.229372;;-24.587557;;-30.417048;;-37.42903;;-46.125906;;-56.769605;;-69.564514;;-84.579356;;-101.58864;;-119.7556;;-137.0222;;-150.02679;;-159.6394;;-168.55062;;-178.14462;;-188.77359;;-199.95753;;-210.63213;;-219.73147;;-226.79546;;-232.05057;;-235.9922;;-239.08006;;-241.71363;;-244.20694;;-246.71106;;-249.24231;;-251.77358;;-254.22936;;-256.43587;;-258.18892;;-259.40794;;-260.18863;;-260.72484;;-261.19408;;-261.47322;;-260.66572;;-257.29289;;-250.81442;;-243.06405;;-237.68452;;-237.68452
-8.0298689;;-8.0298689;;-8.0298689;;-8.0298689;;-8.0298689;;-8.0298689;;-8.0298689;;-8.0298689;;-8.0298689;;-8.0298689;;-8.0298689;;-8.0298689;;-8.0298689;;-8.0298689;;-8.0298692;;-8.0309626;;-8.2326459;;-8.7545988;;-9.5373764;;-10.621326;;-12.080919;;-14.017379;;-16.559911;;-20.109067;;-24.141004;;-29.609405;;-36.767823;;-45.339342;;-55.858613;;-68.546337;;-83.500426;;-100.55402;;-118.98759;;-136.96751;;-151.06179;;-161.35503;;-170.55365;;-180.05109;;-190.2949;;-201.00724;;-211.29945;;-220.13637;;-226.98495;;-232.01702;;-235.7373;;-238.62091;;-241.0559;;-243.35052;;-245.67383;;-248.05026;;-250.43038;;-252.72879;;-254.82219;;-256.58105;;-257.91028;;-258.74326;;-259.10556;;-259.223;;-259.08688;;-257.44325;;-252.00798;;-242.09021;;-230.63884;;-222.87852;;-222.87852
-8.0298689;;-8.0298689;;-8.0298689;;-8.0298689;;-8.0298689;;-8.0298689;;-8.0298689;;-8.0298689;;-8.0298689;;-8.0298689;;-8.0298689;;-8.0298689;;-8.0298689;;-8.0298689;;-8.029869;;-8.0302751;;-8.1848736;;-8.6804865;;-9.4342356;;-10.48318;;-11.899736;;-13.782879;;-16.497859;;-19.728517;;-23.902529;;-29.007799;;-36.029937;;-44.451353;;-54.813723;;-67.350764;;-82.188321;;-99.216166;;-117.82909;;-136.41886;;-151.70913;;-162.87677;;-172.42105;;-181.74773;;-191.46423;;-201.58769;;-211.46418;;-220.08897;;-226.81937;;-231.74521;;-235.36361;;-238.13994;;-240.43322;;-242.55646;;-244.714;;-246.93803;;-249.15604;;-251.29326;;-253.29279;;-255.07953;;-256.50978;;-257.3532;;-257.48749;;-257.21153;;-256.78451;;-255.01478;;-249.27278;;-238.61226;;-226.22352;;-217.78982;;-217.78982
-8.0298689;;-8.0298689;;-8.0298689;;-8.0298689;;-8.0298689;;-8.0298689;;-8.0298689;;-8.0298689;;-8.0298689;;-8.0298689;;-8.0298689;;-8.0298689;;-8.0298689;;-8.0298689;;-8.0298689;;-8.0299792;;-8.1281967;;-8.5875357;;-9.3002702;;-10.299248;;-11.653375;;-13.457781;;-16.073786;;-19.180575;;-23.199566;;-28.357296;;-34.90603;;-43.084679;;-53.172439;;-65.416464;;-79.973052;;-96.792121;;-115.38882;;-134.39091;;-150.81338;;-162.89692;;-172.79812;;-181.99624;;-191.28297;;-200.97886;;-210.65432;;-219.31064;;-226.16972;;-231.20817;;-234.88848;;-237.65951;;-239.86381;;-241.82794;;-243.782;;-245.7656;;-247.73064;;-249.68235;;-251.64749;;-253.54428;;-255.13288;;-256.07986;;-256.21352;;-255.88485;;-255.59055;;-254.57482;;-250.58715;;-242.52588;;-232.82759;;-226.1859;;-226.18589
-8.0298689;;-8.0298689;;-8.0298689;;-8.0298689;;-8.0298689;;-8.0298689;;-8.0298689;;-8.0298689;;-8.0298689;;-8.0298689;;-8.0298689;;-8.0298689;;-8.0298689;;-8.0298689;;-8.0298689;;-8.0298896;;-8.0720062;;-8.4774456;;-9.1352406;;-10.06969;;-11.343331;;-13.045566;;-15.293122;;-18.233097;;-22.287865;;-27.186512;;-33.433962;;-41.273437;;-50.969629;;-62.782503;;-76.897179;;-93.322752;;-111.69347;;-130.87036;;-148.23184;;-161.10126;;-171.18177;;-180.23305;;-189.2883;;-198.89016;;-208.71911;;-217.72794;;-224.99306;;-230.35905;;-234.23605;;-237.07884;;-239.24248;;-241.03528;;-242.63765;;-244.0863;;-245.49233;;-247.14168;;-249.21214;;-251.48656;;-253.48423;;-254.79438;;-255.31681;;-255.42482;;-255.66542;;-255.74955;;-254.21508;;-250.07488;;-244.58945;;-240.67761;;-240.67761
-8.0298689;;-8.0298689;;-8.0298689;;-8.0298689;;-8.0298689;;-8.0298689;;-8.0298689;;-8.0298689;;-8.0298689;;-8.0298689;;-8.0298689;;-8.0298689;;-8.0298689;;-8.0298689;;-8.0298689;;-8.0298718;;-8.0395257;;-8.3587157;;-8.9502309;;-9.8100822;;-10.990349;;-12.573228;;-14.668354;;-17.414949;;-21.225599;;-25.820233;;-31.69898;;-39.112772;;-48.315035;;-59.572894;;-73.095721;;-88.947883;;-106.87854;;-125.9814;;-144.05047;;-157.69631;;-167.80627;;-176.67357;;-185.67727;;-195.49416;;-205.78971;;-215.41106;;-223.28682;;-229.12369;;-233.27977;;-236.24783;;-238.40978;;-239.98731;;-240.99452;;-241.44094;;-241.78289;;-242.89612;;-245.25083;;-248.34179;;-251.20285;;-253.25085;;-254.50791;;-255.37724;;-256.2978;;-257.21837;;-257.40608;;-256.23509;;-254.15986;;-252.54469;;-252.54469
-8.0298689;;-8.0298689;;-8.0298689;;-8.0298689;;-8.0298689;;-8.0298689;;-8.0298689;;-8.0298689;;-8.0298689;;-8.0298689;;-8.0298689;;-8.0298689;;-8.0298689;;-8.0298689;;-8.0298689;;-8.0298692;;-8.0310023;;-8.2321929;;-8.7508214;;-9.5276965;;-10.602833;;-12.050524;;-13.97205;;-16.738901;;-20.024722;;-24.267505;;-29.710308;;-36.611234;;-45.213107;;-55.782772;;-68.549807;;-83.629598;;-100.88439;;-119.64429;;-138.15263;;-152.88668;;-163.2925;;-172.1548;;-181.27065;;-191.43268;;-202.28835;;-212.60327;;-221.17203;;-227.55311;;-232.04192;;-235.16936;;-237.32945;;-238.61759;;-238.84358;;-237.99547;;-236.9629;;-237.35832;;-240.04757;;-244.21331;;-248.28588;;-251.3714;;-253.52867;;-255.19339;;-256.69021;;-258.01176;;-258.85127;;-258.96848;;-258.55374;;-258.13501;;-258.13501
-8.0298689;;-8.0298689;;-8.0298689;;-8.0298689;;-8.0298689;;-8.0298689;;-8.0298689;;-8.0298689;;-8.0298689;;-8.0298689;;-8.0298689;;-8.0298689;;-8.0298689;;-8.0298689;;-8.0298689;;-8.0298689;;-8.0299519;;-8.1108702;;-8.5503042;;-9.2364847;;-10.19857;;-11.501885;;-13.237868;;-15.766137;;-18.748957;;-22.610484;;-27.576813;;-33.904266;;-41.832988;;-51.621446;;-63.51573;;-77.677233;;-94.073965;;-112.26182;;-130.93707;;-147.1448;;-158.63909;;-167.96819;;-177.33765;;-187.72871;;-198.92034;;-209.73677;;-218.8991;;-225.81112;;-230.66736;;-233.98381;;-236.12638;;-237.10082;;-236.64511;;-234.8231;;-232.81126;;-232.64654;;-235.47845;;-240.38601;;-245.45987;;-249.50625;;-252.45574;;-254.71311;;-256.56594;;-258.01504;;-258.92872;;-259.30318;;-259.3389;;-259.2878;;-259.2878
-8.0298689;;-8.0298689;;-8.0298689;;-8.0298689;;-8.0298689;;-8.0298689;;-8.0298689;;-8.0298689;;-8.0298689;;-8.0298689;;-8.0298689;;-8.0298689;;-8.0298689;;-8.0298689;;-8.0298689;;-8.0298689;;-8.0298793;;-8.0434696;;-8.3726814;;-8.9635651;;-9.8160083;;-10.981482;;-12.540668;;-14.842607;;-17.53706;;-21.034359;;-25.545772;;-31.315201;;-38.595135;;-47.630964;;-58.681351;;-71.949533;;-87.497466;;-105.08097;;-123.81777;;-141.57539;;-155.10276;;-165.41582;;-175.08098;;-185.40627;;-196.47024;;-207.29397;;-216.61591;;-223.77058;;-228.91958;;-232.53287;;-234.83843;;-235.74854;;-235.12337;;-233.24331;;-231.29062;;-231.10796;;-233.78569;;-238.62175;;-243.89758;;-248.34067;;-251.66273;;-254.1537;;-256.11824;;-257.602;;-258.51897;;-258.9198;;-259.02279;;-259.03422;;-259.03422
-8.0298689;;-8.0298689;;-8.0298689;;-8.0298689;;-8.0298689;;-8.0298689;;-8.0298689;;-8.0298689;;-8.0298689;;-8.0298689;;-8.0298689;;-8.0298689;;-8.0298689;;-8.0298689;;-8.0298689;;-8.0298689;;-8.0298739;;-8.0316189;;-8.2286182;;-8.7378954;;-9.499101;;-10.550523;;-11.964566;;-13.840377;;-16.542491;;-19.7473;;-23.894232;;-29.216648;;-35.981376;;-44.433841;;-54.839369;;-67.438948;;-82.373598;;-99.558288;;-118.43243;;-137.47233;;-153.46916;;-165.08023;;-174.98532;;-184.98679;;-195.4644;;-205.57436;;-214.11982;;-220.67617;;-225.79797;;-230.03107;;-233.17771;;-234.75891;;-234.75373;;-233.76082;;-232.82571;;-233.18048;;-235.57784;;-239.67744;;-244.32647;;-248.43418;;-251.5602;;-253.87314;;-255.70921;;-257.1789;;-258.18543;;-258.69789;;-258.86389;;-258.88885;;-258.88885
-8.0298689;;-8.0298689;;-8.0298689;;-8.0298689;;-8.0298689;;-8.0298689;;-8.0298689;;-8.0298689;;-8.0298689;;-8.0298689;;-8.0298689;;-8.0298689;;-8.0298689;;-8.0298689;;-8.0298689;;-8.0298689;;-8.0298716;;-8.0303472;;-8.1289245;;-8.5768815;;-9.2699748;;-10.238842;;-11.550373;;-13.298045;;-15.839957;;-18.847812;;-22.75289;;-27.78281;;-34.207972;;-42.297428;;-52.315405;;-64.531882;;-79.145448;;-96.176732;;-115.26273;;-135.24109;;-153.3639;;-166.39496;;-176.55744;;-186.25924;;-195.9477;;-204.61436;;-211.1218;;-215.82191;;-220.42201;;-225.78137;;-230.83013;;-234.10299;;-235.418;;-235.7123;;-236.02509;;-237.09192;;-239.32476;;-242.63154;;-246.36965;;-249.73015;;-252.27664;;-254.1322;;-255.66312;;-257.03946;;-258.14741;;-258.83045;;-259.109;;-259.16606;;-259.16606
-8.0298689;;-8.0298689;;-8.0298689;;-8.0298689;;-8.0298689;;-8.0298689;;-8.0298689;;-8.0298689;;-8.0298689;;-8.0298689;;-8.0298689;;-8.0298689;;-8.0298689;;-8.0298689;;-8.0298689;;-8.0298689;;-8.02987;;-8.0300307;;-8.0730911;;-8.4680472;;-9.1097138;;-10.020238;;-11.261243;;-12.922079;;-15.35591;;-18.23334;;-21.980177;;-26.820605;;-33.023615;;-40.879921;;-50.655766;;-62.63677;;-77.058543;;-94.00745;;-113.24281;;-133.83755;;-153.46006;;-168.01587;;-178.70134;;-188.42772;;-197.47462;;-204.39712;;-208.10282;;-210.14962;;-213.91861;;-220.67571;;-228.21805;;-233.70254;;-236.50945;;-237.88378;;-239.09087;;-240.7225;;-242.98421;;-245.82694;;-248.86337;;-251.52739;;-253.4917;;-254.89183;;-256.10057;;-257.3268;;-258.46658;;-259.28208;;-259.6772;;-259.78417;;-259.78417
-8.0298689;;-8.0298689;;-8.0298689;;-8.0298689;;-8.0298689;;-8.0298689;;-8.0298689;;-8.0298689;;-8.0298689;;-8.0298689;;-8.0298689;;-8.0298689;;-8.0298689;;-8.0298689;;-8.0298694;;-8.0298715;;-8.0298779;;-8.0299342;;-8.0456682;;-8.3797204;;-8.9742452;;-9.8329289;;-11.010716;;-12.824175;;-14.924199;;-17.681863;;-21.279919;;-25.937697;;-31.920157;;-39.528562;;-49.034261;;-60.727335;;-74.8677;;-91.589525;;-110.74687;;-131.60373;;-152.19575;;-168.42256;;-180.07592;;-190.29616;;-199.21135;;-204.97938;;-206.57138;;-206.5809;;-209.68342;;-217.38696;;-226.6384;;-233.5942;;-237.26342;;-239.13596;;-240.8028;;-242.88384;;-245.38263;;-248.11732;;-250.79694;;-253.06227;;-254.71096;;-255.87747;;-256.89942;;-257.9997;;-259.10971;;-259.97681;;-260.44047;;-260.58417;;-260.58417
-8.0298689;;-8.0298689;;-8.0298689;;-8.0298689;;-8.0298689;;-8.0298689;;-8.0298689;;-8.0298689;;-8.0298689;;-8.0298689;;-8.0298689;;-8.0298689;;-8.0298691;;-8.0298766;;-8.0299367;;-8.0301746;;-8.0307394;;-8.0316249;;-8.0369685;;-8.290945;;-8.832986;;-9.6326477;;-10.73631;;-12.45366;;-14.431906;;-17.037446;;-20.443093;;-24.859885;;-30.543095;;-37.792894;;-46.887106;;-58.11029;;-71.736893;;-87.939401;;-106.65542;;-127.32423;;-148.3417;;-166.1143;;-179.03463;;-190.20429;;-199.87742;;-206.04143;;-207.65622;;-207.53431;;-210.49846;;-218.04698;;-227.10514;;-233.8017;;-237.13549;;-238.7914;;-240.66601;;-243.3428;;-246.40538;;-249.35556;;-251.97304;;-254.13387;;-255.74436;;-256.89988;;-257.87929;;-258.9045;;-259.9455;;-260.77442;;-261.22296;;-261.36026;;-261.36026
-8.0298689;;-8.0298689;;-8.0298689;;-8.0298689;;-8.0298689;;-8.0298689;;-8.0298689;;-8.0298689;;-8.0298689;;-8.0298689;;-8.0298689;;-8.0298689;;-8.0298738;;-8.0299741;;-8.0306852;;-8.0333408;;-8.0394794;;-8.0496397;;-8.0689001;;-8.2146004;;-8.6905031;;-9.4168203;;-10.429284;;-12.028722;;-13.857407;;-16.270754;;-19.430669;;-23.535939;;-28.827637;;-35.592421;;-44.114154;;-54.663231;;-67.517481;;-82.87568;;-100.74329;;-120.71039;;-141.50094;;-160.16349;;-174.13945;;-186.48317;;-197.99254;;-206.51516;;-210.51665;;-212.10096;;-215.36985;;-221.82248;;-229.17015;;-234.29525;;-236.41769;;-237.36371;;-239.31956;;-242.76876;;-246.68633;;-250.09891;;-252.84059;;-255.05245;;-256.74806;;-257.97491;;-258.95293;;-259.89161;;-260.79134;;-261.47875;;-261.83204;;-261.92975;;-261.92975
-8.0298689;;-8.0298689;;-8.0298689;;-8.0298689;;-8.0298689;;-8.0298689;;-8.0298689;;-8.0298689;;-8.0298689;;-8.0298689;;-8.0298689;;-8.0298694;;-8.029912;;-8.0305616;;-8.0346715;;-8.0492204;;-8.083782;;-8.1588477;;-8.2734424;;-8.3615559;;-8.6321884;;-9.2372437;;-10.352504;;-11.592249;;-13.252955;;-15.451796;;-18.337487;;-22.093115;;-26.942771;;-33.155196;;-41.014142;;-50.773397;;-62.703055;;-77.016225;;-93.766758;;-112.66141;;-132.68853;;-151.43676;;-165.88518;;-179.2755;;-193.30774;;-205.51037;;-213.2282;;-217.19237;;-220.7699;;-225.89919;;-231.49494;;-235.27914;;-236.4931;;-236.87121;;-238.80406;;-242.76858;;-247.30469;;-251.05418;;-253.86487;;-256.08571;;-257.8314;;-259.11088;;-260.06576;;-260.85953;;-261.52279;;-261.9871;;-262.22318;;-262.29775;;-262.29775
-8.0298689;;-8.0298689;;-8.0298689;;-8.0298689;;-8.0298689;;-8.0298689;;-8.0298689;;-8.0298689;;-8.0298689;;-8.0298689;;-8.0298717;;-8.0298974;;-8.0301919;;-8.0330086;;-8.0484429;;-8.1009922;;-8.2253488;;-8.4218904;;-8.6224007;;-8.7434975;;-8.8552837;;-9.4366725;;-10.165515;;-11.241671;;-12.722224;;-14.705345;;-17.324183;;-20.745279;;-25.175194;;-30.863754;;-38.093473;;-47.107712;;-58.161971;;-71.47941;;-87.152242;;-104.98302;;-124.17742;;-142.76034;;-157.51154;;-171.70446;;-188.02834;;-203.72694;;-214.93609;;-220.84302;;-224.42894;;-228.55246;;-233.38623;;-237.14627;;-238.68959;;-239.24127;;-241.07501;;-244.81108;;-249.10205;;-252.59858;;-255.15467;;-257.18816;;-258.8727;;-260.17515;;-261.11256;;-261.75433;;-262.16453;;-262.41539;;-262.57997;;-262.67529;;-262.67529
-8.0298689;;-8.0298689;;-8.0298689;;-8.0298689;;-8.0298689;;-8.0298689;;-8.0298689;;-8.0298689;;-8.0298689;;-8.0298691;;-8.0298995;;-8.0301723;;-8.031856;;-8.0416124;;-8.0873324;;-8.232583;;-8.4825355;;-8.7890176;;-9.0753946;;-9.4489422;;-9.5435801;;-9.8096464;;-10.31786;;-11.133705;;-12.386233;;-14.146283;;-16.52138;;-19.657839;;-23.744596;;-29.014713;;-35.742394;;-44.1864;;-54.583816;;-67.173063;;-82.090357;;-99.23868;;-118.03799;;-136.93084;;-152.82332;;-167.77378;;-185.32743;;-202.94072;;-216.24857;;-223.34428;;-226.86597;;-230.47812;;-235.34435;;-239.96798;;-242.73056;;-244.08287;;-245.79801;;-248.65245;;-251.87632;;-254.53379;;-256.52004;;-258.19583;;-259.73612;;-261.05309;;-262.01544;;-262.58243;;-262.84;;-262.96165;;-263.08042;;-263.18225;;-263.18225
-8.0298689;;-8.0298689;;-8.0298689;;-8.0298689;;-8.0298689;;-8.0298689;;-8.0298689;;-8.0298689;;-8.0298689;;-8.0298702;;-8.0300312;;-8.031477;;-8.0386371;;-8.0689049;;-8.1958591;;-8.4636013;;-8.8240849;;-9.2320678;;-9.8150573;;-10.029104;;-10.135168;;-10.381349;;-10.843376;;-11.472586;;-12.33923;;-13.801641;;-15.92692;;-18.815032;;-22.626691;;-27.576362;;-33.926481;;-41.963975;;-51.920758;;-64.051423;;-78.547481;;-95.421478;;-114.31147;;-134.08615;;-152.26522;;-168.25618;;-185.85009;;-203.56729;;-217.51622;;-225.50719;;-229.52059;;-233.18474;;-238.13634;;-243.29095;;-246.9766;;-249.05108;;-250.63453;;-252.51148;;-254.53176;;-256.27548;;-257.70082;;-259.06219;;-260.48966;;-261.83296;;-262.84053;;-263.39264;;-263.57224;;-263.56759;;-263.53162;;-263.51748;;-263.51748
-8.0298689;;-8.0298689;;-8.0298689;;-8.0298689;;-8.0298689;;-8.0298689;;-8.0298689;;-8.0298689;;-8.0298689;;-8.0298733;;-8.0304115;;-8.0352873;;-8.0579106;;-8.1484222;;-8.3944494;;-8.7608436;;-9.2153298;;-9.9181923;;-10.370994;;-10.63003;;-10.749034;;-10.982347;;-11.400414;;-11.933797;;-12.53386;;-13.530952;;-15.367798;;-17.999386;;-21.538579;;-26.17657;;-32.161257;;-39.787393;;-49.318275;;-61.006763;;-75.097617;;-91.705598;;-110.66667;;-131.24253;;-151.63789;;-169.34256;;-186.44128;;-203.35192;;-217.41037;;-226.67143;;-232.159;;-236.58023;;-241.47849;;-246.34679;;-250.03383;;-252.2744;;-253.69436;;-254.94034;;-256.21179;;-257.43714;;-258.62435;;-259.92101;;-261.36755;;-262.74291;;-263.73096;;-264.18008;;-264.15963;;-263.8457;;-263.44249;;-263.16625;;-263.16625
-8.0298689;;-8.0298689;;-8.0298689;;-8.0298689;;-8.0298689;;-8.0298689;;-8.0298689;;-8.0298689;;-8.0298691;;-8.0298862;;-8.0312196;;-8.0433201;;-8.1036647;;-8.3037322;;-8.6413833;;-9.0835279;;-9.8165326;;-10.371155;;-10.867841;;-11.152411;;-11.281288;;-11.478548;;-11.795398;;-12.167754;;-12.575664;;-13.183844;;-14.674492;;-16.994683;;-20.192675;;-24.42591;;-29.920727;;-36.957918;;-45.833537;;-56.792425;;-70.107931;;-85.974242;;-104.38287;;-124.8971;;-146.23228;;-165.75342;;-182.76598;;-198.99739;;-213.35497;;-224.36318;;-232.22053;;-238.34175;;-243.70438;;-248.25483;;-251.57356;;-253.65793;;-254.95558;;-255.98185;;-257.0361;;-258.1947;;-259.48568;;-260.95494;;-262.51838;;-263.87668;;-264.69125;;-264.82084;;-264.36264;;-263.55369;;-262.71478;;-262.18723;;-262.18723
-8.0298689;;-8.0298689;;-8.0298689;;-8.0298689;;-8.0298689;;-8.0298689;;-8.0298689;;-8.0298689;;-8.029874;;-8.0299942;;-8.0330429;;-8.0606286;;-8.2114748;;-8.5173503;;-8.9325491;;-9.434511;;-10.196495;;-10.742978;;-11.186624;;-11.433015;;-11.55999;;-11.703677;;-11.891214;;-12.087821;;-12.335321;;-12.756924;;-13.837033;;-15.795133;;-18.575072;;-22.294226;;-27.148765;;-33.390662;;-41.316052;;-51.168287;;-63.2113;;-77.681728;;-94.672945;;-113.96718;;-134.72029;;-154.98474;;-172.50604;;-188.46599;;-203.19411;;-215.95436;;-226.64333;;-235.59381;;-242.86959;;-248.29131;;-251.89265;;-254.08288;;-255.45464;;-256.53895;;-257.65514;;-258.92072;;-260.37587;;-262.01477;;-263.66467;;-264.94903;;-265.49378;;-265.1919;;-264.25816;;-263.08658;;-262.0899;;-261.54715;;-261.54715
-8.0298689;;-8.0298689;;-8.0298689;;-8.0298689;;-8.0298689;;-8.0298689;;-8.0298689;;-8.0298693;;-8.0299126;;-8.0305981;;-8.0386656;;-8.123276;;-8.3953826;;-8.7908889;;-9.2829175;;-10.043166;;-10.597217;;-11.050179;;-11.33174;;-11.483109;;-11.571914;;-11.652445;;-11.727066;;-11.794163;;-11.935932;;-12.282394;;-13.00935;;-14.567804;;-16.887624;;-20.04349;;-24.192637;;-29.549858;;-36.376983;;-44.918472;;-55.403109;;-68.074042;;-83.076898;;-100.33651;;-119.33487;;-138.76114;;-156.48305;;-172.35328;;-187.29173;;-201.48667;;-215.08439;;-227.76628;;-238.51549;;-246.41179;;-251.42381;;-254.31525;;-256.03421;;-257.27951;;-258.40594;;-259.55823;;-260.85648;;-262.39897;;-264.06087;;-265.38656;;-265.86532;;-265.37942;;-264.31479;;-263.24046;;-262.54199;;-262.26257;;-262.26257
-8.0298689;;-8.0298689;;-8.0298689;;-8.0298689;;-8.0298689;;-8.029869;;-8.0298697;;-8.0298766;;-8.0300942;;-8.0327482;;-8.0624177;;-8.2721164;;-8.6363989;;-9.1138983;;-9.6789516;;-10.492298;;-11.037614;;-11.324008;;-11.388123;;-11.401966;;-11.422514;;-11.44669;;-11.452076;;-11.4511;;-11.541458;;-11.85004;;-12.400237;;-13.471281;;-15.312907;;-17.908348;;-21.363698;;-25.850407;;-31.587871;;-38.808234;;-47.703466;;-58.500932;;-71.368576;;-86.319901;;-103.06099;;-120.75237;;-137.87597;;-153.68324;;-168.94621;;-184.56708;;-201.00378;;-217.57101;;-232.37226;;-243.57503;;-250.72852;;-254.76665;;-256.98707;;-258.29457;;-259.1141;;-259.68612;;-260.35157;;-261.50651;;-263.20921;;-264.90751;;-265.81773;;-265.68358;;-264.99261;;-264.42023;;-264.24826;;-264.30173;;-264.30173
-8.0298689;;-8.0298689;;-8.0298689;;-8.0298689;;-8.0298691;;-8.0298793;;-8.0299653;;-8.0303291;;-8.0318232;;-8.0409818;;-8.1486764;;-8.4603344;;-8.9017865;;-9.4526627;;-10.291305;;-10.939292;;-11.464268;;-11.568829;;-11.432524;;-11.306698;;-11.257862;;-11.253392;;-11.245998;;-11.236783;;-11.307233;;-11.567051;;-12.030769;;-12.68901;;-13.998553;;-16.042009;;-18.847455;;-22.533159;;-27.270924;;-33.269987;;-40.70197;;-49.762608;;-60.631084;;-73.384147;;-87.899067;;-103.71338;;-119.97413;;-136.15094;;-152.72355;;-170.4767;;-189.70154;;-209.39884;;-227.38097;;-241.36568;;-250.49011;;-255.62396;;-258.21844;;-259.33543;;-259.54015;;-259.27785;;-259.18096;;-259.94775;;-261.79939;;-264.08923;;-265.75745;;-266.33034;;-266.25144;;-266.20489;;-266.41095;;-266.64521;;-266.64521
-8.0298689;;-8.0298689;;-8.029869;;-8.0298713;;-8.0298892;;-8.0300504;;-8.0310399;;-8.0347859;;-8.0472297;;-8.0893966;;-8.2709319;;-8.6332566;;-9.1226239;;-9.7210226;;-10.599158;;-11.263875;;-11.737913;;-11.725326;;-11.496531;;-11.299724;;-11.21947;;-11.225147;;-11.255106;;-11.283508;;-11.350288;;-11.536908;;-11.890094;;-12.393782;;-13.11443;;-14.598052;;-16.822493;;-19.830295;;-23.741758;;-28.725926;;-34.962213;;-42.613567;;-51.872914;;-62.881825;;-75.678155;;-90.14578;;-106.06203;;-123.46353;;-142.61448;;-163.32708;;-184.96232;;-206.37457;;-225.72815;;-240.96637;;-251.08889;;-256.74162;;-259.33549;;-260.07831;;-259.77376;;-259.08414;;-258.74186;;-259.4519;;-261.42336;;-264.00817;;-266.1133;;-267.16548;;-267.48829;;-267.69258;;-267.99791;;-268.24504;;-268.24504
-8.029869;;-8.029869;;-8.029878;;-8.0299804;;-8.0305151;;-8.0325787;;-8.0400887;;-8.0768455;;-8.1994718;;-8.3216772;;-8.4598683;;-8.7680458;;-9.2350696;;-9.8189679;;-10.676418;;-11.297198;;-11.702436;;-11.728529;;-11.565042;;-11.413763;;-11.366575;;-11.414438;;-11.500669;;-11.580019;;-11.656709;;-11.786867;;-12.036035;;-12.434749;;-12.958123;;-13.72863;;-15.417487;;-17.893965;;-21.201249;;-25.466739;;-30.874731;;-37.609364;;-45.886432;;-55.957873;;-68.087533;;-82.559074;;-99.628959;;-119.35321;;-141.30759;;-164.45599;;-187.34457;;-208.67809;;-227.3906;;-242.12173;;-251.97017;;-257.37578;;-259.68902;;-260.28226;;-260.16169;;-259.98551;;-260.20578;;-261.17054;;-262.94802;;-265.06995;;-266.76271;;-267.62307;;-267.92045;;-268.14551;;-268.46481;;-268.71844;;-268.71844
-8.0298696;;-8.0298696;;-8.029958;;-8.0308935;;-8.0354886;;-8.0508923;;-8.1172694;;-8.3078662;;-8.5385464;;-8.7103838;;-8.8265161;;-9.0266455;;-9.3642558;;-10.041354;;-10.5749;;-11.076856;;-11.445613;;-11.618758;;-11.642484;;-11.624131;;-11.652714;;-11.751248;;-11.888001;;-12.014443;;-12.110518;;-12.210452;;-12.38553;;-12.69057;;-13.110338;;-13.608606;;-14.983467;;-17.27925;;-20.455061;;-24.630936;;-30.015248;;-36.883986;;-45.534689;;-56.252268;;-69.357242;;-85.122479;;-103.69775;;-124.97213;;-148.34072;;-172.37165;;-194.73855;;-214.07511;;-230.43385;;-243.2037;;-251.72706;;-256.47722;;-258.79293;;-260.01461;;-261.0099;;-262.09107;;-263.22566;;-264.36212;;-265.48404;;-266.42686;;-266.92798;;-266.98797;;-266.99336;;-267.30706;;-267.87123;;-268.31201;;-268.31201
-8.0298726;;-8.0298726;;-8.0302892;;-8.0345883;;-8.0559807;;-8.1442502;;-8.3711836;;-8.682923;;-9.0042346;;-9.2204598;;-9.3192909;;-9.6596242;;-9.6703132;;-10.155574;;-10.476848;;-10.843766;;-11.221487;;-11.546245;;-11.764441;;-11.888861;;-11.993087;;-12.129512;;-12.297659;;-12.457235;;-12.571521;;-12.655905;;-12.779308;;-12.998051;;-13.297648;;-14.075578;;-15.958237;;-18.688746;;-22.335983;;-27.074854;;-33.151935;;-40.874602;;-50.542958;;-62.478265;;-77.000007;;-94.345821;;-114.57218;;-137.36024;;-161.67202;;-185.21613;;-204.78577;;-220.23283;;-232.86694;;-242.66012;;-249.45217;;-253.90864;;-257.11702;;-259.87575;;-262.45847;;-264.71846;;-266.36353;;-267.23525;;-267.36118;;-266.83453;;-265.8551;;-264.92293;;-264.69706;;-265.4267;;-266.63623;;-267.51621;;-267.51621
-8.0298908;;-8.0298908;;-8.0311971;;-8.0446771;;-8.1345599;;-8.3863537;;-8.7450958;;-9.1679905;;-9.5814814;;-9.8367818;;-10.103543;;-10.158604;;-10.24983;;-10.357762;;-10.528629;;-10.818411;;-11.211242;;-11.620432;;-11.947905;;-12.161223;;-12.306045;;-12.447322;;-12.616846;;-12.790402;;-12.918718;;-12.999505;;-13.093766;;-13.244774;;-13.679668;;-15.282715;;-17.734981;;-21.06711;;-25.42797;;-31.040583;;-38.19186;;-47.191645;;-58.359851;;-72.038634;;-88.519656;;-107.95803;;-130.21779;;-154.58355;;-179.20192;;-200.20916;;-214.91526;;-225.51675;;-233.85678;;-240.56862;;-246.16819;;-251.28236;;-256.20511;;-260.73388;;-264.4663;;-267.10726;;-268.53084;;-268.74309;;-267.8259;;-265.97901;;-263.72164;;-262.01251;;-261.81769;;-263.25355;;-265.33857;;-266.77179;;-266.77179
-8.0299992;;-8.0299992;;-8.0336319;;-8.0936526;;-8.3488598;;-8.7318102;;-9.2120413;;-9.7407889;;-10.241574;;-10.726903;;-10.700049;;-10.599655;;-10.509192;;-10.520416;;-10.683433;;-10.993272;;-11.400179;;-11.820041;;-12.169655;;-12.407174;;-12.549492;;-12.658548;;-12.797465;;-12.970574;;-13.147724;;-13.398614;;-13.739144;;-14.058677;;-15.017993;;-17.137665;;-20.190725;;-24.259631;;-29.535467;;-36.282557;;-44.813462;;-55.428045;;-68.478678;;-84.291087;;-103.09469;;-124.88573;;-149.14518;;-174.38653;;-197.25641;;-213.08061;;-222.63572;;-228.97946;;-233.96232;;-238.83713;;-244.47103;;-250.95494;;-257.46332;;-262.92464;;-266.74121;;-268.90515;;-269.6654;;-269.18155;;-267.48505;;-264.76048;;-261.72484;;-259.65781;;-259.69364;;-261.77092;;-264.51875;;-266.33451;;-266.33451
-8.0304578;;-8.0304578;;-8.0515207;;-8.26959;;-8.6459531;;-9.1399283;;-9.7276719;;-10.358658;;-11.154199;;-11.40651;;-11.20027;;-10.835447;;-10.568609;;-10.575956;;-10.843574;;-11.243303;;-11.673183;;-12.068655;;-12.392216;;-12.615552;;-12.740085;;-12.873148;;-13.145946;;-13.594714;;-14.202337;;-14.856175;;-15.437115;;-15.898355;;-17.021518;;-19.596784;;-23.316518;;-28.263892;;-34.65447;;-42.788014;;-52.964408;;-65.498588;;-80.732855;;-98.919004;;-120.11446;;-143.96818;;-169.29039;;-193.23918;;-210.69722;;-220.71055;;-226.66067;;-230.83968;;-234.81865;;-239.83849;;-246.42509;;-253.90332;;-260.77454;;-265.82292;;-268.78647;;-270.1012;;-270.24838;;-269.36415;;-267.34809;;-264.33302;;-261.11743;;-259.06687;;-259.26711;;-261.5093;;-264.33293;;-266.1599;;-266.1599
-8.0330028;;-8.0330028;;-8.1594548;;-8.4987842;;-8.9733587;;-9.5658023;;-10.245672;;-11.177377;;-11.810158;;-11.911473;;-11.466333;;-10.931873;;-10.57791;;-10.644284;;-11.028867;;-11.514155;;-11.954881;;-12.306967;;-12.586172;;-12.870494;;-13.437646;;-14.039991;;-14.580183;;-15.255841;;-16.138411;;-17.089782;;-17.907776;;-18.529974;;-19.672829;;-22.670472;;-27.127734;;-33.081504;;-40.759053;;-50.485376;;-62.52343;;-77.193729;;-94.774308;;-115.36226;;-138.69033;;-163.74566;;-188.00225;;-206.38584;;-216.90014;;-223.33434;;-228.26739;;-232.96681;;-238.21349;;-244.5171;;-251.74476;;-258.90217;;-264.67736;;-268.36716;;-270.19298;;-270.80602;;-270.65119;;-269.73804;;-267.86907;;-265.12339;;-262.21914;;-260.35119;;-260.41787;;-262.20924;;-264.5008;;-265.99162;;-265.99162
-8.0639343;;-8.0639343;;-8.3315224;;-8.7572104;;-9.3133741;;-9.9883628;;-10.742033;;-11.729068;;-12.332758;;-12.179952;;-11.634592;;-11.074848;;-10.748618;;-10.896332;;-11.330433;;-11.827268;;-12.229851;;-12.539188;;-13.130595;;-14.070438;;-15.074765;;-15.980851;;-16.745677;;-17.656787;;-18.833178;;-20.101797;;-21.189055;;-22.008446;;-23.133938;;-26.405239;;-31.620051;;-38.679252;;-47.787789;;-59.276977;;-73.344546;;-90.27866;;-110.22672;;-133.00122;;-157.73792;;-182.16986;;-201.37021;;-212.17959;;-218.68172;;-224.39539;;-230.69739;;-237.57429;;-244.68344;;-251.73423;;-258.31077;;-263.80016;;-267.67917;;-269.89308;;-270.87112;;-271.14162;;-270.96634;;-270.27173;;-268.85424;;-266.72872;;-264.38945;;-262.70429;;-262.36982;;-263.32502;;-264.7607;;-265.74626;;-265.74626
-8.2016256;;-8.2016256;;-8.5494892;;-9.0559827;;-9.6983455;;-10.455347;;-11.504983;;-12.332107;;-12.860591;;-12.489665;;-11.884141;;-11.362606;;-11.136413;;-11.342972;;-11.768387;;-12.203243;;-12.592037;;-13.4223;;-14.607421;;-16.001452;;-17.416785;;-18.642171;;-19.648226;;-20.827412;;-22.350476;;-23.995785;;-25.407762;;-26.47464;;-27.668135;;-30.93358;;-36.837974;;-45.036648;;-55.654142;;-68.993747;;-85.145422;;-104.29901;;-126.37206;;-150.68977;;-175.35695;;-196.03752;;-208.34422;;-215.25665;;-220.97055;;-227.94199;;-236.35836;;-245.05374;;-252.85848;;-259.17153;;-263.88139;;-267.13768;;-269.20372;;-270.38502;;-270.98046;;-271.2121;;-271.16211;;-270.76516;;-269.88111;;-268.46237;;-266.73886;;-265.23409;;-264.48167;;-264.60438;;-265.2053;;-265.6984;;-265.6984
-8.3866457;;-8.3866457;;-8.7828413;;-9.3557288;;-10.078074;;-10.920041;;-12.060331;;-12.956883;;-13.434815;;-12.913348;;-12.240666;;-11.753435;;-11.641266;;-11.884497;;-12.269671;;-12.712817;;-13.674273;;-15.059213;;-16.750116;;-18.623552;;-20.499639;;-22.100083;;-23.38797;;-24.88439;;-26.824854;;-28.926994;;-30.736772;;-32.115213;;-33.516053;;-36.597447;;-42.893346;;-52.107916;;-64.173736;;-79.296014;;-97.399793;;-118.45813;;-142.00884;;-166.59327;;-188.78675;;-203.97831;;-213.29748;;-220.07504;;-227.0655;;-235.54233;;-244.9009;;-253.58629;;-260.36074;;-264.84745;;-267.40091;;-268.74201;;-269.55534;;-270.21089;;-270.756;;-271.10911;;-271.22282;;-271.08521;;-270.64635;;-269.83282;;-268.6759;;-267.4284;;-266.47841;;-266.05659;;-266.05942;;-266.17931;;-266.17931
-8.5440126;;-8.5440126;;-8.9760307;;-9.6001546;;-10.386212;;-11.299605;;-12.518048;;-13.481013;;-13.94309;;-13.327072;;-12.59371;;-12.12429;;-12.106525;;-12.381702;;-12.827955;;-13.869197;;-15.400489;;-17.328286;;-19.568955;;-22.00888;;-24.436731;;-26.488377;;-28.110845;;-29.973459;;-32.387994;;-35.017085;;-37.297137;;-39.063105;;-40.879631;;-43.970748;;-50.189598;;-59.955394;;-73.127339;;-89.689396;;-109.33858;;-131.62637;;-155.51849;;-178.50516;;-196.45827;;-209.18086;;-219.02832;;-227.75571;;-236.51127;;-245.45197;;-253.8336;;-260.69188;;-265.44567;;-268.08367;;-269.0949;;-269.2794;;-269.4014;;-269.82;;-270.42479;;-270.92952;;-271.18793;;-271.22573;;-271.07753;;-270.69365;;-270.01588;;-269.12424;;-268.25933;;-267.64613;;-267.33439;;-267.22475;;-267.22475
-8.6672429;;-8.6672429;;-9.1244302;;-9.7843814;;-10.614466;;-11.576078;;-12.844312;;-13.841928;;-14.250362;;-13.586832;;-12.837895;;-12.406857;;-12.459128;;-12.872454;;-13.979615;;-15.618838;;-17.726542;;-20.259066;;-23.151957;;-26.279084;;-29.363104;;-31.928317;;-33.921814;;-36.186718;;-39.141249;;-42.385426;;-45.227946;;-47.477837;;-49.824671;;-53.428527;;-59.643558;;-69.268094;;-82.634897;;-99.723985;;-120.00067;;-142.26974;;-164.82653;;-184.69418;;-200.46226;;-213.51818;;-225.2219;;-236.16764;;-246.09781;;-254.36224;;-260.6123;;-265.01603;;-267.88833;;-269.39938;;-269.76016;;-269.49312;;-269.28835;;-269.54797;;-270.16249;;-270.76399;;-271.12526;;-271.26479;;-271.27;;-271.14396;;-270.82578;;-270.31218;;-269.71209;;-269.16974;;-268.77671;;-268.56742;;-268.56742
-8.7816754;;-8.7816754;;-9.2587156;;-9.9460144;;-10.807687;;-11.79902;;-13.089668;;-14.078784;;-14.335605;;-13.670871;;-12.979517;;-12.642742;;-12.882968;;-13.998801;;-15.704631;;-17.936858;;-20.693874;;-23.932822;;-27.592137;;-31.521223;;-35.368041;;-38.528612;;-40.942928;;-43.648785;;-47.196032;;-51.128013;;-54.622748;;-57.471272;;-60.503839;;-65.008719;;-71.857918;;-81.54929;;-94.280658;;-110.28943;;-129.12352;;-149.07735;;-168.68121;;-186.77215;;-202.62422;;-216.51037;;-229.53494;;-241.95213;;-252.5423;;-259.99876;;-264.39255;;-266.94445;;-268.67781;;-269.77299;;-270.07171;;-269.76641;;-269.43366;;-269.53584;;-270.06103;;-270.66768;;-271.08242;;-271.2788;;-271.35138;;-271.34954;;-271.24979;;-271.03045;;-270.71618;;-270.36323;;-270.04244;;-269.83903;;-269.83903
-8.8894329;;-8.8894329;;-9.3832697;;-10.092979;;-10.978788;;-11.988063;;-13.28233;;-14.233844;;-14.314967;;-13.690941;;-13.119142;;-12.984925;;-13.96466;;-15.666232;;-17.960959;;-20.859077;;-24.341271;;-28.391501;;-32.955731;;-37.834646;;-42.570421;;-46.401645;;-49.266752;;-52.414844;;-56.557512;;-61.204524;;-65.424532;;-69.011545;;-72.929236;;-78.566673;;-86.676863;;-97.141062;;-109.49923;;-123.27189;;-137.82338;;-153.57123;;-171.0212;;-188.62972;;-204.10413;;-217.11803;;-229.77653;;-242.92059;;-254.51598;;-262.24514;;-266.07728;;-267.83815;;-269.0529;;-269.99586;;-270.36335;;-270.15332;;-269.80367;;-269.76443;;-270.12587;;-270.648;;-271.06439;;-271.29135;;-271.39131;;-271.43275;;-271.43075;;-271.37589;;-271.26082;;-271.09109;;-270.90136;;-270.76447;;-270.76447
-8.9963065;;-8.9963065;;-9.5071644;;-10.239755;;-11.150507;;-12.178934;;-13.477186;;-14.388052;;-14.349829;;-13.778643;;-13.331978;;-13.919961;;-15.526453;;-17.808613;;-20.750665;;-24.380932;;-28.692125;;-33.700562;;-39.322636;;-45.293159;;-51.021206;;-55.563293;;-58.865258;;-62.384562;;-67.01978;;-72.30523;;-77.281076;;-81.794331;;-86.883954;;-93.915326;;-103.47828;;-115.06626;;-127.28472;;-138.45033;;-148.85005;;-161.66856;;-177.74717;;-194.06736;;-206.88093;;-216.31447;;-226.74456;;-240.02442;;-253.21496;;-262.4738;;-266.97641;;-268.71976;;-269.66402;;-270.38162;;-270.69839;;-270.56508;;-270.25608;;-270.11665;;-270.29477;;-270.6804;;-271.05699;;-271.29526;;-271.40764;;-271.45917;;-271.48686;;-271.49691;;-271.47879;;-271.42386;;-271.34253;;-271.27443;;-271.27443
-9.1707173;;-9.1707173;;-9.7115613;;-10.485559;;-11.444043;;-12.736975;;-13.843104;;-14.717311;;-14.552827;;-13.974761;;-13.896362;;-15.306169;;-17.495654;;-20.395852;;-24.055037;;-28.50345;;-33.776499;;-39.879743;;-46.692551;;-53.861247;;-60.624972;;-65.840807;;-69.478757;;-73.157771;;-77.966977;;-83.598193;;-89.288472;;-95.035016;;-101.75465;;-110.51671;;-121.6339;;-134.17319;;-145.92985;;-154.98909;;-163.11129;;-174.67428;;-189.98058;;-204.4626;;-213.40033;;-218.01544;;-225.06017;;-237.49178;;-251.6856;;-262.3771;;-267.77178;;-269.70075;;-270.41535;;-270.82756;;-270.99266;;-270.88342;;-270.62931;;-270.44353;;-270.48406;;-270.74251;;-271.06166;;-271.29244;;-271.40854;;-271.46177;;-271.49598;;-271.52433;;-271.53983;;-271.53369;;-271.50731;;-271.47705;;-271.47705
-9.4630113;;-9.4630113;;-10.054882;;-10.899648;;-12.158484;;-13.313949;;-14.467951;;-15.265599;;-14.8936;;-14.252305;;-15.079967;;-17.04634;;-19.81079;;-23.378866;;-27.834063;;-33.199285;;-39.539215;;-46.836998;;-54.914367;;-63.294404;;-70.996384;;-76.692701;;-80.406913;;-83.795845;;-88.090675;;-93.458455;;-99.839265;;-107.39875;;-116.45132;;-127.37495;;-140.09403;;-153.23418;;-164.22183;;-171.59719;;-178.45773;;-189.64092;;-204.78242;;-218.16682;;-224.5537;;-225.80384;;-229.62802;;-239.77318;;-252.82732;;-263.20028;;-268.59989;;-270.4684;;-270.96941;;-271.13514;;-271.16024;;-271.04494;;-270.83908;;-270.66461;;-270.65377;;-270.83525;;-271.09519;;-271.29705;;-271.40383;;-271.45522;;-271.49161;;-271.52533;;-271.55003;;-271.55726;;-271.5462;;-271.52713;;-271.52713
-9.8333097;;-9.8333097;;-10.488482;;-11.42029;;-12.78016;;-14.025435;;-15.213311;;-15.797246;;-15.200535;;-14.868218;;-16.490692;;-19.028758;;-22.405633;;-26.699669;;-31.990792;;-38.331228;;-45.780439;;-54.280487;;-63.558941;;-72.953142;;-81.20823;;-86.922383;;-90.255105;;-92.809302;;-96.161353;;-101.30064;;-108.71046;;-118.40531;;-130.07955;;-143.41834;;-157.81204;;-171.52143;;-181.88576;;-187.97753;;-193.78788;;-204.48075;;-219.46828;;-232.60724;;-238.54055;;-238.86168;;-240.56922;;-247.47656;;-257.20336;;-265.20661;;-269.45121;;-270.90499;;-271.22453;;-271.26203;;-271.21105;;-271.08477;;-270.91817;;-270.79497;;-270.80253;;-270.95187;;-271.15376;;-271.3094;;-271.39466;;-271.44109;;-271.48007;;-271.51845;;-271.54744;;-271.55727;;-271.54782;;-271.52962;;-271.52962
-10.190169;;-10.190169;;-10.903152;;-11.912492;;-13.353434;;-14.658844;;-15.825301;;-16.020675;;-15.29858;;-15.957779;;-18.095437;;-21.167895;;-25.167359;;-30.20118;;-36.320282;;-43.607608;;-52.084529;;-61.613185;;-71.757767;;-81.576171;;-89.606324;;-94.86635;;-97.774417;;-99.82645;;-102.84442;;-108.2142;;-116.54863;;-127.79294;;-141.55605;;-157.24968;;-173.71302;;-188.78592;;-199.69206;;-205.73398;;-210.95104;;-220.39209;;-233.88058;;-245.97881;;-251.94199;;-252.73526;;-253.47223;;-257.25354;;-262.91597;;-267.68708;;-270.24996;;-271.12885;;-271.30427;;-271.29482;;-271.21785;;-271.0865;;-270.94468;;-270.86598;;-270.9009;;-271.03176;;-271.18543;;-271.30094;;-271.36925;;-271.41461;;-271.45975;;-271.50622;;-271.54184;;-271.55608;;-271.54972;;-271.53434;;-271.53434
-10.427916;;-10.427916;;-11.175161;;-12.228048;;-13.702389;;-15.010931;;-16.084178;;-15.901788;;-15.404338;;-17.073269;;-19.759058;;-23.365695;;-27.97598;;-33.693976;;-40.564284;;-48.660609;;-57.928516;;-68.085407;;-78.443338;;-87.817635;;-95.211242;;-100.29348;;-103.3811;;-105.76099;;-109.17403;;-114.77656;;-122.96144;;-134.08349;;-148.63129;;-166.39178;;-185.7913;;-203.83401;;-217.22011;;-224.92029;;-230.29509;;-237.79748;;-247.92087;;-257.05519;;-261.95292;;-263.10354;;-263.4945;;-265.09231;;-267.57389;;-269.70216;;-270.85831;;-271.2578;;-271.33327;;-271.31243;;-271.2365;;-271.10823;;-270.96877;;-270.88637;;-270.90341;;-271.00241;;-271.12871;;-271.2383;;-271.31793;;-271.37821;;-271.43591;;-271.49229;;-271.53632;;-271.559;;-271.56236;;-271.55563;;-271.55563
