-4.7202386;;-4.7202386;;-4.8003305;;-4.9153911;;-5.0589191;;-5.2223913;;-5.3960877;;-5.8147202;;-5.8561921;;-5.8325234;;-5.8569497;;-5.9376152;;-6.0233699;;-6.0477183;;-6.3037362;;-6.7565661;;-7.382136;;-8.1939429;;-9.2198276;;-10.478488;;-11.994485;;-13.785693;;-15.845953;;-18.123637;;-20.491321;;-22.726579;;-24.621013;;-26.118332;;-27.286;;-28.291264;;-29.355312;;-30.632742;;-32.108141;;-33.616006;;-34.974602;;-36.103279;;-37.027786;;-37.811388;;-38.50564;;-39.137911;;-39.70338;;-40.178452;;-40.571631;;-40.951242;;-41.400536;;-41.950704;;-42.571513;;-43.222835;;-43.904255;;-44.642942;;-45.435014;;-46.219326;;-46.912507;;-47.454686;;-47.829736;;-48.066592;;-48.221139;;-48.345716;;-48.475845;;-48.630404;;-48.799019;;-48.9413;;-49.026155;;-49.065796;;-49.065796
-4.7444094;;-4.7444094;;-4.8279574;;-4.9475784;;-5.0958723;;-5.2625243;;-5.6961519;;-5.8399636;;-5.8657138;;-5.845534;;-5.8645124;;-5.9366509;;-6.0245457;;-6.0630741;;-6.2482313;;-6.6687694;;-7.2664623;;-8.0488538;;-9.0424464;;-10.269705;;-11.752149;;-13.510183;;-15.540941;;-17.797451;;-20.155364;;-22.384965;;-24.274417;;-25.799665;;-27.043603;;-28.145051;;-29.271939;;-30.543443;;-31.949729;;-33.358532;;-34.626532;;-35.69888;;-36.606887;;-37.404529;;-38.130489;;-38.801979;;-39.409216;;-39.928779;;-40.365851;;-40.773402;;-41.219327;;-41.741951;;-42.336925;;-42.979486;;-43.657961;;-44.381111;;-45.147742;;-45.92189;;-46.64234;;-47.246138;;-47.691767;;-47.981964;;-48.159385;;-48.276456;;-48.382724;;-48.522353;;-48.702083;;-48.874117;;-48.986963;;-49.040841;;-49.040841
-4.7698512;;-4.7698512;;-4.8562072;;-4.9792822;;-5.1305608;;-5.2976667;;-5.7265239;;-5.8503028;;-5.8810254;;-5.8819889;;-5.905512;;-5.9674778;;-6.047494;;-6.0974206;;-6.2056525;;-6.5922663;;-7.1590387;;-7.9081478;;-8.8645251;;-10.054726;;-11.496085;;-13.211304;;-15.201846;;-17.4289;;-19.781758;;-22.0472;;-24.013247;;-25.65314;;-27.041177;;-28.276391;;-29.466635;;-30.699998;;-31.989381;;-33.26045;;-34.421233;;-35.437526;;-36.333969;;-37.145888;;-37.893154;;-38.583097;;-39.211921;;-39.769542;;-40.259085;;-40.709637;;-41.169029;;-41.683369;;-42.270997;;-42.914242;;-43.585378;;-44.27803;;-45.002;;-45.75201;;-46.486641;;-47.133956;;-47.628959;;-47.958545;;-48.158377;;-48.274097;;-48.356247;;-48.46686;;-48.633234;;-48.811118;;-48.937526;;-49.000747;;-49.000747
-4.7995559;;-4.7995559;;-4.8884622;;-5.0142451;;-5.1665314;;-5.5902274;;-5.7472112;;-5.8561181;;-5.9090644;;-5.9405472;;-5.9758672;;-6.0283191;;-6.0917964;;-6.1398221;;-6.1871434;;-6.5289965;;-7.0592316;;-7.772559;;-8.6899063;;-9.8411486;;-11.240282;;-12.91104;;-14.860013;;-17.058022;;-19.411991;;-21.734644;;-23.813871;;-25.593016;;-27.123256;;-28.471111;;-29.700461;;-30.87751;;-32.045213;;-33.191166;;-34.270394;;-35.256405;;-36.154692;;-36.976898;;-37.727931;;-38.416343;;-39.056899;;-39.658221;;-40.217887;;-40.736573;;-41.239817;;-41.773643;;-42.364366;;-42.99398;;-43.630243;;-44.272713;;-44.953456;;-45.691815;;-46.450456;;-47.136438;;-47.661693;;-48.008315;;-48.217045;;-48.331079;;-48.395097;;-48.474664;;-48.609786;;-48.767777;;-48.888238;;-48.952497;;-48.952497
-4.8347305;;-4.8347305;;-4.926084;;-5.0540464;;-5.4642829;;-5.6190606;;-5.7586852;;-5.8638748;;-5.9428068;;-6.0036385;;-6.0535564;;-6.101382;;-6.1514248;;-6.1965165;;-6.2244133;;-6.4899473;;-6.9807528;;-7.661917;;-8.5461271;;-9.6623563;;-11.026892;;-12.661334;;-14.577478;;-16.754562;;-19.115141;;-21.494074;;-23.67403;;-25.553807;;-27.161446;;-28.555491;;-29.783741;;-30.900602;;-31.969145;;-33.023933;;-34.056698;;-35.044275;;-35.969244;;-36.816342;;-37.576393;;-38.264236;;-38.917871;;-39.567917;;-40.210303;;-40.820401;;-41.396336;;-41.969082;;-42.560308;;-43.155235;;-43.735032;;-44.32016;;-44.963692;;-45.697936;;-46.481379;;-47.198795;;-47.738755;;-48.07807;;-48.270178;;-48.372318;;-48.42993;;-48.496644;;-48.60449;;-48.729898;;-48.827895;;-48.883572;;-48.883572
-4.8773792;;-4.8773792;;-4.9674779;;-5.0948534;;-5.5007902;;-5.641359;;-5.7642697;;-5.8733223;;-5.9709659;;-6.05166;;-6.113567;;-6.1631878;;-6.2136164;;-6.2695021;;-6.3103533;;-6.4746241;;-6.928228;;-7.5816831;;-8.438987;;-9.5269524;;-10.866402;;-12.474795;;-14.368505;;-16.533553;;-18.903748;;-21.32754;;-23.57266;;-25.485015;;-27.082187;;-28.444751;;-29.632437;;-30.694559;;-31.694828;;-32.690423;;-33.703465;;-34.722182;;-35.711594;;-36.625168;;-37.430712;;-38.140486;;-38.810408;;-39.49782;;-40.212406;;-40.91644;;-41.575786;;-42.192232;;-42.779735;;-43.339361;;-43.876662;;-44.426946;;-45.045055;;-45.762237;;-46.537864;;-47.2516;;-47.776724;;-48.07819;;-48.221946;;-48.297781;;-48.36622;;-48.455901;;-48.563602;;-48.662473;;-48.73117;;-48.771524;;-48.771524
-4.9620075;;-4.9620075;;-5.0385492;;-5.416327;;-5.5462331;;-5.6668542;;-5.7773903;;-5.8871288;;-5.9906951;;-6.0781457;;-6.1447637;;-6.1983896;;-6.260253;;-6.3391465;;-6.4016466;;-6.4759517;;-6.8913151;;-7.5167792;;-8.3485553;;-9.4105658;;-10.727707;;-12.312824;;-14.18579;;-16.337751;;-18.710407;;-21.158916;;-23.429108;;-25.31041;;-26.82997;;-28.113444;;-29.245816;;-30.272934;;-31.244385;;-32.218676;;-33.240649;;-34.317165;;-35.404575;;-36.424694;;-37.314372;;-38.071342;;-38.759134;;-39.461621;;-40.216095;;-40.988061;;-41.715876;;-42.369071;;-42.956964;;-43.504873;;-44.042172;;-44.602933;;-45.220839;;-45.910694;;-46.63551;;-47.289218;;-47.748723;;-47.972214;;-48.03837;;-48.078063;;-48.174186;;-48.320486;;-48.458375;;-48.546849;;-48.591528;;-48.617875;;-48.617875
-5.0889981;;-5.0889981;;-5.1546929;;-5.5199688;;-5.6269277;;-5.7282936;;-5.8281371;;-5.9265819;;-6.0174802;;-6.0938492;;-6.15212;;-6.2027718;;-6.2732825;;-6.371116;;-6.4479239;;-6.4714173;;-6.8448788;;-7.4406488;;-8.2446574;;-9.2765625;;-10.563453;;-12.115484;;-13.954589;;-16.076117;;-18.428075;;-20.871451;;-23.137105;;-24.963527;;-26.397344;;-27.613659;;-28.719202;;-29.753989;;-30.747266;;-31.746595;;-32.807214;;-33.952032;;-35.135862;;-36.259692;;-37.236213;;-38.047498;;-38.756049;;-39.461281;;-40.224429;;-41.023295;;-41.785663;;-42.462612;;-43.062759;;-43.630372;;-44.208751;;-44.820855;;-45.469589;;-46.141908;;-46.79636;;-47.347687;;-47.697498;;-47.816879;;-47.799978;;-47.808502;;-47.938023;;-48.145665;;-48.320973;;-48.410847;;-48.445149;;-48.46699;;-48.46699
-5.2472973;;-5.2472973;;-5.3059022;;-5.6601683;;-5.7552881;;-5.8552161;;-5.9491642;;-6.0221768;;-6.0761129;;-6.1171542;;-6.1480011;;-6.1818792;;-6.246524;;-6.3441788;;-6.4188247;;-6.4248552;;-6.7650757;;-7.330575;;-8.09974;;-9.0897086;;-10.32837;;-11.825682;;-13.604466;;-15.664688;;-17.962778;;-20.373186;;-22.637482;;-24.461374;;-25.883794;;-27.109021;;-28.25309;;-29.345409;;-30.39627;;-31.442188;;-32.542705;;-33.730381;;-34.963865;;-36.141725;;-37.170754;;-38.025672;;-38.761985;;-39.476369;;-40.234591;;-41.02492;;-41.785476;;-42.472598;;-43.098144;;-43.711009;;-44.354285;;-45.036194;;-45.7308;;-46.39586;;-46.980761;;-47.423373;;-47.66648;;-47.709609;;-47.653254;;-47.657386;;-47.808833;;-48.042026;;-48.226628;;-48.313033;;-48.346501;;-48.37274;;-48.37274
-5.4195262;;-5.6873582;;-5.7388283;;-5.8203234;;-5.9217449;;-6.037831;;-6.1346666;;-6.1784794;;-6.1770608;;-6.1597912;;-6.1449163;;-6.149093;;-6.193826;;-6.2734915;;-6.3345507;;-6.3422279;;-6.6529978;;-7.1823475;;-7.9054504;;-8.8377509;;-10.00758;;-11.427005;;-13.119043;;-15.090419;;-17.310534;;-19.679561;;-21.981328;;-23.918626;;-25.4622;;-26.801795;;-28.048446;;-29.220039;;-30.31782;;-31.380256;;-32.476295;;-33.647215;;-34.860952;;-36.030319;;-37.073475;;-37.963427;;-38.740225;;-39.478882;;-40.230865;;-40.991747;;-41.725944;;-42.413769;;-43.07305;;-43.745428;;-44.461834;;-45.21168;;-45.942709;;-46.591234;;-47.10898;;-47.46837;;-47.660631;;-47.709058;;-47.693472;;-47.731154;;-47.881443;;-48.08177;;-48.225537;;-48.286181;;-48.314609;;-48.345302;;-48.345302
-5.5824471;;-5.8531448;;-5.8957268;;-5.9788228;;-6.1054117;;-6.250424;;-6.3557545;;-6.3698778;;-6.3072429;;-6.2219566;;-6.1523174;;-6.1200436;;-6.1380568;;-6.1912581;;-6.2363439;;-6.2581458;;-6.5341491;;-7.0209278;;-7.6903295;;-8.5562107;;-9.6465154;;-10.980213;;-12.57868;;-14.457264;;-16.601306;;-18.942052;;-21.317704;;-23.46128;;-25.241302;;-26.777874;;-28.157742;;-29.390295;;-30.488018;;-31.510015;;-32.540679;;-33.630748;;-34.763788;;-35.878681;;-36.914462;;-37.841487;;-38.672709;;-39.447338;;-40.195357;;-40.921528;;-41.623171;;-42.310096;;-43.006051;;-43.73966;;-44.523119;;-45.324487;;-46.069864;;-46.687391;;-47.148243;;-47.467824;;-47.677419;;-47.804366;;-47.885284;;-47.97535;;-48.102417;;-48.225695;;-48.289447;;-48.302888;;-48.318104;;-48.350696;;-48.350696
-5.6907563;;-5.6907563;;-6.0050966;;-6.1084659;;-6.2696048;;-6.4457048;;-6.5611629;;-6.5481229;;-6.4345683;;-6.2921956;;-6.1736882;;-6.1063628;;-6.0955856;;-6.1204495;;-6.1514922;;-6.197467;;-6.4462046;;-6.892023;;-7.509158;;-8.311049;;-9.3262097;;-10.585098;;-12.106632;;-13.911229;;-15.997182;;-18.320498;;-20.763339;;-23.107676;;-25.160266;;-26.930333;;-28.448347;;-29.717872;;-30.782253;;-31.73168;;-32.662471;;-33.633387;;-34.650692;;-35.686731;;-36.703388;;-37.665727;;-38.55402;;-39.368662;;-40.120623;;-40.825431;;-41.508837;;-42.204509;;-42.939005;;-43.724135;;-44.550713;;-45.372735;;-46.112658;;-46.707261;;-47.149297;;-47.479165;;-47.740423;;-47.949519;;-48.108917;;-48.230841;;-48.321693;;-48.361999;;-48.344851;;-48.31537;;-48.325219;;-48.365982;;-48.365982
-5.7436458;;-5.7436458;;-6.0629571;;-6.1836582;;-6.3679345;;-6.5634302;;-6.6855324;;-6.6585314;;-6.5203411;;-6.3488376;;-6.2016522;;-6.1085395;;-6.0712536;;-6.0685403;;-6.0873307;;-6.1634069;;-6.4112849;;-6.8262168;;-7.3996491;;-8.147954;;-9.1003614;;-10.292629;;-11.753984;;-13.500158;;-15.535593;;-17.831458;;-20.300637;;-22.773881;;-25.06008;;-27.065344;;-28.728307;;-30.037359;;-31.074258;;-31.958888;;-32.791397;;-33.639057;;-34.536961;;-35.490345;;-36.478575;;-37.460631;;-38.390723;;-39.240736;;-40.010207;;-40.722544;;-41.418486;;-42.141585;;-42.913925;;-43.727422;;-44.555381;;-45.358394;;-46.086163;;-46.697869;;-47.186011;;-47.571543;;-47.876662;;-48.109786;;-48.275502;;-48.383246;;-48.433383;;-48.417085;;-48.357167;;-48.319759;;-48.348491;;-48.408959;;-48.408959
-5.7795414;;-6.0494831;;-6.0874473;;-6.198304;;-6.3759854;;-6.5657481;;-6.6841908;;-6.6633625;;-6.5351674;;-6.3697432;;-6.2218196;;-6.119594;;-6.0629771;;-6.0375093;;-6.0489467;;-6.1608775;;-6.4266226;;-6.8237203;;-7.3599394;;-8.0607441;;-8.9595605;;-10.092301;;-11.497398;;-13.191412;;-15.175469;;-17.430017;;-19.889598;;-22.425761;;-24.874918;;-27.077391;;-28.878197;;-30.238802;;-31.269979;;-32.111572;;-32.865661;;-33.612926;;-34.41797;;-35.30875;;-36.270186;;-37.254312;;-38.20179;;-39.073201;;-39.867788;;-40.614813;;-41.354256;;-42.119382;;-42.916125;;-43.719011;;-44.500249;;-45.254762;;-45.984798;;-46.670551;;-47.268894;;-47.738559;;-48.06399;;-48.262922;;-48.375241;;-48.434674;;-48.446249;;-48.407241;;-48.353525;;-48.350135;;-48.418741;;-48.503249;;-48.503249
-5.8020565;;-6.0731449;;-6.0882401;;-6.1694189;;-6.3213254;;-6.4885002;;-6.5923855;;-6.5815244;;-6.4826679;;-6.3501751;;-6.2262969;;-6.1323782;;-6.0690803;;-6.0334827;;-6.0497558;;-6.1984972;;-6.4864885;;-6.8831479;;-7.3917398;;-8.0464677;;-8.8968014;;-9.9828427;;-11.341553;;-12.999116;;-14.947266;;-17.169982;;-19.614591;;-22.175184;;-24.703101;;-27.007463;;-28.882922;;-30.271272;;-31.294328;;-32.10166;;-32.802259;;-33.492615;;-34.255444;;-35.124249;;-36.076664;;-37.05652;;-38.001433;;-38.875428;;-39.688159;;-40.476239;;-41.268945;;-42.072021;;-42.865547;;-43.616694;;-44.320088;;-45.024172;;-45.785698;;-46.588304;;-47.327203;;-47.885287;;-48.218612;;-48.372371;;-48.429705;;-48.446679;;-48.432573;;-48.392961;;-48.371774;;-48.419699;;-48.529246;;-48.631528;;-48.631528
-5.7988776;;-6.070912;;-6.0674715;;-6.1214461;;-6.2465712;;-6.3869253;;-6.4707246;;-6.4653794;;-6.398495;;-6.3084771;;-6.2203252;;-6.1465661;;-6.0913862;;-6.0633951;;-6.0972024;;-6.2686073;;-6.5711825;;-6.9748776;;-7.4739424;;-8.097807;;-8.9208921;;-9.9892446;;-11.336586;;-12.992156;;-14.942236;;-17.167875;;-19.615512;;-22.175053;;-24.687222;;-26.954823;;-28.782195;;-30.120531;;-31.09249;;-31.856808;;-32.537504;;-33.234978;;-34.020712;;-34.911653;;-35.873749;;-36.849122;;-37.781698;;-38.645635;;-39.462766;;-40.276141;;-41.103259;;-41.921301;;-42.687236;;-43.3726;;-44.006271;;-44.685201;;-45.498507;;-46.415442;;-47.273369;;-47.901557;;-48.249048;;-48.392723;;-48.443644;;-48.460605;;-48.447996;;-48.418179;;-48.422421;;-48.50097;;-48.628719;;-48.73512;;-48.73512
-5.7684401;;-6.0412408;;-6.0305489;;-6.0714155;;-6.1788494;;-6.2967285;;-6.3622621;;-6.360385;;-6.321671;;-6.2702282;;-6.2158087;;-6.1661793;;-6.1308629;;-6.1246783;;-6.178621;;-6.3535524;;-6.6557331;;-7.0591086;;-7.5570832;;-8.1840906;;-9.0225123;;-10.116014;;-11.49694;;-13.19265;;-15.18534;;-17.45117;;-19.922842;;-22.461096;;-24.870943;;-26.968695;;-28.621003;;-29.813401;;-30.671659;;-31.378123;;-32.082245;;-32.862674;;-33.734099;;-34.673584;;-35.645508;;-36.610896;;-37.530829;;-38.386843;;-39.201509;;-40.016116;;-40.84242;;-41.647539;;-42.383441;;-43.032388;;-43.64485;;-44.334451;;-45.190968;;-46.167719;;-47.07952;;-47.745295;;-48.124412;;-48.309826;;-48.413218;;-48.478506;;-48.498585;;-48.485852;;-48.493531;;-48.561975;;-48.672062;;-48.765281;;-48.765281
-5.7219627;;-5.995566;;-5.9877047;;-6.0286852;;-6.1285095;;-6.2323027;;-6.2865725;;-6.2893173;;-6.2716904;;-6.2475467;;-6.2183653;;-6.1916071;;-6.1809342;;-6.200486;;-6.2698658;;-6.4333828;;-6.7185679;;-7.1113598;;-7.6164739;;-8.2860382;;-9.1800159;;-10.333832;;-11.781682;;-13.544154;;-15.603013;;-17.928526;;-20.431615;;-22.929145;;-25.178009;;-27.03276;;-28.447549;;-29.443537;;-30.154523;;-30.801446;;-31.564278;;-32.476806;;-33.462598;;-34.44711;;-35.411442;;-36.35875;;-37.27423;;-38.136696;;-38.951421;;-39.746585;;-40.537886;;-41.310045;;-42.03343;;-42.698902;;-43.348767;;-44.073175;;-44.939388;;-45.899016;;-46.790296;;-47.463495;;-47.893117;;-48.160066;;-48.348808;;-48.483016;;-48.550635;;-48.562431;;-48.565011;;-48.601143;;-48.672258;;-48.74173;;-48.74173
-5.6718784;;-5.9462438;;-5.947336;;-5.9969384;;-6.097821;;-6.1976502;;-6.2483764;;-6.2532991;;-6.2440105;;-6.2337907;;-6.2225973;;-6.2166137;;-6.2290286;;-6.2695325;;-6.348341;;-6.4955395;;-6.7532669;;-7.1369798;;-7.6774095;;-8.4165294;;-9.3855258;;-10.616791;;-12.146284;;-13.980422;;-16.108174;;-18.48946;;-21.009693;;-23.439121;;-25.504408;;-27.125178;;-28.331459;;-29.166969;;-29.768161;;-30.382008;;-31.204433;;-32.224294;;-33.287555;;-34.283947;;-35.222265;;-36.151542;;-37.076609;;-37.961963;;-38.781692;;-39.54453;;-40.279493;;-41.008977;;-41.734773;;-42.448752;;-43.161611;;-43.918381;;-44.7593;;-45.650827;;-46.482469;;-47.153477;;-47.645354;;-48.002959;;-48.269918;;-48.457619;;-48.564578;;-48.606385;;-48.619575;;-48.641914;;-48.688388;;-48.740924;;-48.740924
-5.6255929;;-5.9009267;;-5.9114935;;-5.9713766;;-6.079079;;-6.1840377;;-6.2375789;;-6.2399123;;-6.2262345;;-6.2192549;;-6.2219352;;-6.2352976;;-6.2661516;;-6.3210536;;-6.4054427;;-6.5397648;;-6.776117;;-7.1839811;;-7.7910251;;-8.6080223;;-9.6586576;;-10.976228;;-12.584992;;-14.487198;;-16.674337;;-19.090972;;-21.594926;;-23.920445;;-25.812921;;-27.264363;;-28.348544;;-29.119821;;-29.70372;;-30.3304;;-31.177565;;-32.211905;;-33.262375;;-34.222348;;-35.124184;;-36.042041;;-36.987153;;-37.903717;;-38.731418;;-39.460857;;-40.13831;;-40.82355;;-41.544395;;-42.289364;;-43.03986;;-43.804572;;-44.607155;;-45.434623;;-46.222968;;-46.905399;;-47.454929;;-47.877422;;-48.187125;;-48.397807;;-48.527274;;-48.601291;;-48.649505;;-48.696814;;-48.752899;;-48.805631;;-48.805631
-5.5843337;;-5.860911;;-5.8758179;;-5.9395817;;-6.0514688;;-6.1645534;;-6.2273986;;-6.2309854;;-6.2125589;;-6.2062052;;-6.2198111;;-6.2487953;;-6.2932183;;-6.3578778;;-6.4467567;;-6.575562;;-6.8299762;;-7.3131325;;-8.0028022;;-8.9067333;;-10.050485;;-11.461632;;-13.147982;;-15.118138;;-17.351478;;-19.770859;;-22.204821;;-24.382525;;-26.125604;;-27.475878;;-28.516356;;-29.305824;;-29.949569;;-30.624357;;-31.459179;;-32.421334;;-33.380623;;-34.267604;;-35.126567;;-36.031782;;-36.991183;;-37.932424;;-38.768606;;-39.47805;;-40.118472;;-40.766612;;-41.458133;;-42.1825;;-42.917609;;-43.663789;;-44.440521;;-45.246278;;-46.036205;;-46.747014;;-47.332623;;-47.777714;;-48.0935;;-48.306616;;-48.449807;;-48.556836;;-48.653734;;-48.748695;;-48.833909;;-48.896169;;-48.896169
-5.5474726;;-5.8250441;;-5.8385446;;-5.8958798;;-6.0027407;;-6.1200711;;-6.1973054;;-6.2158053;;-6.2058332;;-6.205034;;-6.2261302;;-6.2645086;;-6.3181044;;-6.3900311;;-6.4829897;;-6.6216035;;-6.9743837;;-7.5551318;;-8.3435125;;-9.3541571;;-10.614508;;-12.131772;;-13.917895;;-15.966092;;-18.229084;;-20.59377;;-22.865416;;-24.836127;;-26.436826;;-27.721614;;-28.754846;;-29.588666;;-30.309378;;-31.039792;;-31.855624;;-32.728708;;-33.582566;;-34.390941;;-35.200991;;-36.077048;;-37.024782;;-37.967976;;-38.808941;;-39.519449;;-40.154762;;-40.782127;;-41.427993;;-42.090975;;-42.772274;;-43.488044;;-44.25846;;-45.07753;;-45.894103;;-46.631071;;-47.227193;;-47.666311;;-47.973086;;-48.187153;;-48.347772;;-48.491121;;-48.637094;;-48.775801;;-48.883575;;-48.950539;;-48.950539
-5.5158572;;-5.7939981;;-5.8054009;;-5.8521712;;-5.9479861;;-6.0648794;;-6.1578067;;-6.2021231;;-6.21361;;-6.2235645;;-6.2486484;;-6.2912051;;-6.351313;;-6.4293034;;-6.5262011;;-6.731465;;-7.2079542;;-7.8955855;;-8.7974431;;-9.9373258;;-11.331809;;-12.987329;;-14.906225;;-17.053096;;-19.329261;;-21.553204;;-23.544;;-25.248417;;-26.692409;;-27.917975;;-28.954205;;-29.830693;;-30.613508;;-31.389569;;-32.199856;;-33.01756;;-33.800777;;-34.548935;;-35.307768;;-36.132349;;-37.032618;;-37.945426;;-38.781023;;-39.507257;;-40.161994;;-40.787973;;-41.398224;;-42.003798;;-42.635058;;-43.327978;;-44.099943;;-44.930352;;-45.756415;;-46.495656;;-47.086874;;-47.520231;;-47.828852;;-48.056879;;-48.244519;;-48.426034;;-48.611718;;-48.77661;;-48.890811;;-48.954317;;-48.954317
-5.4838265;;-5.7617527;;-5.7764792;;-5.8208893;;-5.9097853;;-6.0260004;;-6.1333066;;-6.2044811;;-6.2400967;;-6.261577;;-6.2892073;;-6.3345124;;-6.4007201;;-6.4844005;;-6.5902834;;-6.9148129;;-7.4895644;;-8.2792236;;-9.2967605;;-10.570714;;-12.107208;;-13.916581;;-15.984639;;-18.240358;;-20.511881;;-22.517965;;-24.168948;;-25.591632;;-26.872484;;-28.04073;;-29.090174;;-30.015706;;-30.851741;;-31.658294;;-32.464553;;-33.252928;;-33.999596;;-34.711803;;-35.425366;;-36.184604;;-37.008105;;-37.860857;;-38.675685;;-39.415873;;-40.094216;;-40.732308;;-41.338751;;-41.932846;;-42.55617;;-43.247626;;-44.014563;;-44.825381;;-45.620916;;-46.335052;;-46.920064;;-47.367369;;-47.702096;;-47.959087;;-48.173247;;-48.377144;;-48.579265;;-48.752424;;-48.867756;;-48.929932;;-48.929932
-5.4336155;;-5.4336155;;-5.7399577;;-5.797334;;-5.8895728;;-6.0090026;;-6.1294519;;-6.2232268;;-6.2797847;;-6.3124021;;-6.3442761;;-6.3935536;;-6.4653638;;-6.5513864;;-6.6776678;;-7.0953655;;-7.7460923;;-8.6185647;;-9.7336742;;-11.117865;;-12.775461;;-14.715508;;-16.90919;;-19.252459;;-21.501834;;-23.29939;;-24.680981;;-25.885234;;-27.036296;;-28.162156;;-29.23473;;-30.215305;;-31.098157;;-31.915994;;-32.700971;;-33.458192;;-34.181323;;-34.873716;;-35.551333;;-36.241943;;-36.974626;;-37.74958;;-38.527047;;-39.265218;;-39.955813;;-40.61334;;-41.252906;;-41.893009;;-42.559726;;-43.271191;;-44.020834;;-44.781214;;-45.51785;;-46.195232;;-46.782151;;-47.26389;;-47.643445;;-47.931306;;-48.149334;;-48.336069;;-48.520478;;-48.691926;;-48.819982;;-48.894782;;-48.894782
-5.3553794;;-5.3553794;;-5.6846615;;-5.7669847;;-5.8731502;;-6.0007037;;-6.1339865;;-6.2470468;;-6.3230327;;-6.3687783;;-6.4081452;;-6.4616032;;-6.5338666;;-6.6123875;;-6.7494145;;-7.2102637;;-7.9029866;;-8.8226292;;-9.9929254;;-11.437018;;-13.160783;;-15.170494;;-17.428686;;-19.813022;;-22.043734;;-23.754791;;-25.037687;;-26.15215;;-27.243391;;-28.350839;;-29.442523;;-30.461116;;-31.370925;;-32.182779;;-32.934338;;-33.655034;;-34.353317;;-35.024048;;-35.66064;;-36.277773;;-36.91787;;-37.61232;;-38.341995;;-39.062973;;-39.759235;;-40.449331;;-41.154868;;-41.881714;;-42.6228;;-43.364265;;-44.090839;;-44.794008;;-45.472533;;-46.119329;;-46.715108;;-47.236596;;-47.660449;;-47.965734;;-48.15863;;-48.293174;;-48.436144;;-48.603408;;-48.756312;;-48.855131;;-48.855131
-5.2662796;;-5.2662796;;-5.6201436;;-5.731021;;-5.8566839;;-5.9949241;;-6.140281;;-6.2707458;;-6.3659958;;-6.4272992;;-6.4752475;;-6.5292764;;-6.5920622;;-6.6489305;;-6.7675985;;-7.2323151;;-7.9298777;;-8.8540927;;-10.02808;;-11.472513;;-13.194098;;-15.198194;;-17.446807;;-19.820623;;-22.057299;;-23.835876;;-25.199519;;-26.359684;;-27.466455;;-28.577805;;-29.673745;;-30.699649;;-31.613874;;-32.417502;;-33.146321;;-33.836273;;-34.497535;;-35.113761;;-35.669196;;-36.189244;;-36.741814;;-37.374085;;-38.067466;;-38.778067;;-39.497201;;-40.249122;;-41.048209;;-41.876327;;-42.694021;;-43.46557;;-44.178379;;-44.845181;;-45.487903;;-46.115392;;-46.71545;;-47.260073;;-47.708278;;-48.017954;;-48.185041;;-48.274208;;-48.378707;;-48.535116;;-48.701713;;-48.817107;;-48.817107
-5.1975449;;-5.1975449;;-5.5719549;;-5.7059226;;-5.8492885;;-5.9980251;;-6.1524557;;-6.2958335;;-6.4073524;;-6.4831981;;-6.5384236;;-6.5886183;;-6.6336287;;-6.6604583;;-6.7420262;;-7.1863679;;-7.8625493;;-8.7603892;;-9.9004118;;-11.301425;;-12.969754;;-14.911531;;-17.093923;;-19.414954;;-21.6624;;-23.580552;;-25.128641;;-26.427635;;-27.608824;;-28.746082;;-29.84146;;-30.86121;;-31.777711;;-32.590354;;-33.320742;;-33.988859;;-34.587379;;-35.085395;;-35.481803;;-35.858421;;-36.334309;;-36.951662;;-37.656257;;-38.394287;;-39.173472;;-40.021347;;-40.929506;;-41.850896;;-42.72984;;-43.530811;;-44.250843;;-44.912101;;-45.54212;;-46.154486;;-46.741485;;-47.277851;;-47.725083;;-48.042282;;-48.219256;;-48.307396;;-48.393352;;-48.524186;;-48.674189;;-48.785199;;-48.785199
-5.1650153;;-5.1650153;;-5.2731165;;-5.7009941;;-5.856742;;-6.0122031;;-6.1695149;;-6.3174331;;-6.4375989;;-6.5242361;;-6.586724;;-6.6349338;;-6.6662729;;-6.6716047;;-6.7157222;;-7.1222704;;-7.7623973;;-8.6181861;;-9.7057093;;-11.042443;;-12.632186;;-14.482119;;-16.566042;;-18.802689;;-21.032764;;-23.062944;;-24.798374;;-26.268929;;-27.563874;;-28.756778;;-29.872594;;-30.907302;;-31.853286;;-32.706701;;-33.466492;;-34.123598;;-34.639487;;-34.96351;;-35.130331;;-35.322624;;-35.73856;;-36.398455;;-37.174281;;-37.980796;;-38.842676;;-39.793402;;-40.799963;;-41.792293;;-42.716893;;-43.552635;;-44.300996;;-44.977273;;-45.603086;;-46.191552;;-46.738873;;-47.234124;;-47.664733;;-48.007465;;-48.237865;;-48.36739;;-48.453111;;-48.550794;;-48.666318;;-48.760714;;-48.760714
-5.1508547;;-5.1508547;;-5.2668064;;-5.7046958;;-5.8691034;;-6.0269702;;-6.1801731;;-6.3225548;;-6.4427583;;-6.5374692;;-6.6119311;;-6.6696897;;-6.7056254;;-6.7157459;;-6.7448605;;-7.0819345;;-7.6718488;;-8.4747842;;-9.4990764;;-10.762645;;-12.263298;;-14.007516;;-15.974719;;-18.101338;;-20.269918;;-22.337556;;-24.198397;;-25.822414;;-27.246601;;-28.526478;;-29.702366;;-30.797991;;-31.820958;;-32.759134;;-33.586887;;-34.265158;;-34.722707;;-34.891772;;-34.848571;;-34.878554;;-35.254229;;-35.969549;;-36.819461;;-37.681292;;-38.593756;;-39.60366;;-40.667823;;-41.706419;;-42.674011;;-43.558535;;-44.352513;;-45.053018;;-45.670043;;-46.213338;;-46.687754;;-47.114378;;-47.524157;;-47.909943;;-48.216554;;-48.404242;;-48.502251;;-48.578284;;-48.667705;;-48.748827;;-48.748827
-5.1256959;;-5.1256959;;-5.2474743;;-5.6934756;;-5.8669689;;-6.0277625;;-6.1723847;;-6.302891;;-6.4191269;;-6.523186;;-6.6173718;;-6.6995412;;-6.7630249;;-6.8080104;;-6.8676391;;-7.1078747;;-7.6233599;;-8.3544767;;-9.2989344;;-10.47293;;-11.875656;;-13.503904;;-15.342201;;-17.341501;;-19.415249;;-21.457469;;-23.372954;;-25.105769;;-26.650218;;-28.034757;;-29.303779;;-30.500368;;-31.642111;;-32.70907;;-33.655097;;-34.414284;;-34.893757;;-35.026578;;-34.919756;;-34.899038;;-35.25235;;-35.956551;;-36.784697;;-37.611179;;-38.489385;;-39.481941;;-40.55273;;-41.622545;;-42.643858;;-43.595255;;-44.449198;;-45.180142;;-45.781585;;-46.258425;;-46.634835;;-46.979139;;-47.367249;;-47.794794;;-48.168396;;-48.407731;;-48.527229;;-48.602388;;-48.68249;;-48.756514;;-48.756514
-5.0850815;;-5.0850815;;-5.209077;;-5.6591907;;-5.840553;;-6.00839;;-6.1455772;;-6.2653197;;-6.3800526;;-6.496695;;-6.6152681;;-6.7301375;;-6.8352841;;-6.9330874;;-7.0499443;;-7.2627198;;-7.6749781;;-8.3009316;;-9.1364003;;-10.190143;;-11.476669;;-12.982356;;-14.690773;;-16.566147;;-18.544654;;-20.543086;;-22.477309;;-24.283301;;-25.92894;;-27.416884;;-28.785189;;-30.08646;;-31.348948;;-32.555547;;-33.649443;;-34.543173;;-35.135636;;-35.380378;;-35.395809;;-35.46339;;-35.808112;;-36.404901;;-37.083358;;-37.768972;;-38.533333;;-39.449181;;-40.494079;;-41.590522;;-42.673627;;-43.696692;;-44.60952;;-45.367185;;-45.948087;;-46.357638;;-46.647157;;-46.926205;;-47.293067;;-47.733014;;-48.130435;;-48.394128;;-48.53609;;-48.626527;;-48.709623;;-48.780025;;-48.780025
-5.0440483;;-5.0440483;;-5.1668613;;-5.6169997;;-5.8025053;;-5.9781195;;-6.1145506;;-6.2290631;;-6.3466713;;-6.4761771;;-6.6160918;;-6.7604616;;-6.905855;;-7.056311;;-7.2317612;;-7.475718;;-7.8384296;;-8.3540387;;-9.0568341;;-9.9720517;;-11.115483;;-12.498583;;-14.099656;;-15.88734;;-17.812117;;-19.800812;;-21.769422;;-23.644587;;-25.376917;;-26.950967;;-28.394752;;-29.762926;;-31.09771;;-32.39951;;-33.615237;;-34.645635;;-35.390272;;-35.826174;;-36.06092;;-36.284408;;-36.627204;;-37.07576;;-37.555791;;-38.068417;;-38.702074;;-39.530986;;-40.541964;;-41.655251;;-42.782457;;-43.849453;;-44.789385;;-45.549014;;-46.104673;;-46.473993;;-46.73073;;-46.993183;;-47.343583;;-47.751116;;-48.111164;;-48.358874;;-48.515086;;-48.631658;;-48.730751;;-48.804701;;-48.804701
-5.0165006;;-5.0165006;;-5.1378024;;-5.5876277;;-5.7756286;;-5.9579039;;-6.0990486;;-6.2124094;;-6.3334202;;-6.4707888;;-6.622167;;-6.7838985;;-6.9564824;;-7.1466855;;-7.3691704;;-7.6487409;;-8.007788;;-8.4592736;;-9.0400282;;-9.8214048;;-10.845643;;-12.12661;;-13.668697;;-15.434917;;-17.378464;;-19.426822;;-21.482094;;-23.446913;;-25.252832;;-26.878896;;-28.352964;;-29.731468;;-31.06989;;-32.391313;;-33.657049;;-34.770616;;-35.63987;;-36.251959;;-36.683918;;-37.039759;;-37.381549;;-37.71824;;-38.056083;;-38.449943;;-38.993792;;-39.756707;;-40.728184;;-41.825943;;-42.946557;;-44.000393;;-44.915913;;-45.644631;;-46.175443;;-46.543788;;-46.828938;;-47.12163;;-47.460795;;-47.804409;;-48.086372;;-48.291714;;-48.455584;;-48.605408;;-48.733037;;-48.820078;;-48.820078
-5.0065855;;-5.0065855;;-5.1279632;;-5.5795649;;-5.7702631;;-5.9590417;;-6.1057818;;-6.2171651;;-6.3374249;;-6.475269;;-6.6275018;;-6.7934865;;-6.9787346;;-7.1921814;;-7.4449598;;-7.7497549;;-8.112336;;-8.5303045;;-9.0274586;;-9.7094645;;-10.665911;;-11.911572;;-13.450446;;-15.266685;;-17.298649;;-19.472396;;-21.668022;;-23.744858;;-25.606586;;-27.240415;;-28.692835;;-30.031064;;-31.320803;;-32.599861;;-33.844751;;-34.975773;;-35.91676;;-36.649368;;-37.207468;;-37.638294;;-37.982564;;-38.277892;;-38.570476;;-38.927738;;-39.432888;;-40.145116;;-41.054747;;-42.084445;;-43.133362;;-44.114647;;-44.964527;;-45.646841;;-46.163871;;-46.558932;;-46.897443;;-47.229322;;-47.554253;;-47.832811;;-48.043358;;-48.21437;;-48.388147;;-48.569111;;-48.724355;;-48.825567;;-48.825567
-5.0054139;;-5.0054139;;-5.1276812;;-5.2981711;;-5.7752115;;-5.9695952;;-6.1206388;;-6.2271633;;-6.3424938;;-6.4764195;;-6.624128;;-6.7869359;;-6.9747685;;-7.1983805;;-7.465852;;-7.7814283;;-8.1412703;;-8.5335012;;-8.977781;;-9.6119778;;-10.561475;;-11.82933;;-13.416742;;-15.316567;;-17.464172;;-19.785786;;-22.144201;;-24.351598;;-26.268091;;-27.885653;;-29.280198;;-30.543093;;-31.753743;;-32.957971;;-34.144932;;-35.25835;;-36.238868;;-37.050554;;-37.682426;;-38.153166;;-38.515036;;-38.832423;;-39.157545;;-39.538597;;-40.034479;;-40.692382;;-41.507544;;-42.419417;;-43.345854;;-44.216824;;-44.984534;;-45.624709;;-46.141739;;-46.566667;;-46.939349;;-47.281161;;-47.580958;;-47.816137;;-47.99457;;-48.160792;;-48.349593;;-48.548387;;-48.714614;;-48.820375;;-48.820375
-4.9954979;;-4.9954979;;-5.117095;;-5.2870826;;-5.7656201;;-5.9635969;;-6.121666;;-6.2256702;;-6.3359617;;-6.4659309;;-6.6093701;;-6.7678048;;-6.9534173;;-7.1781598;;-7.4475008;;-7.7608643;;-8.1085997;;-8.475507;;-8.8867733;;-9.5220299;;-10.502762;;-11.815487;;-13.46348;;-15.442216;;-17.693802;;-20.149257;;-22.664387;;-25.015134;;-27.007356;;-28.618561;;-29.948026;;-31.118187;;-32.230908;;-33.344902;;-34.466488;;-35.562103;;-36.577586;;-37.450096;;-38.133596;;-38.64012;;-39.044508;;-39.428253;;-39.83029;;-40.264656;;-40.760113;;-41.354027;;-42.054141;;-42.824798;;-43.609565;;-44.359738;;-45.045081;;-45.649215;;-46.166083;;-46.60067;;-46.967894;;-47.28332;;-47.550755;;-47.768038;;-47.951178;;-48.134923;;-48.337062;;-48.536381;;-48.695086;;-48.794958;;-48.794957
-4.9678421;;-4.9678421;;-5.0860318;;-5.2519229;;-5.7286508;;-5.9286037;;-6.098992;;-6.2105652;;-6.3196046;;-6.4473623;;-6.5888665;;-6.7446244;;-6.9262104;;-7.1451304;;-7.4059653;;-7.7063642;;-8.0345183;;-8.3761089;;-8.7723361;;-9.4403024;;-10.458503;;-11.81001;;-13.503697;;-15.536189;;-17.860485;;-20.41479;;-23.057582;;-25.547962;;-27.641854;;-29.281201;;-30.570961;;-31.658929;;-32.672324;;-33.693243;;-34.754383;;-35.840399;;-36.888559;;-37.80853;;-38.536794;;-39.091395;;-39.562121;;-40.032126;;-40.520111;;-41.00799;;-41.500213;;-42.031085;;-42.623699;;-43.264881;;-43.920357;;-44.561779;;-45.173388;;-45.739632;;-46.237876;;-46.649918;;-46.979741;;-47.25283;;-47.493535;;-47.711354;;-47.913916;;-48.115398;;-48.31912;;-48.505373;;-48.648551;;-48.73998;;-48.73998
-4.9318505;;-4.9318505;;-5.0453714;;-5.2054914;;-5.6788988;;-5.8797015;;-6.0633455;;-6.1910806;;-6.3034219;;-6.430944;;-6.5730795;;-6.7289462;;-6.9058946;;-7.1126818;;-7.3545267;;-7.6306989;;-7.9325576;;-8.2512178;;-8.6529102;;-9.3634417;;-10.410135;;-11.784008;;-13.500262;;-15.555411;;-17.913983;;-20.521496;;-23.24501;;-25.846183;;-28.053708;;-29.76672;;-31.072883;;-32.125563;;-33.070029;;-34.015499;;-35.024096;;-36.093842;;-37.152657;;-38.098512;;-38.870213;;-39.490377;;-40.040363;;-40.58657;;-41.131891;;-41.645316;;-42.124893;;-42.608031;;-43.12578;;-43.673682;;-44.23145;;-44.788853;;-45.340167;;-45.863518;;-46.321742;;-46.688981;;-46.974309;;-47.215427;;-47.445576;;-47.671966;;-47.887731;;-48.090942;;-48.280859;;-48.44764;;-48.577742;;-48.665463;;-48.665463
-4.9020025;;-4.9020025;;-5.0116219;;-5.1668675;;-5.6371218;;-5.8382699;;-6.0302359;;-6.1744126;;-6.2933087;;-6.4233938;;-6.5690945;;-6.7278068;;-6.8997792;;-7.0895245;;-7.302761;;-7.5447504;;-7.8141996;;-8.1129942;;-8.5383043;;-9.2864843;;-10.349782;;-11.729152;;-13.444461;;-15.489296;;-17.838753;;-20.444573;;-23.186376;;-25.847252;;-28.16595;;-30.006459;;-31.410107;;-32.505899;;-33.442223;;-34.350793;;-35.317286;;-36.350555;;-37.384092;;-38.331182;;-39.147386;;-39.846145;;-40.471941;;-41.060307;;-41.612327;;-42.112232;;-42.570677;;-43.027426;;-43.506883;;-43.999055;;-44.490429;;-44.985988;;-45.486647;;-45.964489;;-46.377558;;-46.706137;;-46.969395;;-47.206321;;-47.442377;;-47.673679;;-47.884994;;-48.071934;;-48.239607;;-48.388232;;-48.511024;;-48.599572;;-48.599571
-4.8788072;;-4.8788072;;-4.9850851;;-5.1360586;;-5.6027528;;-5.8024616;;-5.9981432;;-6.1555588;;-6.283766;;-6.4201577;;-6.5716005;;-6.7339185;;-6.9007815;;-7.0712639;;-7.2528837;;-7.4580342;;-7.6945386;;-7.9763986;;-8.4332917;;-9.207788;;-10.277606;;-11.649667;;-13.345253;;-15.350508;;-17.649913;;-20.198995;;-22.893491;;-25.555693;;-27.970653;;-29.986321;;-31.570912;;-32.79587;;-33.794343;;-34.710532;;-35.64634;;-36.625974;;-37.609068;;-38.544287;;-39.404977;;-40.179354;;-40.859048;;-41.448492;;-41.964482;;-42.427267;;-42.866003;;-43.312849;;-43.774043;;-44.229749;;-44.671864;;-45.116186;;-45.568511;;-46.002155;;-46.382396;;-46.701557;;-46.981454;;-47.246259;;-47.498965;;-47.724101;;-47.911634;;-48.071441;;-48.219041;;-48.357053;;-48.476165;;-48.564879;;-48.564879
-4.8493415;;-4.8493415;;-4.9509366;;-5.0956706;;-5.2735435;;-5.75115;;-5.9487011;;-6.1198822;;-6.2610188;;-6.4041671;;-6.5596585;;-6.7230078;;-6.8846038;;-7.0399695;;-7.1972923;;-7.3744392;;-7.5855842;;-7.8544637;;-8.338528;;-9.1286938;;-10.19985;;-11.561559;;-13.231297;;-15.187971;;-17.420037;;-19.883541;;-22.491398;;-25.114776;;-27.599549;;-29.794855;;-31.59918;;-33.008298;;-34.118878;;-35.073163;;-35.986946;;-36.911242;;-37.84484;;-38.770833;;-39.667923;;-40.493247;;-41.193913;;-41.756554;;-42.222857;;-42.650214;;-43.078088;;-43.520268;;-43.96302;;-44.383068;;-44.781031;;-45.179563;;-45.586207;;-45.979698;;-46.339203;;-46.670944;;-46.994782;;-47.309939;;-47.587324;;-47.79986;;-47.954833;;-48.088292;;-48.226463;;-48.364446;;-48.482882;;-48.569589;;-48.569589
-4.8080999;;-4.8080999;;-4.9029846;;-5.0386672;;-5.2066361;;-5.6765899;;-5.8736017;;-6.0579374;;-6.21196;;-6.3560017;;-6.5066445;;-6.6649996;;-6.8227329;;-6.9730842;;-7.1220775;;-7.2886484;;-7.4875284;;-7.747773;;-8.2501299;;-9.0497777;;-10.123391;;-11.482534;;-13.137717;;-15.068293;;-17.259903;;-19.66483;;-22.204212;;-24.78561;;-27.303605;;-29.622958;;-31.606668;;-33.188396;;-34.415985;;-35.414578;;-36.313074;;-37.196789;;-38.100362;;-39.022433;;-39.933015;;-40.770135;;-41.464659;;-42.000398;;-42.434066;;-42.84116;;-43.260556;;-43.689055;;-44.102893;;-44.485104;;-44.845995;;-45.20938;;-45.578909;;-45.934397;;-46.265891;;-46.597193;;-46.956437;;-47.323833;;-47.634698;;-47.846497;;-47.985;;-48.111558;;-48.25755;;-48.406085;;-48.528309;;-48.613813;;-48.613813
-4.7637249;;-4.7637249;;-4.8513058;;-4.9770441;;-5.1338443;;-5.5937047;;-5.7857951;;-5.9754634;;-6.133991;;-6.2665844;;-6.3996558;;-6.5458017;;-6.7017895;;-6.8588365;;-7.0175309;;-7.1910434;;-7.390352;;-7.6481748;;-8.1699897;;-8.9817955;;-10.065816;;-11.43686;;-13.103566;;-15.049756;;-17.260327;;-19.682275;;-22.226199;;-24.796591;;-27.309109;;-29.65852;;-31.717394;;-33.395109;;-34.699182;;-35.730688;;-36.625361;;-37.493747;;-38.387361;;-39.299639;;-40.189769;;-41.001029;;-41.678723;;-42.209636;;-42.641532;;-43.041226;;-43.441741;;-43.83796;;-44.213645;;-44.565052;;-44.906638;;-45.254004;;-45.59918;;-45.914033;;-46.191378;;-46.477032;;-46.827621;;-47.224979;;-47.575589;;-47.815869;;-47.977019;;-48.129597;;-48.300017;;-48.462893;;-48.58874;;-48.673036;;-48.673036
-4.7270768;;-4.7270768;;-4.8083462;;-4.9253151;;-5.0718051;;-5.5210328;;-5.7041881;;-5.8872715;;-6.0367183;;-6.1447061;;-6.2512805;;-6.3813008;;-6.5365266;;-6.7071863;;-6.8866639;;-7.07864;;-7.2863037;;-7.5541332;;-8.1106834;;-8.9470173;;-10.056262;;-11.459178;;-13.166345;;-15.168771;;-17.453977;;-19.964598;;-22.58815;;-25.184614;;-27.658325;;-29.946729;;-31.968908;;-33.647795;;-34.974483;;-36.030398;;-36.944103;;-37.825638;;-38.719556;;-39.606566;;-40.446971;;-41.210367;;-41.870985;;-42.415779;;-42.865423;;-43.261344;;-43.631414;;-43.983193;;-44.321195;;-44.656713;;-45.001853;;-45.354906;;-45.689494;;-45.963577;;-46.166451;;-46.36539;;-46.65786;;-47.048545;;-47.431768;;-47.721101;;-47.934803;;-48.131801;;-48.326185;;-48.491739;;-48.610492;;-48.688866;;-48.688866
-4.7013446;;-4.7013446;;-4.7775851;;-4.8873433;;-5.0248343;;-5.4637338;;-5.6354745;;-5.8040933;;-5.9312952;;-6.0083001;;-6.0887347;;-6.2048652;;-6.3603083;;-6.5440958;;-6.7454893;;-6.9584029;;-7.1777716;;-7.4788641;;-8.0844818;;-8.9581392;;-10.10612;;-11.556799;;-13.322725;;-15.403562;;-17.788911;;-20.416877;;-23.149555;;-25.782963;;-28.188985;;-30.358859;;-32.275865;;-33.897281;;-35.219793;;-36.311145;;-37.274813;;-38.19251;;-39.087938;;-39.93792;;-40.720449;;-41.435675;;-42.080234;;-42.63701;;-43.1007;;-43.489833;;-43.83035;;-44.145595;;-44.459275;;-44.792749;;-45.152533;;-45.520096;;-45.851891;;-46.094619;;-46.23391;;-46.348952;;-46.566254;;-46.918594;;-47.306774;;-47.630673;;-47.886214;;-48.11012;;-48.30496;;-48.451973;;-48.551135;;-48.619508;;-48.619508
-4.6807505;;-4.6807505;;-4.7524349;;-4.8555495;;-4.9845045;;-5.4131016;;-5.5728315;;-5.7245896;;-5.8262829;;-5.8779026;;-5.9418064;;-6.0509359;;-6.2067867;;-6.398246;;-6.6135645;;-6.8414609;;-7.073039;;-7.429472;;-8.0793473;;-8.9892649;;-10.175483;;-11.672383;;-13.493876;;-15.647036;;-18.122114;;-20.852299;;-23.676823;;-26.32746;;-28.643898;;-30.683789;;-32.492018;;-34.059439;;-35.393052;;-36.544822;;-37.580187;;-38.541134;;-39.435558;;-40.253026;;-40.995772;;-41.681541;;-42.31297;;-42.868925;;-43.333015;;-43.713711;;-44.03806;;-44.339142;;-44.647626;;-44.982816;;-45.344073;;-45.706682;;-46.024569;;-46.245589;;-46.356387;;-46.432993;;-46.601369;;-46.906455;;-47.267175;;-47.586598;;-47.844723;;-48.059902;;-48.230854;;-48.349919;;-48.430723;;-48.492929;;-48.492928
-4.6577157;;-4.6577157;;-4.7242831;;-4.8200631;;-4.9398516;;-5.0774996;;-5.5062131;;-5.6454184;;-5.7340045;;-5.7753541;;-5.8348396;;-5.9420954;;-6.0963694;;-6.2869166;;-6.5040315;;-6.7365331;;-6.9779085;;-7.3810498;;-8.0548695;;-8.9829185;;-10.18786;;-11.707986;;-13.557909;;-15.749532;;-18.273679;;-21.060764;;-23.934982;;-26.577811;;-28.808138;;-30.754341;;-32.508145;;-34.07726;;-35.464988;;-36.697975;;-37.803631;;-38.797338;;-39.689838;;-40.49418;;-41.228826;;-41.909997;;-42.535149;;-43.085133;;-43.546562;;-43.926506;;-44.251396;;-44.556587;;-44.869012;;-45.195459;;-45.526129;;-45.842319;;-46.113937;;-46.303114;;-46.403516;;-46.483511;;-46.648648;;-46.932559;;-47.263978;;-47.557847;;-47.792057;;-47.980399;;-48.126337;;-48.230964;;-48.310429;;-48.376593;;-48.376593
-4.6318294;;-4.6318294;;-4.6924915;;-4.7801315;;-4.8902755;;-5.0181588;;-5.4376999;;-5.5719357;;-5.6677446;;-5.71807;;-5.782025;;-5.8873201;;-6.033087;;-6.212713;;-6.4207374;;-6.6482879;;-6.8913453;;-7.3066797;;-7.9773641;;-8.8960269;;-10.088707;;-11.594798;;-13.430629;;-15.610021;;-18.126207;;-20.912556;;-23.792536;;-26.426536;;-28.614541;;-30.537211;;-32.315892;;-33.95796;;-35.444951;;-36.769361;;-37.931131;;-38.942687;;-39.835664;;-40.645412;;-41.393165;;-42.082839;;-42.706807;;-43.255448;;-43.724801;;-44.119646;;-44.458407;;-44.771176;;-45.079106;;-45.377589;;-45.6498;;-45.885718;;-46.073043;;-46.18902;;-46.243981;;-46.323281;;-46.525781;;-46.852926;;-47.206839;;-47.498729;;-47.715214;;-47.883208;;-48.019923;;-48.131733;;-48.227021;;-48.304811;;-48.304811
-4.6101588;;-4.6101588;;-4.664377;;-4.7441027;;-4.8456514;;-4.9662164;;-5.3799124;;-5.5155692;;-5.6299236;;-5.70162;;-5.7724853;;-5.8711356;;-6.0027625;;-6.1667179;;-6.3613174;;-6.5792851;;-6.8135155;;-7.203203;;-7.8439155;;-8.7268984;;-9.8770932;;-11.333286;;-13.115224;;-15.236122;;-17.694164;;-20.431928;;-23.288985;;-25.941817;;-28.159941;;-30.13071;;-31.996165;;-33.758837;;-35.372044;;-36.792919;;-38.004447;;-39.030478;;-39.927345;;-40.746675;;-41.507298;;-42.202282;;-42.823118;;-43.372575;;-43.856646;;-44.275735;;-44.634117;;-44.950405;;-45.241659;;-45.50219;;-45.714098;;-45.867263;;-45.945741;;-45.927847;;-45.8598;;-45.895166;;-46.164315;;-46.618088;;-47.077862;;-47.417692;;-47.638189;;-47.796764;;-47.933743;;-48.060874;;-48.176016;;-48.265618;;-48.265618
-4.5989011;;-4.5989011;;-4.6466499;;-4.7203862;;-4.8161463;;-4.9325063;;-5.3436318;;-5.4819369;;-5.6089887;;-5.6976003;;-5.7711129;;-5.8619682;;-5.9821416;;-6.1354017;;-6.3205939;;-6.5298897;;-6.7513682;;-7.0833247;;-7.6709807;;-8.4965983;;-9.5808537;;-10.960136;;-12.659697;;-14.690228;;-17.056557;;-19.716053;;-22.537613;;-25.245429;;-27.57413;;-29.65417;;-31.639378;;-33.536389;;-35.27997;;-36.79983;;-38.067281;;-39.116077;;-40.021123;;-40.846973;;-41.61387;;-42.308441;;-42.920405;;-43.461256;;-43.947395;;-44.379499;;-44.751496;;-45.070091;;-45.348669;;-45.585528;;-45.764095;;-45.861219;;-45.832941;;-45.645734;;-45.399039;;-45.353317;;-45.698631;;-46.324897;;-46.939798;;-47.358011;;-47.594873;;-47.747415;;-47.883095;;-48.020996;;-48.150939;;-48.249414;;-48.249414
-4.595073;;-4.595073;;-4.6386;;-4.709292;;-4.8022297;;-4.9161622;;-5.3257921;;-5.4641237;;-5.5924506;;-5.6821468;;-5.7520861;;-5.8394404;;-5.9584788;;-6.1113749;;-6.2938516;;-6.4971018;;-6.7080031;;-6.9681504;;-7.4772197;;-8.2262271;;-9.226371;;-10.508566;;-12.105332;;-14.023883;;-16.275941;;-18.836907;;-21.612497;;-24.391969;;-26.900707;;-29.148263;;-31.275576;;-33.306164;;-35.17415;;-36.794125;;-38.127157;;-39.211385;;-40.134934;;-40.975131;;-41.754799;;-42.452011;;-43.049369;;-43.5637;;-44.024293;;-44.440986;;-44.808542;;-45.129834;;-45.414287;;-45.658347;;-45.840975;;-45.921922;;-45.828362;;-45.515707;;-45.127029;;-45.00774;;-45.397224;;-46.142961;;-46.868601;;-47.342531;;-47.589921;;-47.737923;;-47.874174;;-48.022472;;-48.166751;;-48.274884;;-48.274884
-4.5930313;;-4.5930313;;-4.6325444;;-4.7004583;;-4.7906499;;-4.901551;;-5.0276195;;-5.4436713;;-5.5678233;;-5.6504868;;-5.7165763;;-5.8074312;;-5.9348199;;-6.0943577;;-6.2773663;;-6.474338;;-6.6765041;;-6.8880045;;-7.2821367;;-7.9377224;;-8.8406957;;-10.012733;;-11.48858;;-13.280775;;-15.401975;;-17.846719;;-20.55767;;-23.390106;;-26.104484;;-28.571905;;-30.867056;;-33.03566;;-35.029458;;-36.758279;;-38.172225;;-39.310724;;-40.275154;;-41.152755;;-41.961631;;-42.665812;;-43.240699;;-43.710866;;-44.121155;;-44.494784;;-44.836787;;-45.156848;;-45.462617;;-45.73947;;-45.954023;;-46.057953;;-45.974556;;-45.659295;;-45.256364;;-45.112484;;-45.472803;;-46.193418;;-46.902176;;-47.365003;;-47.605544;;-47.754092;;-47.901242;;-48.068864;;-48.234103;;-48.355853;;-48.355853
-4.5907802;;-4.5907802;;-4.6189958;;-4.6797479;;-4.7629884;;-4.8665558;;-4.9859354;;-5.3963849;;-5.5188911;;-5.6046614;;-5.6746451;;-5.7729375;;-5.9079841;;-6.0714834;;-6.2520946;;-6.4434812;;-6.6415125;;-6.8419573;;-7.1173444;;-7.6657826;;-8.4631326;;-9.5201281;;-10.866421;;-12.528091;;-14.512583;;-16.830014;;-19.453849;;-22.293042;;-25.165273;;-27.862077;;-30.341743;;-32.657108;;-34.791638;;-36.657901;;-38.18953;;-39.418992;;-40.455879;;-41.390976;;-42.232616;;-42.935032;;-43.476277;;-43.893505;;-44.244597;;-44.563769;;-44.869145;;-45.183583;;-45.51584;;-45.836632;;-46.097446;;-46.253433;;-46.250055;;-46.052836;;-45.764586;;-45.649688;;-45.913;;-46.466995;;-47.030839;;-47.414989;;-47.632019;;-47.786381;;-47.952778;;-48.144358;;-48.331666;;-48.466617;;-48.466617
-4.5898448;;-4.5898448;;-4.5998951;;-4.646677;;-4.7173992;;-4.8084033;;-4.9172106;;-5.3186454;;-5.4418159;;-5.5447083;;-5.6272436;;-5.7246039;;-5.8496798;;-5.9954902;;-6.1622192;;-6.3564221;;-6.5703784;;-6.7905565;;-7.0250183;;-7.4500074;;-8.1413765;;-9.0887776;;-10.312853;;-11.846907;;-13.702095;;-15.891197;;-18.409277;;-21.202322;;-24.138153;;-27.003985;;-29.65453;;-32.11588;;-34.4075;;-36.453753;;-38.162876;;-39.535761;;-40.669281;;-41.654459;;-42.504097;;-43.183897;;-43.687351;;-44.060665;;-44.364312;;-44.638536;;-44.914686;;-45.227696;;-45.586995;;-45.952027;;-46.263455;;-46.48299;;-46.583444;;-46.544196;;-46.416218;;-46.356056;;-46.5072;;-46.845757;;-47.212928;;-47.48785;;-47.673523;;-47.835741;;-48.020304;;-48.227289;;-48.423809;;-48.562514;;-48.562514
-4.5895764;;-4.5895764;;-4.5917297;;-4.6140484;;-4.66874;;-4.7453795;;-4.841214;;-4.9521921;;-5.354266;;-5.4732361;;-5.5719155;;-5.6533613;;-5.7398569;;-5.8413628;;-5.983061;;-6.1791154;;-6.4222661;;-6.6907369;;-6.9628688;;-7.3089479;;-7.906685;;-8.7575266;;-9.877033;;-11.295003;;-13.036819;;-15.107765;;-17.515365;;-20.228501;;-23.150747;;-26.098439;;-28.878587;;-31.466443;;-33.908495;;-36.153459;;-38.080853;;-39.62911;;-40.853611;;-41.851247;;-42.671197;;-43.317627;;-43.801827;;-44.162938;;-44.44938;;-44.70529;;-44.975742;;-45.300767;;-45.684704;;-46.082447;;-46.434235;;-46.706574;;-46.886604;;-46.963675;;-46.956135;;-46.942801;;-47.014994;;-47.187187;;-47.393403;;-47.57386;;-47.730907;;-47.899235;;-48.095928;;-48.306648;;-48.497731;;-48.629499;;-48.629499
-4.5894544;;-4.5894544;;-4.590125;;-4.5953583;;-4.6291924;;-4.6913773;;-4.7745992;;-4.8766487;;-4.9924026;;-5.397111;;-5.5074222;;-5.5709001;;-5.6050743;;-5.6605876;;-5.7815307;;-5.9722553;;-6.2253864;;-6.5285137;;-6.8570993;;-7.2213507;;-7.7592723;;-8.5390032;;-9.5792414;;-10.907714;;-12.559488;;-14.539882;;-16.857998;;-19.497439;;-22.385791;;-25.368189;;-28.238047;;-30.915171;;-33.457674;;-35.850002;;-37.954798;;-39.642253;;-40.916202;;-41.888;;-42.664143;;-43.29581;;-43.800935;;-44.194014;;-44.502234;;-44.773379;;-45.06489;;-45.413554;;-45.812695;;-46.218965;;-46.584267;;-46.881032;;-47.096716;;-47.220096;;-47.256342;;-47.253244;;-47.28237;;-47.377767;;-47.513674;;-47.653262;;-47.796465;;-47.96656;;-48.169359;;-48.380781;;-48.564774;;-48.688497;;-48.688497
-4.5894104;;-4.5894104;;-4.5895742;;-4.5907295;;-4.6022978;;-4.6496624;;-4.7207885;;-4.8117121;;-4.9186859;;-5.0339691;;-5.4264868;;-5.4853346;;-5.4723626;;-5.486317;;-5.5942514;;-5.7821855;;-6.0366489;;-6.3510757;;-6.7103635;;-7.1254412;;-7.6724884;;-8.4268093;;-9.4272973;;-10.708264;;-12.309198;;-14.24636;;-16.525723;;-19.138735;;-22.026476;;-25.048236;;-27.983705;;-30.698022;;-33.249571;;-35.663513;;-37.812099;;-39.53389;;-40.803525;;-41.744924;;-42.503568;;-43.157381;;-43.720082;;-44.180824;;-44.545962;;-44.861516;;-45.189204;;-45.559863;;-45.958968;;-46.350443;;-46.702632;;-46.995042;;-47.208408;;-47.319667;;-47.323833;;-47.270762;;-47.258285;;-47.352885;;-47.526925;;-47.707044;;-47.866173;;-48.033972;;-48.233336;;-48.443948;;-48.625636;;-48.74587;;-48.74587
-4.5894003;;-4.5894003;;-4.5894248;;-4.589639;;-4.5915351;;-4.61537;;-4.6706404;;-4.7464639;;-4.8389877;;-4.9405689;;-5.0384328;;-5.3792264;;-5.3496596;;-5.3341349;;-5.4430583;;-5.6299257;;-5.8825272;;-6.1985916;;-6.571254;;-7.0253167;;-7.6146437;;-8.3899855;;-9.3981573;;-10.682268;;-12.287513;;-14.237369;;-16.540977;;-19.191771;;-22.133131;;-25.220028;;-28.200783;;-30.886537;;-33.338533;;-35.624726;;-37.658889;;-39.304301;;-40.539779;;-41.481696;;-42.267936;;-42.973037;;-43.607766;;-44.151767;;-44.595956;;-44.972595;;-45.336018;;-45.715913;;-46.103574;;-46.474391;;-46.806802;;-47.081364;;-47.270518;;-47.335552;;-47.256022;;-47.095793;;-47.0151;;-47.142518;;-47.432789;;-47.726501;;-47.935411;;-48.099294;;-48.2803;;-48.47766;;-48.651507;;-48.767302;;-48.767302
-4.5893991;;-4.5893991;;-4.589401;;-4.5894278;;-4.5898363;;-4.5944946;;-4.626672;;-4.6840744;;-4.7589667;;-4.8443045;;-4.9276575;;-4.9790019;;-5.2299595;;-5.2108322;;-5.3262006;;-5.2229693;;-5.4661237;;-5.7798296;;-6.454024;;-6.9409069;;-7.56759;;-8.3796028;;-9.424679;;-10.750047;;-12.400087;;-14.40061;;-16.769726;;-19.50069;;-22.532605;;-25.704037;;-28.71309;;-31.310495;;-33.575226;;-35.62652;;-37.44768;;-38.96608;;-40.17648;;-41.161246;;-42.014151;;-42.788629;;-43.497703;;-44.125503;;-44.652783;;-45.090874;;-45.481192;;-45.860008;;-46.236111;;-46.596498;;-46.918265;;-47.174939;;-47.334469;;-47.350848;;-47.188657;;-46.917649;;-46.756369;;-46.902309;;-47.302261;;-47.713907;;-47.980469;;-48.141074;;-48.292218;;-48.45828;;-48.608444;;-48.711616;;-48.711616
-4.5893991;;-4.5893991;;-4.5893992;;-4.5894018;;-4.5895046;;-4.5905806;;-4.5984871;;-4.6326446;;-4.6876483;;-4.7551976;;-4.823452;;-4.8665933;;-4.8409627;;-4.837426;;-4.9501261;;-5.1246;;-5.3615059;;-5.6728824;;-6.3560437;;-6.8618049;;-7.5088936;;-8.3453852;;-9.421389;;-10.785337;;-12.475164;;-14.524571;;-16.957204;;-19.768394;;-22.894377;;-26.158612;;-29.201239;;-31.6836;;-33.717538;;-35.498502;;-37.096603;;-38.505303;;-39.724682;;-40.789405;;-41.740163;;-42.603824;;-43.392684;;-44.097594;;-44.695565;;-45.182798;;-45.591934;;-45.968969;;-46.340176;;-46.699281;;-47.016626;;-47.258873;;-47.398407;;-47.396314;;-47.21124;;-46.901448;;-46.694905;;-46.819378;;-47.236664;;-47.684744;;-47.975546;;-48.132447;;-48.254871;;-48.380244;;-48.494123;;-48.577265;;-48.577265
-4.5893991;;-4.5893991;;-4.5893991;;-4.5893994;;-4.5894191;;-4.5896643;;-4.5913073;;-4.6002147;;-4.6320356;;-4.6805287;;-4.7328657;;-4.7663644;;-4.7461518;;-4.7662821;;-4.8771204;;-5.044716;;-5.2732205;;-5.576031;;-6.2544796;;-6.7579356;;-7.3996112;;-8.2294958;;-9.3003592;;-10.659176;;-12.34633;;-14.400112;;-16.848961;;-19.69379;;-22.876983;;-26.22364;;-29.340994;;-31.75338;;-33.587058;;-35.141387;;-36.566661;;-37.907552;;-39.1651;;-40.33395;;-41.406548;;-42.377395;;-43.248909;;-44.01796;;-44.667565;;-45.19116;;-45.617862;;-45.998842;;-46.369157;;-46.725656;;-47.037138;;-47.272144;;-47.413342;;-47.436405;;-47.304863;;-47.054973;;-46.869201;;-46.948225;;-47.283185;;-47.667097;;-47.933717;;-48.082755;;-48.183798;;-48.271043;;-48.347119;;-48.408883;;-48.408883
-4.5893991;;-4.5893991;;-4.5893991;;-4.5893991;;-4.5894011;;-4.5894347;;-4.5897387;;-4.5913555;;-4.5984245;;-4.6242023;;-4.660352;;-4.6845747;;-4.6698339;;-4.706967;;-4.8119227;;-4.9676992;;-5.1804997;;-5.4638643;;-5.8366982;;-6.5981115;;-7.2092682;;-7.9972462;;-9.01829;;-10.32043;;-11.944999;;-13.934078;;-16.320687;;-19.115031;;-22.275287;;-25.653493;;-28.887064;;-31.373593;;-33.141058;;-34.581289;;-35.904081;;-37.199352;;-38.492058;;-39.76281;;-40.96159;;-42.042255;;-42.990549;;-43.810909;;-44.500533;;-45.058132;;-45.509672;;-45.903343;;-46.274599;;-46.624411;;-46.930612;;-47.172642;;-47.340757;;-47.419907;;-47.383915;;-47.250697;;-47.137491;;-47.185537;;-47.409263;;-47.685854;;-47.899462;;-48.0322;;-48.116864;;-48.177861;;-48.229491;;-48.27618;;-48.276179
-4.5893991;;-4.5893991;;-4.5893991;;-4.5893991;;-4.5893991;;-4.5894012;;-4.5894365;;-4.5896791;;-4.5906013;;-4.5938205;;-4.6087248;;-4.6236157;;-4.6145983;;-4.6545892;;-4.7490862;;-4.8885211;;-5.079611;;-5.3351636;;-5.6728065;;-6.3927742;;-6.9517691;;-7.6716948;;-8.6074227;;-9.8082544;;-11.316264;;-13.173693;;-15.418649;;-18.071048;;-21.110099;;-24.431176;;-27.752199;;-30.480834;;-32.381025;;-33.853435;;-35.146455;;-36.401349;;-37.701782;;-39.045023;;-40.350503;;-41.533444;;-42.560924;;-43.439683;;-44.177405;;-44.778221;;-45.265067;;-45.680476;;-46.057564;;-46.402894;;-46.709931;;-46.972956;;-47.184715;;-47.329584;;-47.389965;;-47.376859;;-47.355412;;-47.407631;;-47.553337;;-47.735607;;-47.890628;;-48.000046;;-48.077436;;-48.13802;;-48.19138;;-48.237238;;-48.237238
-4.5893991;;-4.5893991;;-4.5893991;;-4.5893991;;-4.5893991;;-4.5893992;;-4.5894013;;-4.5894202;;-4.5894984;;-4.5896918;;-4.5901692;;-4.5914247;;-4.5906403;;-4.6134221;;-4.6923667;;-4.8123374;;-4.9786366;;-5.2025279;;-5.4997174;;-5.8905106;;-6.6639987;;-7.3043696;;-8.1373942;;-9.2113711;;-10.569951;;-12.253683;;-14.302848;;-16.745655;;-19.580665;;-22.746492;;-26.050583;;-29.04411;;-31.24055;;-32.872507;;-34.219277;;-35.470994;;-36.775924;;-38.163757;;-39.548903;;-40.830887;;-41.961567;;-42.932982;;-43.744862;;-44.401691;;-44.929117;;-45.3713;;-45.761962;;-46.111986;;-46.427843;;-46.717724;;-46.975925;;-47.183098;;-47.326631;;-47.416053;;-47.482349;;-47.560212;;-47.662078;;-47.772048;;-47.871444;;-47.961467;;-48.053246;;-48.146258;;-48.227244;;-48.283501;;-48.283501
-4.5893991;;-4.5893991;;-4.5893991;;-4.5893991;;-4.5893991;;-4.5893991;;-4.5893991;;-4.5893993;;-4.5893999;;-4.5894014;;-4.5894041;;-4.5894083;;-4.5894074;;-4.5916573;;-4.6463139;;-4.7443254;;-4.8853116;;-5.0776093;;-5.3344474;;-5.6735207;;-6.381492;;-6.9421159;;-7.6702224;;-8.6122902;;-9.8127781;;-11.310221;;-13.144711;;-15.348963;;-17.936254;;-20.879391;;-24.059462;;-27.174301;;-29.698281;;-31.564265;;-33.053095;;-34.383083;;-35.731371;;-37.156771;;-38.60224;;-39.985286;;-41.247209;;-42.345881;;-43.253808;;-43.972643;;-44.540164;;-45.012132;;-45.426972;;-45.797074;;-46.133852;;-46.453165;;-46.753646;;-47.017406;;-47.234422;;-47.407813;;-47.541019;;-47.636252;;-47.700392;;-47.746985;;-47.797892;;-47.881031;;-48.008402;;-48.153888;;-48.272475;;-48.339859;;-48.339859
-4.5893991;;-4.5893991;;-4.5893991;;-4.5893991;;-4.5893991;;-4.5893991;;-4.5893991;;-4.5893991;;-4.5893991;;-4.5893991;;-4.5893991;;-4.5893992;;-4.5893992;;-4.589449;;-4.6099539;;-4.6874125;;-4.8056056;;-4.9695746;;-5.1902778;;-5.4829948;;-6.1330132;;-6.6223105;;-7.2558821;;-8.077616;;-9.1313903;;-10.455537;;-12.087889;;-14.062989;;-16.404233;;-19.108608;;-22.108625;;-25.204946;;-27.9751;;-30.097706;;-31.775073;;-33.235732;;-34.652144;;-36.110429;;-37.607954;;-39.096284;;-40.500229;;-41.732054;;-42.734079;;-43.510689;;-44.118334;;-44.626399;;-45.078064;;-45.486123;;-45.860416;;-46.216654;;-46.558724;;-46.876806;;-47.160199;;-47.395557;;-47.562694;;-47.650588;;-47.673346;;-47.666497;;-47.680243;;-47.76401;;-47.929244;;-48.124831;;-48.275691;;-48.350414;;-48.350413
-4.5893991;;-4.5893991;;-4.5893991;;-4.5893991;;-4.5893991;;-4.5893991;;-4.5893991;;-4.5893991;;-4.5893991;;-4.5893991;;-4.5893991;;-4.5893991;;-4.5893991;;-4.5894017;;-4.5914705;;-4.6451695;;-4.7426024;;-4.8829142;;-5.0742117;;-5.3294842;;-5.9337572;;-6.3667451;;-6.9256941;;-7.6515195;;-8.5851695;;-9.7681839;;-11.236053;;-13.023746;;-15.161723;;-17.663254;;-20.494306;;-23.522774;;-26.437544;;-28.797085;;-30.631906;;-32.183327;;-33.633527;;-35.110256;;-36.666813;;-38.271452;;-39.814358;;-41.162248;;-42.24068;;-43.06737;;-43.716418;;-44.263719;;-44.754788;;-45.206091;;-45.626116;;-46.025703;;-46.411817;;-46.782138;;-47.120548;;-47.392489;;-47.563372;;-47.630533;;-47.624484;;-47.590659;;-47.586068;;-47.670181;;-47.856736;;-48.079376;;-48.243375;;-48.316023;;-48.316023
-4.5893991;;-4.5893991;;-4.5893991;;-4.5893991;;-4.5893991;;-4.5893991;;-4.5893991;;-4.5893991;;-4.5893991;;-4.5893991;;-4.5893991;;-4.5893991;;-4.5893991;;-4.5893996;;-4.5895218;;-4.6153405;;-4.6965449;;-4.8192084;;-4.9888809;;-5.2169391;;-5.5190921;;-6.180963;;-6.6904742;;-7.3500906;;-8.1972271;;-9.2777871;;-10.627551;;-12.280827;;-14.273018;;-16.627951;;-19.332846;;-22.297307;;-25.282527;;-27.827512;;-29.748316;;-31.307705;;-32.74525;;-34.24119;;-35.878615;;-37.610602;;-39.281814;;-40.725019;;-41.864103;;-42.733867;;-43.418207;;-43.991649;;-44.502909;;-44.978795;;-45.431351;;-45.866359;;-46.289554;;-46.700553;;-47.074274;;-47.360798;;-47.524721;;-47.581703;;-47.579181;;-47.559852;;-47.567237;;-47.652492;;-47.825137;;-48.014123;;-48.12749;;-48.157438;;-48.157438
-4.5893991;;-4.5893991;;-4.5893991;;-4.5893991;;-4.5893991;;-4.5893991;;-4.5893991;;-4.5893991;;-4.5893991;;-4.5893991;;-4.5893991;;-4.5893991;;-4.5893991;;-4.5893992;;-4.5894183;;-4.597771;;-4.6661705;;-4.7757594;;-4.9303109;;-5.1398711;;-5.4188676;;-6.0542757;;-6.5334619;;-7.1523402;;-7.9423501;;-8.9519283;;-10.219807;;-11.779993;;-13.671533;;-15.924806;;-18.539877;;-21.450971;;-24.46254;;-27.141383;;-29.114042;;-30.652068;;-32.082731;;-33.623971;;-35.354941;;-37.199349;;-38.969019;;-40.481095;;-41.66377;;-42.561878;;-43.2606;;-43.831879;;-44.331402;;-44.800106;;-45.256616;;-45.703575;;-46.143028;;-46.571057;;-46.95575;;-47.243467;;-47.407153;;-47.476958;;-47.508667;;-47.537876;;-47.582375;;-47.655319;;-47.73013;;-47.734753;;-47.630847;;-47.508417;;-47.508416
-4.5893991;;-4.5893991;;-4.5893991;;-4.5893991;;-4.5893991;;-4.5893991;;-4.5893991;;-4.5893991;;-4.5893991;;-4.5893991;;-4.5893991;;-4.5893991;;-4.5893991;;-4.5893991;;-4.5894028;;-4.5913704;;-4.6460983;;-4.7456282;;-4.8895319;;-5.086343;;-5.3495126;;-5.6969687;;-6.1514432;;-6.7410347;;-7.7687673;;-8.7332722;;-9.943176;;-11.437635;;-13.260025;;-15.444761;;-17.999612;;-20.874696;;-23.904871;;-26.700088;;-28.757098;;-30.313108;;-31.775255;;-33.373567;;-35.169663;;-37.071166;;-38.883283;;-40.422641;;-41.618671;;-42.516343;;-43.199248;;-43.740887;;-44.205176;;-44.643099;;-45.078281;;-45.512659;;-45.944718;;-46.365359;;-46.740952;;-47.024997;;-47.199386;;-47.295639;;-47.365251;;-47.438271;;-47.506326;;-47.508407;;-47.330261;;-46.894211;;-46.295603;;-45.841258;;-45.841257
-4.5893991;;-4.5893991;;-4.5893991;;-4.5893991;;-4.5893991;;-4.5893991;;-4.5893991;;-4.5893991;;-4.5893991;;-4.5893991;;-4.5893991;;-4.5893991;;-4.5893991;;-4.5893991;;-4.5893996;;-4.5899172;;-4.6326183;;-4.7252663;;-4.8620967;;-5.0505525;;-5.3035143;;-5.6383747;;-6.0772789;;-6.6476911;;-7.3830011;;-8.5950009;;-9.7696798;;-11.223035;;-13.005366;;-15.153473;;-17.67986;;-20.546294;;-23.611353;;-26.52762;;-28.727288;;-30.356225;;-31.867009;;-33.490657;;-35.284181;;-37.165538;;-38.955542;;-40.475856;;-41.650245;;-42.517737;;-43.162378;;-43.662245;;-44.085424;;-44.485605;;-44.888631;;-45.297572;;-45.707854;;-46.106184;;-46.463066;;-46.744017;;-46.935471;;-47.05352;;-47.131101;;-47.198776;;-47.236466;;-47.093553;;-46.520427;;-45.426617;;-44.115899;;-43.202559;;-43.202559
-4.5893991;;-4.5893991;;-4.5893991;;-4.5893991;;-4.5893991;;-4.5893991;;-4.5893991;;-4.5893991;;-4.5893991;;-4.5893991;;-4.5893991;;-4.5893991;;-4.5893991;;-4.5893991;;-4.5893992;;-4.5895836;;-4.6236115;;-4.7116751;;-4.8437448;;-5.0266281;;-5.2728896;;-5.5996079;;-6.028582;;-6.8404704;;-7.307659;;-8.2302838;;-9.6587009;;-11.088212;;-12.848835;;-14.97988;;-17.497324;;-20.372416;;-23.483458;;-26.520891;;-28.905172;;-30.64925;;-32.208005;;-33.813977;;-35.540491;;-37.33997;;-39.063453;;-40.537974;;-41.674709;;-42.503135;;-43.108832;;-43.57268;;-43.960967;;-44.326466;;-44.698278;;-45.080654;;-45.464831;;-45.835875;;-46.172832;;-46.453638;;-46.662256;;-46.787523;;-46.833985;;-46.840862;;-46.807033;;-46.521603;;-45.599474;;-43.924313;;-41.98918;;-40.674932;;-40.674932
-4.5893991;;-4.5893991;;-4.5893991;;-4.5893991;;-4.5893991;;-4.5893991;;-4.5893991;;-4.5893991;;-4.5893991;;-4.5893991;;-4.5893991;;-4.5893991;;-4.5893991;;-4.5893991;;-4.5893991;;-4.5894677;;-4.6155514;;-4.6991709;;-4.8263429;;-5.0033201;;-5.2423205;;-5.5600432;;-6.2309169;;-6.7777411;;-7.4829138;;-8.1287813;;-9.5321267;;-10.935082;;-12.67026;;-14.777459;;-17.276677;;-20.148634;;-23.290937;;-26.432066;;-29.018533;;-30.909908;;-32.525795;;-34.100921;;-35.735928;;-37.433626;;-39.085151;;-40.522454;;-41.637793;;-42.446593;;-43.033318;;-43.477498;;-43.840754;;-44.176656;;-44.520172;;-44.876659;;-45.23289;;-45.576042;;-45.896134;;-46.18034;;-46.404272;;-46.529288;;-46.535762;;-46.474593;;-46.389984;;-46.081901;;-45.106923;;-43.305473;;-41.2127;;-39.78608;;-39.78608
-4.5893991;;-4.5893991;;-4.5893991;;-4.5893991;;-4.5893991;;-4.5893991;;-4.5893991;;-4.5893991;;-4.5893991;;-4.5893991;;-4.5893991;;-4.5893991;;-4.5893991;;-4.5893991;;-4.5893991;;-4.5894177;;-4.6059889;;-4.6834883;;-4.8037404;;-4.9722872;;-5.2007547;;-5.5051928;;-6.1597543;;-6.6860154;;-7.3643621;;-8.2325911;;-9.3306687;;-10.698428;;-12.391506;;-14.451537;;-16.904901;;-19.742906;;-22.883402;;-26.094567;;-28.871904;;-30.916971;;-32.591332;;-34.142214;;-35.701974;;-37.325322;;-38.941332;;-40.382478;;-41.517749;;-42.343539;;-42.938906;;-43.380896;;-43.728403;;-44.037351;;-44.346634;;-44.662209;;-44.975308;;-45.28625;;-45.599339;;-45.90041;;-46.149037;;-46.289659;;-46.294216;;-46.222489;;-46.158859;;-45.976762;;-45.296971;;-43.933522;;-42.295345;;-41.17282;;-41.17282
-4.5893991;;-4.5893991;;-4.5893991;;-4.5893991;;-4.5893991;;-4.5893991;;-4.5893991;;-4.5893991;;-4.5893991;;-4.5893991;;-4.5893991;;-4.5893991;;-4.5893991;;-4.5893991;;-4.5893991;;-4.5894026;;-4.5965085;;-4.664914;;-4.7758967;;-4.9335563;;-5.1484442;;-5.4356441;;-5.8148503;;-6.3108808;;-7.2087996;;-8.0279213;;-9.0740497;;-10.389527;;-12.019565;;-14.008708;;-16.388917;;-19.161558;;-22.264483;;-25.505215;;-28.44049;;-30.616937;;-32.319361;;-33.842615;;-35.360754;;-36.966416;;-38.606812;;-40.105645;;-41.307189;;-42.186097;;-42.813087;;-43.266392;;-43.606994;;-43.887321;;-44.137439;;-44.362447;;-44.580567;;-44.83938;;-45.168744;;-45.531662;;-45.847228;;-46.047491;;-46.115941;;-46.116259;;-46.141719;;-46.144265;;-45.877687;;-45.175394;;-44.24866;;-43.588859;;-43.588859
-4.5893991;;-4.5893991;;-4.5893991;;-4.5893991;;-4.5893991;;-4.5893991;;-4.5893991;;-4.5893991;;-4.5893991;;-4.5893991;;-4.5893991;;-4.5893991;;-4.5893991;;-4.5893991;;-4.5893991;;-4.5893996;;-4.5910284;;-4.6448819;;-4.744682;;-4.8897555;;-5.0888893;;-5.3559516;;-5.7094399;;-6.1728435;;-7.0288235;;-7.7951191;;-8.7795422;;-10.024051;;-11.572089;;-13.469119;;-15.750569;;-18.427083;;-21.455935;;-24.684053;;-27.738134;;-30.044126;;-31.749069;;-33.238563;;-34.745905;;-36.38625;;-38.103644;;-39.703504;;-41.005562;;-41.961953;;-42.635028;;-43.109343;;-43.450192;;-43.694759;;-43.844314;;-43.899908;;-43.937656;;-44.10489;;-44.480499;;-44.979251;;-45.43897;;-45.76202;;-45.95288;;-46.080433;;-46.219572;;-46.362403;;-46.385646;;-46.18398;;-45.833099;;-45.562833;;-45.562833
-4.5893991;;-4.5893991;;-4.5893991;;-4.5893991;;-4.5893991;;-4.5893991;;-4.5893991;;-4.5893991;;-4.5893991;;-4.5893991;;-4.5893991;;-4.5893991;;-4.5893991;;-4.5893991;;-4.5893991;;-4.5893992;;-4.5895904;;-4.6235351;;-4.7110377;;-4.8421116;;-5.0235078;;-5.2677613;;-5.59196;;-6.2745323;;-6.8246395;;-7.5319383;;-8.4430215;;-9.6014994;;-11.04911;;-12.831231;;-14.986073;;-17.532552;;-20.447345;;-23.617336;;-26.744817;;-29.232791;;-30.985219;;-32.471641;;-33.996178;;-35.693068;;-37.502724;;-39.216852;;-40.633417;;-41.680212;;-42.409099;;-42.910909;;-43.252216;;-43.448314;;-43.466056;;-43.302756;;-43.107776;;-43.152672;;-43.583133;;-44.261624;;-44.924381;;-45.421107;;-45.762608;;-46.023334;;-46.258692;;-46.468209;;-46.600598;;-46.615789;;-46.545697;;-46.478736;;-46.478736
-4.5893991;;-4.5893991;;-4.5893991;;-4.5893991;;-4.5893991;;-4.5893991;;-4.5893991;;-4.5893991;;-4.5893991;;-4.5893991;;-4.5893991;;-4.5893991;;-4.5893991;;-4.5893991;;-4.5893991;;-4.5893991;;-4.5894131;;-4.6030656;;-4.6772066;;-4.7929785;;-4.9553009;;-5.1751954;;-5.4680891;;-6.1100879;;-6.6087013;;-7.2522935;;-8.0837426;;-9.1456097;;-10.479506;;-12.129989;;-14.138119;;-16.530057;;-19.299965;;-22.373118;;-25.52796;;-28.26284;;-30.196727;;-31.760104;;-33.325728;;-35.059171;;-36.922711;;-38.718622;;-40.233415;;-41.36914;;-42.160461;;-42.695104;;-43.034277;;-43.177575;;-43.080317;;-42.752239;;-42.391218;;-42.340397;;-42.793661;;-43.596302;;-44.426782;;-45.084505;;-45.558827;;-45.918574;;-46.212923;;-46.442779;;-46.586599;;-46.644545;;-46.650843;;-46.646843;;-46.646843
-4.5893991;;-4.5893991;;-4.5893991;;-4.5893991;;-4.5893991;;-4.5893991;;-4.5893991;;-4.5893991;;-4.5893991;;-4.5893991;;-4.5893991;;-4.5893991;;-4.5893991;;-4.5893991;;-4.5893991;;-4.5893991;;-4.5894009;;-4.5916938;;-4.6472382;;-4.7469317;;-4.8907554;;-5.0873933;;-5.350458;;-5.9549893;;-6.4050605;;-6.9871528;;-7.7418019;;-8.7093081;;-9.9334735;;-11.4567;;-13.322534;;-15.564131;;-18.191105;;-21.16219;;-24.326536;;-27.321081;;-29.596105;;-31.323797;;-32.937326;;-34.656987;;-36.495875;;-38.290543;;-39.831109;;-41.00791;;-41.849643;;-42.435423;;-42.80256;;-42.935379;;-42.809414;;-42.471122;;-42.119241;;-42.064429;;-42.490947;;-43.280835;;-44.144558;;-44.868553;;-45.404917;;-45.803045;;-46.11504;;-46.349368;;-46.492479;;-46.554268;;-46.571776;;-46.578789;;-46.578789
-4.5893991;;-4.5893991;;-4.5893991;;-4.5893991;;-4.5893991;;-4.5893991;;-4.5893991;;-4.5893991;;-4.5893991;;-4.5893991;;-4.5893991;;-4.5893991;;-4.5893991;;-4.5893991;;-4.5893991;;-4.5893991;;-4.5894;;-4.5896944;;-4.622932;;-4.7088569;;-4.837287;;-5.0146823;;-5.2532586;;-5.5697441;;-6.2374429;;-6.7708162;;-7.4638903;;-8.355679;;-9.4923571;;-10.916674;;-12.673569;;-14.802517;;-17.326476;;-20.230355;;-23.416961;;-26.626089;;-29.316104;;-31.260944;;-32.912448;;-34.574256;;-36.311188;;-37.983629;;-39.392911;;-40.469689;;-41.308117;;-41.99943;;-42.508921;;-42.755275;;-42.733764;;-42.544521;;-42.363718;;-42.399156;;-42.77818;;-43.443348;;-44.20083;;-44.867793;;-45.370192;;-45.73712;;-46.026138;;-46.256716;;-46.413687;;-46.493369;;-46.521127;;-46.530462;;-46.530462
-4.5893991;;-4.5893991;;-4.5893991;;-4.5893991;;-4.5893991;;-4.5893991;;-4.5893991;;-4.5893991;;-4.5893991;;-4.5893991;;-4.5893991;;-4.5893991;;-4.5893991;;-4.5893991;;-4.5893991;;-4.5893991;;-4.5893996;;-4.5894798;;-4.6061117;;-4.6816907;;-4.798629;;-4.9620955;;-5.1833761;;-5.4782422;;-6.1187755;;-6.6194239;;-7.2716205;;-8.1138987;;-9.1927741;;-10.555329;;-12.246574;;-14.310924;;-16.781068;;-19.65898;;-22.880417;;-26.246523;;-29.293632;;-31.475808;;-33.167589;;-34.775376;;-36.376612;;-37.804596;;-38.87062;;-39.63572;;-40.387527;;-41.269533;;-42.100532;;-42.63243;;-42.833482;;-42.861032;;-42.89049;;-43.046242;;-43.397441;;-43.928539;;-44.532238;;-45.072528;;-45.476249;;-45.764912;;-46.00119;;-46.214638;;-46.387776;;-46.494934;;-46.541112;;-46.555129;;-46.555129
-4.5893991;;-4.5893991;;-4.5893991;;-4.5893991;;-4.5893991;;-4.5893991;;-4.5893991;;-4.5893991;;-4.5893991;;-4.5893991;;-4.5893991;;-4.5893991;;-4.5893991;;-4.5893991;;-4.5893991;;-4.5893991;;-4.5893993;;-4.5894264;;-4.5966915;;-4.6633283;;-4.7715898;;-4.9252129;;-5.1345945;;-5.4148095;;-6.0363009;;-6.5152721;;-7.1410354;;-7.9513986;;-8.9926294;;-10.315446;;-11.965494;;-13.990097;;-16.427956;;-19.291549;;-22.537178;;-26.006221;;-29.304763;;-31.741371;;-33.517688;;-35.126335;;-36.617491;;-37.751158;;-38.345861;;-38.665076;;-39.277923;;-40.396479;;-41.648723;;-42.55386;;-43.006349;;-43.216219;;-43.396914;;-43.648348;;-44.004356;;-44.457139;;-44.942331;;-45.364485;;-45.669214;;-45.880145;;-46.060966;;-46.248;;-46.425325;;-46.553583;;-46.618653;;-46.639821;;-46.639821
-4.5893991;;-4.5893991;;-4.5893991;;-4.5893991;;-4.5893991;;-4.5893991;;-4.5893991;;-4.5893991;;-4.5893991;;-4.5893991;;-4.5893991;;-4.5893991;;-4.5893991;;-4.5893991;;-4.5893992;;-4.5893996;;-4.5894006;;-4.5894101;;-4.5920648;;-4.6484258;;-4.7487337;;-4.8936102;;-5.0923256;;-5.6068492;;-5.9599977;;-6.4205839;;-7.0222897;;-7.8021327;;-8.8061877;;-10.087;;-11.69133;;-13.667376;;-16.057608;;-18.882271;;-22.11375;;-25.62594;;-29.085906;;-31.800895;;-33.736652;;-35.425866;;-36.893798;;-37.833461;;-38.073363;;-38.050606;;-38.552035;;-39.831164;;-41.372225;;-42.525862;;-43.12407;;-43.418442;;-43.677638;;-44.00513;;-44.401176;;-44.836066;;-45.260789;;-45.615215;;-45.866174;;-46.036947;;-46.185227;;-46.350124;;-46.521182;;-46.65692;;-46.732539;;-46.758137;;-46.758137
-4.5893991;;-4.5893991;;-4.5893991;;-4.5893991;;-4.5893991;;-4.5893991;;-4.5893991;;-4.5893991;;-4.5893991;;-4.5893991;;-4.5893991;;-4.5893991;;-4.5893992;;-4.5894004;;-4.5894106;;-4.5894507;;-4.589546;;-4.5896954;;-4.590597;;-4.6334477;;-4.7249005;;-4.8598189;;-5.0460281;;-5.5434073;;-5.8750189;;-6.3108888;;-6.8806994;;-7.6201242;;-8.5735824;;-9.7937585;;-11.328663;;-13.225657;;-15.529071;;-18.265505;;-21.421657;;-24.900761;;-28.429505;;-31.401192;;-33.547169;;-35.394501;;-36.990122;;-37.997986;;-38.243624;;-38.200123;;-38.67925;;-39.933143;;-41.442192;;-42.552531;;-43.094976;;-43.353924;;-43.649004;;-44.077274;;-44.568879;;-45.040408;;-45.454581;;-45.791233;;-46.035426;;-46.20373;;-46.344058;;-46.495203;;-46.653339;;-46.781613;;-46.853293;;-46.876083;;-46.876083
-4.5893991;;-4.5893991;;-4.5893991;;-4.5893991;;-4.5893991;;-4.5893991;;-4.5893991;;-4.5893991;;-4.5893991;;-4.5893991;;-4.5893991;;-4.5893991;;-4.5893999;;-4.5894169;;-4.5895368;;-4.5899849;;-4.5910206;;-4.5927348;;-4.5959844;;-4.6205669;;-4.7008609;;-4.8234046;;-4.9942267;;-5.471019;;-5.7776824;;-6.1814249;;-6.7099489;;-7.3969796;;-8.2841289;;-9.4221496;;-10.860422;;-12.643939;;-14.817148;;-17.410636;;-20.422662;;-23.781242;;-27.268249;;-30.386085;;-32.707138;;-34.751283;;-36.657287;;-38.064736;;-38.714739;;-38.960168;;-39.491832;;-40.561752;;-41.783087;;-42.629208;;-42.968582;;-43.109435;;-43.418847;;-43.977947;;-44.61461;;-45.164444;;-45.599701;;-45.945124;;-46.203418;;-46.38312;;-46.522643;;-46.658177;;-46.791296;;-46.894459;;-46.94834;;-46.963165;;-46.963165
-4.5893991;;-4.5893991;;-4.5893991;;-4.5893991;;-4.5893991;;-4.5893991;;-4.5893991;;-4.5893991;;-4.5893991;;-4.5893991;;-4.5893991;;-4.5893992;;-4.5894064;;-4.589516;;-4.5902094;;-4.5926641;;-4.5984953;;-4.6111603;;-4.6304947;;-4.6453611;;-4.6910221;;-4.7931066;;-5.1828624;;-5.3943723;;-5.674237;;-6.0428848;;-6.5259609;;-7.1541386;;-7.9664001;;-9.0109511;;-10.337298;;-11.987715;;-14.005025;;-16.421839;;-19.244319;;-22.419068;;-25.773303;;-28.901948;;-31.300339;;-33.520593;;-35.853452;;-37.883502;;-39.161813;;-39.80984;;-40.39465;;-41.242355;;-42.169099;;-42.790392;;-42.978401;;-43.024936;;-43.331283;;-43.978311;;-44.720199;;-45.327469;;-45.77488;;-46.12203;;-46.388594;;-46.576813;;-46.711726;;-46.821772;;-46.913926;;-46.978012;;-47.010076;;-47.01947;;-47.019469
-4.5893991;;-4.5893991;;-4.5893991;;-4.5893991;;-4.5893991;;-4.5893991;;-4.5893991;;-4.5893991;;-4.5893991;;-4.5893991;;-4.5893996;;-4.5894039;;-4.5894536;;-4.5899289;;-4.5925329;;-4.601399;;-4.6223804;;-4.6555407;;-4.6893707;;-4.7098021;;-4.7286625;;-5.0227897;;-5.1491155;;-5.3329281;;-5.5833486;;-5.916584;;-6.3555664;;-6.9276776;;-7.6690524;;-8.6250259;;-9.8451766;;-11.369899;;-13.239332;;-15.48753;;-18.126674;;-21.118758;;-24.328261;;-27.425598;;-29.87345;;-32.229495;;-34.950563;;-37.57214;;-39.440568;;-40.417497;;-41.004778;;-41.683909;;-42.48324;;-43.102183;;-43.348225;;-43.425348;;-43.716185;;-44.326158;;-45.027681;;-45.593119;;-45.998398;;-46.314257;;-46.570372;;-46.762286;;-46.893532;;-46.976901;;-47.025128;;-47.05155;;-47.069884;;-47.081322;;-47.081322
-4.5893991;;-4.5893991;;-4.5893991;;-4.5893991;;-4.5893991;;-4.5893991;;-4.5893991;;-4.5893991;;-4.5893991;;-4.5893992;;-4.5894043;;-4.5894503;;-4.5897344;;-4.5913805;;-4.5990943;;-4.6236009;;-4.6657727;;-4.7174822;;-4.7657995;;-5.022784;;-5.0396122;;-5.0864074;;-5.1741653;;-5.3137171;;-5.5256261;;-5.821869;;-6.2206083;;-6.7454826;;-7.4294699;;-8.3150094;;-9.4504731;;-10.878757;;-12.636976;;-14.761328;;-17.270392;;-20.14345;;-23.282177;;-26.428881;;-29.068475;;-31.553376;;-34.483706;;-37.429838;;-39.653456;;-40.832014;;-41.409556;;-42.003464;;-42.809779;;-43.576687;;-44.030642;;-44.244405;;-44.516954;;-44.979931;;-45.502814;;-45.927955;;-46.238037;;-46.49398;;-46.725878;;-46.919971;;-47.054684;;-47.124616;;-47.145692;;-47.148657;;-47.157738;;-47.169185;;-47.169184
-4.5893991;;-4.5893991;;-4.5893991;;-4.5893991;;-4.5893991;;-4.5893991;;-4.5893991;;-4.5893991;;-4.5893991;;-4.5893993;;-4.5894265;;-4.5896704;;-4.5908785;;-4.5959852;;-4.6174049;;-4.6625782;;-4.7233987;;-4.7922333;;-5.0858619;;-5.1230454;;-5.1415287;;-5.1840953;;-5.2636387;;-5.3709837;;-5.5169689;;-5.7634429;;-6.121042;;-6.6051974;;-7.2437988;;-8.075859;;-9.1477314;;-10.50711;;-12.190315;;-14.235715;;-16.670137;;-19.492029;;-22.642071;;-25.935503;;-28.960973;;-31.622849;;-34.561734;;-37.526706;;-39.859627;;-41.190147;;-41.851777;;-42.455519;;-43.278009;;-44.137476;;-44.748967;;-45.086417;;-45.339054;;-45.638963;;-45.960482;;-46.233066;;-46.449671;;-46.653163;;-46.866289;;-47.064546;;-47.206184;;-47.272727;;-47.279397;;-47.259846;;-47.241455;;-47.232975;;-47.232974
-4.5893991;;-4.5893991;;-4.5893991;;-4.5893991;;-4.5893991;;-4.5893991;;-4.5893991;;-4.5893991;;-4.5893991;;-4.5893999;;-4.5894907;;-4.5903133;;-4.5941303;;-4.6094014;;-4.6509109;;-4.7127287;;-4.7894093;;-5.1030362;;-5.1813762;;-5.2259097;;-5.2465641;;-5.2869464;;-5.358567;;-5.4487457;;-5.5493361;;-5.7175495;;-6.0276121;;-6.4701699;;-7.0643158;;-7.8446915;;-8.8551563;;-10.144661;;-11.754547;;-13.722603;;-16.084444;;-18.856782;;-22.015447;;-25.442881;;-28.842865;;-31.795392;;-34.652334;;-37.482515;;-39.834926;;-41.380527;;-42.291714;;-43.024476;;-43.840205;;-44.654219;;-45.267953;;-45.635604;;-45.863142;;-46.058733;;-46.256001;;-46.442997;;-46.620726;;-46.814142;;-47.030866;;-47.234224;;-47.372071;;-47.420287;;-47.391964;;-47.319285;;-47.237993;;-47.186106;;-47.186106
-4.5893991;;-4.5893991;;-4.5893991;;-4.5893991;;-4.5893991;;-4.5893991;;-4.5893991;;-4.5893991;;-4.5893992;;-4.589402;;-4.589627;;-4.5916686;;-4.6018499;;-4.6356051;;-4.6925734;;-4.7671718;;-5.085116;;-5.1809885;;-5.2663484;;-5.31532;;-5.3376389;;-5.3714566;;-5.4250466;;-5.487368;;-5.5557059;;-5.6586233;;-5.9113259;;-6.3031818;;-6.8417239;;-7.5550895;;-8.483041;;-9.672348;;-11.169649;;-13.011171;;-15.237784;;-17.881095;;-20.944253;;-24.360863;;-27.920303;;-31.180754;;-34.024468;;-36.741285;;-39.144956;;-40.986216;;-42.297746;;-43.318747;;-44.21594;;-44.978365;;-45.532031;;-45.87598;;-46.085317;;-46.246237;;-46.409167;;-46.586954;;-46.78372;;-47.007395;;-47.244321;;-47.444559;;-47.552698;;-47.546042;;-47.44301;;-47.28566;;-47.130115;;-47.036601;;-47.036601
-4.5893991;;-4.5893991;;-4.5893991;;-4.5893991;;-4.5893991;;-4.5893991;;-4.5893991;;-4.5893991;;-4.5894;;-4.5894203;;-4.5899346;;-4.5945889;;-4.6200395;;-4.6716466;;-4.7416987;;-4.8263894;;-5.1509746;;-5.2450007;;-5.3209222;;-5.3632681;;-5.3847937;;-5.4087351;;-5.4396993;;-5.4723261;;-5.5140303;;-5.5857901;;-5.7698879;;-6.1020391;;-6.5720142;;-7.2001224;;-8.0201596;;-9.0741163;;-10.409023;;-12.060787;;-14.069072;;-16.473869;;-19.296405;;-22.507142;;-25.969285;;-29.356521;;-32.287189;;-34.959255;;-37.426228;;-39.56378;;-41.353754;;-42.853701;;-44.076291;;-44.987688;;-45.591262;;-45.955838;;-46.180245;;-46.353601;;-46.529459;;-46.727507;;-46.953772;;-47.207374;;-47.45943;;-47.647359;;-47.709463;;-47.629109;;-47.445007;;-47.225338;;-47.042617;;-46.946868;;-46.946868
-4.5893991;;-4.5893991;;-4.5893991;;-4.5893991;;-4.5893991;;-4.5893991;;-4.5893991;;-4.5893992;;-4.5894065;;-4.5895221;;-4.5908833;;-4.6051587;;-4.6510683;;-4.7177979;;-4.8008126;;-5.1239835;;-5.2200265;;-5.2977957;;-5.3457513;;-5.3712429;;-5.3855251;;-5.3982507;;-5.4101504;;-5.4212331;;-5.4453442;;-5.5046317;;-5.6291865;;-5.8945;;-6.2880903;;-6.822495;;-7.5238747;;-8.4276667;;-9.5757256;;-11.003978;;-12.746586;;-14.845635;;-17.331689;;-20.199295;;-23.366267;;-26.613303;;-29.579174;;-32.237281;;-34.740797;;-37.120551;;-39.402233;;-41.533869;;-43.344021;;-44.674661;;-45.51881;;-46.004333;;-46.290064;;-46.49325;;-46.673539;;-46.854737;;-47.0566;;-47.295413;;-47.550217;;-47.745433;;-47.796001;;-47.683915;;-47.47689;;-47.272586;;-47.139706;;-47.088139;;-47.088139
-4.5893991;;-4.5893991;;-4.5893991;;-4.5893991;;-4.5893991;;-4.5893991;;-4.5893993;;-4.5894004;;-4.5894371;;-4.5898849;;-4.5948907;;-4.630271;;-4.6917325;;-4.7722958;;-4.8676312;;-5.2016183;;-5.2956742;;-5.3445847;;-5.3551667;;-5.3565246;;-5.3589431;;-5.3622683;;-5.3627583;;-5.3625411;;-5.3780022;;-5.430921;;-5.5254349;;-5.7083572;;-6.0216851;;-6.462339;;-7.0471662;;-7.8038707;;-8.7670236;;-9.9703976;;-11.4426;;-13.223905;;-15.348945;;-17.827314;;-20.614496;;-23.570021;;-26.436387;;-29.085082;;-31.644383;;-34.265143;;-37.026958;;-39.816086;;-42.311061;;-44.201335;;-45.409361;;-46.090935;;-46.464076;;-46.680527;;-46.811818;;-46.897514;;-46.994809;;-47.169852;;-47.432595;;-47.690988;;-47.814079;;-47.76093;;-47.615888;;-47.495263;;-47.450971;;-47.455353;;-47.455353
-4.5893991;;-4.5893991;;-4.5893991;;-4.5893991;;-4.5893992;;-4.5894009;;-4.5894154;;-4.5894768;;-4.5897288;;-4.5912741;;-4.6094442;;-4.662027;;-4.7365085;;-4.8294519;;-5.1663001;;-5.2784801;;-5.3687604;;-5.3863655;;-5.3622893;;-5.3397951;;-5.3307674;;-5.3297706;;-5.3283833;;-5.3266683;;-5.3385348;;-5.3830523;;-5.4626759;;-5.5754765;;-5.7989404;;-6.146927;;-6.6225286;;-7.2440978;;-8.0376374;;-9.0330845;;-10.256396;;-11.743111;;-13.530241;;-15.637951;;-18.050738;;-20.691052;;-23.413296;;-26.12597;;-28.907061;;-31.888404;;-35.122134;;-38.440784;;-41.473634;;-43.835128;;-45.378031;;-46.247154;;-46.686057;;-46.873194;;-46.903562;;-46.851249;;-46.822147;;-46.933419;;-47.22255;;-47.581237;;-47.831994;;-47.897765;;-47.855068;;-47.822497;;-47.841219;;-47.875788;;-47.875788
-4.5893991;;-4.5893991;;-4.5893991;;-4.5893995;;-4.5894026;;-4.5894297;;-4.5895967;;-4.5902287;;-4.5923282;;-4.5994426;;-4.6300711;;-4.6912023;;-4.773768;;-4.8747294;;-5.2195132;;-5.3342832;;-5.4156403;;-5.4130952;;-5.3730527;;-5.3385263;;-5.3247008;;-5.3259322;;-5.3312868;;-5.3361534;;-5.3472391;;-5.3788814;;-5.4394265;;-5.5256847;;-5.6490304;;-5.9026504;;-6.2805752;;-6.7877233;;-7.4407584;;-8.2629044;;-9.2821233;;-10.529314;;-12.044387;;-13.858604;;-15.982751;;-18.397731;;-21.063489;;-23.984526;;-27.20152;;-30.683485;;-34.325832;;-37.934801;;-41.200449;;-43.775464;;-45.489084;;-46.448349;;-46.889737;;-47.016732;;-46.963906;;-46.8421;;-46.773899;;-46.877466;;-47.188271;;-47.597381;;-47.922066;;-48.067984;;-48.092092;;-48.101257;;-48.136031;;-48.17253;;-48.17253
-4.5893991;;-4.5893991;;-4.5894007;;-4.5894179;;-4.5895082;;-4.5898563;;-4.5911234;;-4.597325;;-4.6180144;;-4.6386328;;-4.6619483;;-4.7139438;;-4.7927398;;-4.8912547;;-5.2329595;;-5.3403024;;-5.4099338;;-5.4136911;;-5.3847;;-5.3583361;;-5.3506163;;-5.3594249;;-5.3745737;;-5.3882519;;-5.4011284;;-5.4232023;;-5.4660246;;-5.5339757;;-5.6231026;;-5.7554226;;-6.0429962;;-6.4600949;;-7.0094296;;-7.7073784;;-8.5837896;;-9.6743795;;-11.023439;;-12.680753;;-14.694585;;-17.112467;;-19.974953;;-23.289621;;-26.981007;;-30.875735;;-34.731429;;-38.328424;;-41.487603;;-43.979094;;-45.648713;;-46.568762;;-46.96538;;-47.070014;;-47.051028;;-47.01842;;-47.047366;;-47.195937;;-47.475481;;-47.807361;;-48.062935;;-48.175986;;-48.194892;;-48.206541;;-48.242631;;-48.280091;;-48.280091
-4.5893992;;-4.5893992;;-4.5894142;;-4.589572;;-4.5903473;;-4.5929462;;-4.6041453;;-4.6363026;;-4.6752228;;-4.7042151;;-4.7238089;;-4.7575746;;-4.814536;;-5.1224533;;-5.215464;;-5.3028911;;-5.3662674;;-5.3951159;;-5.3982632;;-5.3949002;;-5.4003488;;-5.4178755;;-5.441604;;-5.4633248;;-5.4798676;;-5.4970546;;-5.5270321;;-5.5787449;;-5.649965;;-5.7356097;;-5.9691751;;-6.3538324;;-6.8774355;;-7.5559182;;-8.4248299;;-9.5366793;;-10.949772;;-12.718645;;-14.899933;;-17.538535;;-20.657605;;-24.235321;;-28.166975;;-32.213272;;-35.982743;;-39.244564;;-42.008717;;-44.171378;;-45.619536;;-46.43107;;-46.830806;;-47.044119;;-47.215968;;-47.397914;;-47.583418;;-47.763258;;-47.933873;;-48.067934;;-48.123007;;-48.100806;;-48.069987;;-48.095228;;-48.171272;;-48.23938;;-48.23938
-4.5893997;;-4.5893997;;-4.58947;;-4.5901954;;-4.5938047;;-4.6086975;;-4.6469855;;-4.699582;;-4.7537934;;-4.7902748;;-4.8069495;;-5.0545862;;-4.8661738;;-5.142295;;-5.1989542;;-5.263221;;-5.3282317;;-5.38329;;-5.4198805;;-5.4410288;;-5.4593711;;-5.4831967;;-5.5121491;;-5.5392601;;-5.558725;;-5.5732231;;-5.5941234;;-5.6312064;;-5.6825457;;-5.8151096;;-6.1321198;;-6.5856957;;-7.182925;;-7.9507924;;-8.9332869;;-10.189;;-11.776177;;-13.754315;;-16.178772;;-19.087405;;-22.487942;;-26.322821;;-30.41552;;-34.382411;;-37.681918;;-40.289582;;-42.427585;;-44.090038;;-45.248025;;-46.0121;;-46.564944;;-47.039944;;-47.481921;;-47.86504;;-48.139001;;-48.27634;;-48.280996;;-48.168966;;-47.97513;;-47.785583;;-47.715354;;-47.809594;;-47.993532;;-48.13428;;-48.13428
-4.5894028;;-4.5894028;;-4.5896232;;-4.5918976;;-4.6070625;;-4.649545;;-4.7100717;;-4.7814222;;-4.8511861;;-4.8942603;;-5.1311184;;-5.1410322;;-5.1572481;;-5.1772215;;-5.2082043;;-5.2592268;;-5.3270186;;-5.3968259;;-5.452271;;-5.4886284;;-5.5136277;;-5.5380285;;-5.5671059;;-5.5963923;;-5.6178939;;-5.6314591;;-5.6471914;;-5.6728087;;-5.7473316;;-6.0180521;;-6.42692;;-6.9755307;;-7.6859477;;-8.5956925;;-9.7574137;;-11.230354;;-13.074932;;-15.352524;;-18.112162;;-21.377391;;-25.123615;;-29.22625;;-33.372757;;-36.914172;;-39.395367;;-41.187809;;-42.603496;;-43.747923;;-44.706549;;-45.583495;;-46.427725;;-47.2034;;-47.841292;;-48.290751;;-48.529722;;-48.558109;;-48.388954;;-48.056476;;-47.648668;;-47.329137;;-47.264039;;-47.476381;;-47.806988;;-48.039898;;-48.039898
-4.5894211;;-4.5894211;;-4.590034;;-4.6001607;;-4.643219;;-4.7078302;;-4.7888544;;-4.8780644;;-4.9625566;;-5.2381403;;-5.2342949;;-5.217296;;-5.202285;;-5.2054983;;-5.2349409;;-5.2893706;;-5.3597724;;-5.4316704;;-5.4911308;;-5.5315563;;-5.5557829;;-5.5744332;;-5.5981847;;-5.627284;;-5.6570883;;-5.699254;;-5.7565183;;-5.8103834;;-5.9724009;;-6.3267988;;-6.8309351;;-7.4962368;;-8.3539706;;-9.4510016;;-10.845539;;-12.594571;;-14.762456;;-17.406009;;-20.562031;;-24.227842;;-28.313371;;-32.565219;;-36.419277;;-39.088348;;-40.702814;;-41.779399;;-42.630654;;-43.466844;;-44.432815;;-45.542649;;-46.656081;;-47.590441;;-48.244091;;-48.614825;;-48.74412;;-48.657407;;-48.359573;;-47.881804;;-47.345049;;-46.966948;;-46.941325;;-47.261602;;-47.703593;;-47.999836;;-47.999836
-4.5894985;;-4.5894985;;-4.5930522;;-4.6298447;;-4.6933444;;-4.7766876;;-4.8758513;;-4.9823108;;-5.311113;;-5.3552501;;-5.3207397;;-5.2582929;;-5.2128933;;-5.2151627;;-5.2624042;;-5.3321992;;-5.4066236;;-5.4745086;;-5.5296638;;-5.5677627;;-5.588762;;-5.6112676;;-5.6575029;;-5.7331905;;-5.8354652;;-5.9451732;;-6.0423767;;-6.1193568;;-6.3063228;;-6.732233;;-7.3415247;;-8.1473864;;-9.1875355;;-10.516678;;-12.191232;;-14.269539;;-16.812454;;-19.862277;;-23.426046;;-27.442834;;-31.709094;;-35.744463;;-38.687963;;-40.378829;;-41.387389;;-42.101026;;-42.784732;;-43.646913;;-44.774887;;-46.053884;;-47.22948;;-48.095066;;-48.60584;;-48.834742;;-48.86242;;-48.710614;;-48.362106;;-47.838637;;-47.27468;;-46.902186;;-46.9058;;-47.254643;;-47.708799;;-48.00669;;-48.00669
-4.5899279;;-4.5899279;;-4.6112628;;-4.6685142;;-4.7485841;;-4.8485408;;-4.9632478;;-5.3150471;;-5.4240791;;-5.4423983;;-5.3669252;;-5.2754598;;-5.2151481;;-5.2273745;;-5.2944726;;-5.3786934;;-5.4548275;;-5.5152188;;-5.5628332;;-5.6111072;;-5.7070903;;-5.8089136;;-5.8999113;;-6.0132271;;-6.1605947;;-6.3189403;;-6.4544247;;-6.5564107;;-6.7428886;;-7.2338867;;-7.9604007;;-8.9298213;;-10.183979;;-11.782929;;-13.776316;;-16.221742;;-19.167242;;-22.627465;;-26.554516;;-30.77595;;-34.863546;;-37.961901;;-39.736361;;-40.825518;;-41.664705;;-42.4682;;-43.367475;;-44.447525;;-45.684562;;-46.909995;;-47.9008;;-48.537309;;-48.856605;;-48.96826;;-48.946502;;-48.792305;;-48.47211;;-47.998061;;-47.490797;;-47.15244;;-47.135959;;-47.410367;;-47.77479;;-48.015529;;-48.01553
-4.5951466;;-4.5951466;;-4.6402939;;-4.7121157;;-4.8059513;;-4.9198349;;-5.0469935;;-5.4100476;;-5.5143042;;-5.4889153;;-5.3962546;;-5.3008486;;-5.2455436;;-5.2715316;;-5.3465731;;-5.4324157;;-5.5018705;;-5.554832;;-5.655169;;-5.8138969;;-5.9828634;;-6.1348169;;-6.2624618;;-6.4139676;;-6.6088659;;-6.8180942;;-6.9959654;;-7.1274429;;-7.3061054;;-7.8373964;;-8.6863316;;-9.8390342;;-11.335032;;-13.235577;;-15.57798;;-18.412495;;-21.763456;;-25.596696;;-29.764247;;-33.881776;;-37.117508;;-38.93999;;-40.039598;;-41.009295;;-42.081593;;-43.254377;;-44.469309;;-45.676206;;-46.803654;;-47.747371;;-48.417725;;-48.80468;;-48.980676;;-49.035046;;-49.011216;;-48.896547;;-48.656284;;-48.291204;;-47.884224;;-47.581013;;-47.500119;;-47.635662;;-47.856067;;-48.011272;;-48.011273
-4.6183778;;-4.6183778;;-4.6770691;;-4.7625243;;-4.8709034;;-4.9986242;;-5.3714062;;-5.5142247;;-5.6052554;;-5.5423799;;-5.4394125;;-5.3508171;;-5.3128418;;-5.3488325;;-5.4220827;;-5.496843;;-5.5636127;;-5.7045;;-5.9043579;;-6.1384486;;-6.3749527;;-6.5785703;;-6.7444122;;-6.9381423;;-7.1881471;;-7.4572252;;-7.6858206;;-7.8543276;;-8.0393016;;-8.5651047;;-9.5281241;;-10.87393;;-12.628727;;-14.848179;;-17.549668;;-20.7654;;-24.479898;;-28.576438;;-32.733633;;-36.219308;;-38.293392;;-39.460572;;-40.429178;;-41.613284;;-43.044363;;-44.525609;;-45.858904;;-46.941352;;-47.753256;;-48.31896;;-48.681998;;-48.893542;;-49.004241;;-49.052163;;-49.050694;;-48.988932;;-48.842563;;-48.601539;;-48.304055;;-48.036424;;-47.889663;;-47.887138;;-47.967488;;-48.039081;;-48.039081
-4.6495943;;-4.6495943;;-4.7164401;;-4.8130973;;-4.934971;;-5.0770271;;-5.4667977;;-5.6221219;;-5.7040071;;-5.6154713;;-5.5012184;;-5.4186743;;-5.4001601;;-5.4422304;;-5.5083566;;-5.5841267;;-5.7473005;;-5.9808784;;-6.2640799;;-6.5762572;;-6.8872149;;-7.1505621;;-7.3602501;;-7.6035592;;-7.9198955;;-8.261824;;-8.5530373;;-8.7694228;;-8.985332;;-9.4782943;;-10.508758;;-12.03066;;-14.036871;;-16.564905;;-19.602857;;-23.145439;;-27.112609;;-31.255702;;-34.996746;;-37.557489;;-39.129214;;-40.275953;;-41.462063;;-42.902204;;-44.494063;;-45.974896;;-47.134678;;-47.908157;;-48.354719;;-48.59523;;-48.744732;;-48.865644;;-48.966665;;-49.034893;;-49.06212;;-49.046871;;-48.97932;;-48.845725;;-48.649659;;-48.431369;;-48.256753;;-48.16563;;-48.1463;;-48.154135;;-48.154135
-4.6761451;;-4.6761451;;-4.7490349;;-4.8543367;;-4.9869598;;-5.1410668;;-5.5453187;;-5.7123796;;-5.7914906;;-5.687012;;-5.5627871;;-5.4835523;;-5.4812117;;-5.5284683;;-5.6044846;;-5.7809025;;-6.0389767;;-6.3617935;;-6.734108;;-7.1374129;;-7.5370072;;-7.8719971;;-8.13364;;-8.4343273;;-8.8264455;;-9.2534055;;-9.6204121;;-9.8991609;;-10.183673;;-10.679777;;-11.701855;;-13.323727;;-15.524448;;-18.302623;;-21.607018;;-25.360772;;-29.387706;;-33.262551;;-36.289062;;-38.434504;;-40.097517;;-41.575461;;-43.061559;;-44.581848;;-46.010273;;-47.183332;;-48.001494;;-48.46144;;-48.645445;;-48.688151;;-48.718307;;-48.796806;;-48.906905;;-49.00029;;-49.052817;;-49.069545;;-49.054891;;-48.998955;;-48.889581;;-48.737648;;-48.583634;;-48.464299;;-48.393836;;-48.362114;;-48.362114
-4.6969364;;-4.6969364;;-4.7740728;;-4.8854193;;-5.0254707;;-5.1877132;;-5.6011679;;-5.7744786;;-5.8447673;;-5.7325163;;-5.6059986;;-5.5335348;;-5.5432211;;-5.6136931;;-5.8010076;;-6.0770866;;-6.4297954;;-6.8500495;;-7.3274841;;-7.8416955;;-8.3470278;;-8.7637552;;-9.0833337;;-9.4478377;;-9.9279064;;-10.456361;;-10.916724;;-11.276638;;-11.651976;;-12.238569;;-13.266198;;-14.871486;;-17.111918;;-19.984538;;-23.398789;;-27.151879;;-30.95471;;-34.304361;;-36.963432;;-39.167013;;-41.145537;;-42.999903;;-44.686097;;-46.093713;;-47.163182;;-47.92173;;-48.42091;;-48.688403;;-48.759679;;-48.723117;;-48.695141;;-48.744396;;-48.854798;;-48.964246;;-49.035023;;-49.071003;;-49.085651;;-49.07823;;-49.035343;;-48.953856;;-48.850662;;-48.748061;;-48.666244;;-48.617278;;-48.617278
-4.7162434;;-4.7162434;;-4.7967293;;-4.9126899;;-5.0580707;;-5.2253278;;-5.6432551;;-5.8151462;;-5.8604444;;-5.7485316;;-5.6319932;;-5.575652;;-5.6171805;;-5.8060872;;-6.0932024;;-6.4666229;;-6.9244909;;-7.4585344;;-8.0598287;;-8.7041875;;-9.3331664;;-9.8460481;;-10.233129;;-10.669552;;-11.248313;;-11.892524;;-12.463605;;-12.926343;;-13.420687;;-14.164174;;-15.30471;;-16.927083;;-19.065217;;-21.759339;;-24.93295;;-28.297151;;-31.602633;;-34.653627;;-37.328545;;-39.67439;;-41.878132;;-43.982676;;-45.781684;;-47.053636;;-47.809747;;-48.254636;;-48.559279;;-48.753735;;-48.811393;;-48.765283;;-48.712941;;-48.733706;;-48.827596;;-48.937401;;-49.018046;;-49.06537;;-49.094242;;-49.112092;;-49.111448;;-49.086194;;-49.037307;;-48.971772;;-48.905285;;-48.85741;;-48.85741
-4.7344242;;-4.7344242;;-4.817744;;-4.9374856;;-5.0869387;;-5.257223;;-5.6764446;;-5.8422193;;-5.8585066;;-5.7539656;;-5.6578705;;-5.6360041;;-5.8024568;;-6.0887079;;-6.4726743;;-6.9541638;;-7.5288395;;-8.1943322;;-8.9431025;;-9.7431032;;-10.518309;;-11.1417;;-11.603394;;-12.113844;;-12.7935;;-13.559677;;-14.255325;;-14.845603;;-15.493102;;-16.432107;;-17.789839;;-19.54655;;-21.624941;;-23.944475;;-26.397618;;-29.053324;;-31.996392;;-34.967573;;-37.580769;;-39.78163;;-41.925774;;-44.154535;;-46.123822;;-47.441536;;-48.101715;;-48.411009;;-48.625259;;-48.790908;;-48.857139;;-48.824238;;-48.766649;;-48.762155;;-48.82744;;-48.922511;;-49.004099;;-49.05783;;-49.09393;;-49.12256;;-49.143059;;-49.151472;;-49.142114;;-49.112783;;-49.071659;;-49.036094;;-49.036094
-4.7524558;;-4.7524558;;-4.8386474;;-4.9622497;;-5.1159111;;-5.2894266;;-5.7102751;;-5.8698746;;-5.866444;;-5.7712586;;-5.696532;;-5.7970305;;-6.0681381;;-6.4497359;;-6.9386221;;-7.5385924;;-8.2477635;;-9.0703236;;-9.9935447;;-10.974301;;-11.914813;;-12.657343;;-13.192761;;-13.76686;;-14.531396;;-15.407564;;-16.233302;;-16.982928;;-17.831377;;-19.008789;;-20.614654;;-22.56363;;-24.620763;;-26.502503;;-28.256495;;-30.418983;;-33.132129;;-35.887754;;-38.054097;;-39.653008;;-41.422717;;-43.675115;;-45.913437;;-47.488251;;-48.25956;;-48.563028;;-48.728499;;-48.852961;;-48.907789;;-48.885553;;-48.833067;;-48.810796;;-48.84454;;-48.916495;;-48.991841;;-49.048576;;-49.088617;;-49.121726;;-49.150927;;-49.175463;;-49.188063;;-49.183621;;-49.164519;;-49.142245;;-49.142245
-4.7818823;;-4.7818823;;-4.8731331;;-5.0037214;;-5.1654363;;-5.5821576;;-5.773979;;-5.9278153;;-5.9034015;;-5.8073388;;-5.7950726;;-6.033823;;-6.4006759;;-6.8828198;;-7.4881175;;-8.2217526;;-9.089062;;-10.092473;;-11.21354;;-12.394661;;-13.509905;;-14.366589;;-14.959479;;-15.562163;;-16.358188;;-17.295013;;-18.243743;;-19.204016;;-20.330064;;-21.801794;;-23.672026;;-25.783417;;-27.764349;;-29.292024;;-30.662849;;-32.614755;;-35.199412;;-37.64682;;-39.16112;;-39.948679;;-41.148165;;-43.257371;;-45.663856;;-47.478504;;-48.397679;;-48.72922;;-48.852734;;-48.922716;;-48.949711;;-48.929731;;-48.885529;;-48.855159;;-48.865635;;-48.916611;;-48.982805;;-49.038952;;-49.081018;;-49.116305;;-49.149556;;-49.181129;;-49.204421;;-49.213593;;-49.208308;;-49.194266;;-49.194266
-4.8311979;;-4.8311979;;-4.9310579;;-5.0735863;;-5.4831785;;-5.6814437;;-5.8822644;;-6.0231057;;-5.9637794;;-5.8572722;;-5.9979916;;-6.3286817;;-6.7886927;;-7.3799662;;-8.1163716;;-9.0012031;;-10.045329;;-11.247623;;-12.580029;;-13.965561;;-15.23976;;-16.178585;;-16.785636;;-17.34139;;-18.052604;;-18.94687;;-20.014273;;-21.282441;;-22.803832;;-24.641907;;-26.783935;;-28.998174;;-30.850555;;-32.095323;;-33.254454;;-35.143842;;-37.702471;;-39.966422;;-41.051838;;-41.272549;;-41.928574;;-43.650916;;-45.863332;;-47.621838;;-48.538846;;-48.857003;;-48.941715;;-48.967886;;-48.969671;;-48.947753;;-48.911664;;-48.883395;;-48.885452;;-48.924085;;-48.98083;;-49.032497;;-49.073781;;-49.109758;;-49.14536;;-49.18068;;-49.209711;;-49.226305;;-49.228298;;-49.219078;;-49.219078
-4.8936744;;-4.8936744;;-5.0042147;;-5.1614287;;-5.5891763;;-5.8038747;;-6.0107964;;-6.1152221;;-6.0179787;;-5.963834;;-6.2379576;;-6.6623507;;-7.2225438;;-7.9335759;;-8.8086637;;-9.8555823;;-11.084718;;-12.488294;;-14.022882;;-15.579979;;-16.94836;;-17.891271;;-18.435604;;-18.852246;;-19.406093;;-20.263395;;-21.506007;;-23.135697;;-25.100472;;-27.347363;;-29.773221;;-32.084704;;-33.833328;;-34.862749;;-35.846101;;-37.654349;;-40.188457;;-42.412226;;-43.42188;;-43.485755;;-43.783753;;-44.958078;;-46.606676;;-47.962623;;-48.681945;;-48.927741;;-48.980004;;-48.983477;;-48.971893;;-48.948106;;-48.919231;;-48.90014;;-48.905693;;-48.939538;;-48.986608;;-49.03052;;-49.068165;;-49.103364;;-49.140242;;-49.177837;;-49.21054;;-49.232069;;-49.239779;;-49.234561;;-49.234561
-4.9538834;;-4.9538834;;-5.0741775;;-5.2444726;;-5.6869325;;-5.9128415;;-6.1161731;;-6.154664;;-6.0362202;;-6.1496192;;-6.509333;;-7.0212799;;-7.6844263;;-8.5190894;;-9.5324931;;-10.737812;;-12.138833;;-13.715063;;-15.395846;;-17.025516;;-18.35669;;-19.22368;;-19.698028;;-20.031288;;-20.529811;;-21.427201;;-22.826876;;-24.718871;;-27.037075;;-29.682277;;-32.458475;;-35.001316;;-36.842751;;-37.865086;;-38.749665;;-40.347956;;-42.630134;;-44.678951;;-45.69363;;-45.836237;;-45.9687;;-46.613392;;-47.573875;;-48.38218;;-48.815862;;-48.963478;;-48.991088;;-48.986808;;-48.971304;;-48.947408;;-48.923509;;-48.912227;;-48.922748;;-48.953656;;-48.992227;;-49.028951;;-49.062908;;-49.09692;;-49.134437;;-49.173709;;-49.20909;;-49.234999;;-49.248268;;-49.248153;;-49.248153
-4.993996;;-4.993996;;-5.1200706;;-5.297713;;-5.7464239;;-5.9732381;;-6.1611493;;-6.1356741;;-6.0553463;;-6.3391052;;-6.7902017;;-7.3903537;;-8.155821;;-9.1056988;;-10.245343;;-11.586238;;-13.120009;;-14.801847;;-16.519065;;-18.074368;;-19.29876;;-20.136561;;-20.642191;;-21.031514;;-21.597484;;-22.535217;;-23.910425;;-25.782568;;-28.234052;;-31.228835;;-34.501348;;-37.546438;;-39.807489;;-41.110728;;-42.022918;;-43.294984;;-45.009936;;-46.558644;;-47.392777;;-47.594159;;-47.666316;;-47.940695;;-48.362895;;-48.724192;;-48.920037;;-48.986991;;-48.99852;;-48.993561;;-48.979253;;-48.956682;;-48.933808;;-48.922185;;-48.929873;;-48.954881;;-48.987947;;-49.022552;;-49.056726;;-49.091347;;-49.129518;;-49.169289;;-49.2062;;-49.235741;;-49.254951;;-49.261042;;-49.261042
-4.9999048;;-4.9999048;;-5.1257124;;-5.3023593;;-5.7473971;;-5.9658274;;-6.1316147;;-6.0764718;;-6.1827631;;-6.5537154;;-7.0848585;;-7.7722969;;-8.637748;;-9.6914027;;-10.94353;;-12.394165;;-14.01397;;-15.71885;;-17.339574;;-18.734468;;-19.902852;;-20.804188;;-21.450719;;-22.028053;;-22.761121;;-23.702488;;-24.813878;;-26.303408;;-28.638188;;-31.901319;;-35.748906;;-39.483862;;-42.373134;;-44.086948;;-45.072433;;-45.972065;;-46.990114;;-47.877933;;-48.379375;;-48.536559;;-48.580476;;-48.669128;;-48.803752;;-48.920256;;-48.984435;;-49.007242;;-49.011339;;-49.008207;;-48.997768;;-48.978456;;-48.954407;;-48.935231;;-48.931492;;-48.946376;;-48.975764;;-49.013432;;-49.052384;;-49.090012;;-49.128073;;-49.1663;;-49.202138;;-49.233419;;-49.257399;;-49.269435;;-49.269435
-4.9726681;;-4.9726681;;-5.092392;;-5.2601209;;-5.6926474;;-5.8962256;;-6.0418072;;-6.0364771;;-6.3323371;;-6.7925194;;-7.4040695;;-8.1804897;;-9.1437247;;-10.299724;;-11.658034;;-13.201266;;-14.868217;;-16.512889;;-17.92516;;-19.183448;;-20.387119;;-21.457329;;-22.365355;;-23.252007;;-24.23742;;-25.210456;;-26.024205;;-27.019313;;-29.116915;;-32.514915;;-36.733577;;-40.952753;;-44.28402;;-46.238652;;-47.206411;;-47.771557;;-48.235041;;-48.605293;;-48.81889;;-48.897022;;-48.920369;;-48.944271;;-48.976226;;-49.003907;;-49.020343;;-49.027498;;-49.030112;;-49.029675;;-49.02403;;-49.009915;;-48.987182;;-48.962106;;-48.946433;;-48.949399;;-48.973339;;-49.012827;;-49.056261;;-49.095885;;-49.131141;;-49.163547;;-49.193772;;-49.222334;;-49.247787;;-49.264141;;-49.264141
-4.9244741;;-4.9244741;;-5.0343737;;-5.1880816;;-5.6023738;;-5.7877962;;-5.9239518;;-6.1238568;;-6.5133083;;-7.0512071;;-7.743523;;-8.6117824;;-9.6695018;;-10.928656;;-12.38701;;-14.007385;;-15.682294;;-17.175886;;-18.362607;;-19.580929;;-20.942118;;-22.327709;;-23.650458;;-24.958446;;-26.259924;;-27.367641;;-28.13038;;-28.950787;;-30.80882;;-34.069665;;-38.24769;;-42.427977;;-45.654473;;-47.470004;;-48.273234;;-48.605534;;-48.781114;;-48.89875;;-48.967622;;-48.997511;;-49.009945;;-49.019681;;-49.029796;;-49.038728;;-49.045504;;-49.050332;;-49.053689;;-49.055663;;-49.054262;;-49.046537;;-49.029858;;-49.006797;;-48.986792;;-48.981037;;-48.996778;;-49.030948;;-49.070899;;-49.105651;;-49.131999;;-49.151407;;-49.166865;;-49.183746;;-49.20343;;-49.21981;;-49.21981
-4.8665213;;-4.8665213;;-4.9652223;;-5.1032307;;-5.4983624;;-5.6723126;;-5.8851591;;-6.2298964;;-6.7014764;;-7.3118238;;-8.0818478;;-9.0326069;;-10.179093;;-11.532346;;-13.077574;;-14.750517;;-16.384997;;-17.647922;;-18.685535;;-20.000779;;-21.682756;;-23.572847;;-25.465836;;-27.260882;;-28.892733;;-30.214887;;-31.15317;;-32.098842;;-33.852454;;-36.788836;;-40.50471;;-44.083105;;-46.686788;;-48.080463;;-48.650919;;-48.848239;;-48.927448;;-48.975013;;-49.004802;;-49.020895;;-49.031449;;-49.042094;;-49.05308;;-49.062721;;-49.070107;;-49.075305;;-49.078932;;-49.081492;;-49.082887;;-49.081161;;-49.072952;;-49.057556;;-49.040546;;-49.03106;;-49.036972;;-49.057544;;-49.08223;;-49.100178;;-49.105759;;-49.099144;;-49.084754;;-49.073285;;-49.072142;;-49.079357;;-49.079357
-4.8074575;;-4.8074575;;-4.8957839;;-5.020613;;-5.4098117;;-5.6304539;;-5.9407425;;-6.350045;;-6.8796109;;-7.55095;;-8.3878651;;-9.4078765;;-10.631812;;-12.064661;;-13.679211;;-15.379232;;-16.928928;;-17.951538;;-18.96277;;-20.55099;;-22.725501;;-25.257143;;-27.792833;;-30.073589;;-31.992767;;-33.523482;;-34.717495;;-35.897218;;-37.61049;;-40.101185;;-43.007799;;-45.622889;;-47.417806;;-48.346197;;-48.719041;;-48.8551;;-48.922901;;-48.970056;;-48.999746;;-49.016656;;-49.031369;;-49.049419;;-49.068479;;-49.084127;;-49.094344;;-49.098891;;-49.098681;;-49.096694;;-49.097036;;-49.099837;;-49.099011;;-49.089568;;-49.074125;;-49.059824;;-49.0521;;-49.049369;;-49.043785;;-49.025609;;-48.988891;;-48.934001;;-48.868907;;-48.808431;;-48.767135;;-48.752175;;-48.752175
-4.758255;;-4.758255;;-4.8452132;;-4.9809904;;-5.4038455;;-5.671698;;-6.0225535;;-6.4726555;;-7.0486094;;-7.7736034;;-8.6673341;;-9.7518352;;-11.047012;;-12.553847;;-14.234057;;-15.96148;;-17.427424;;-18.311026;;-19.478936;;-21.49738;;-24.215052;;-27.361228;;-30.480143;;-33.154482;;-35.234899;;-36.86388;;-38.223189;;-39.55072;;-41.134443;;-43.054637;;-45.042679;;-46.702243;;-47.797246;;-48.371555;;-48.632842;;-48.76404;;-48.850897;;-48.91073;;-48.945593;;-48.968435;;-48.994801;;-49.028623;;-49.063189;;-49.090661;;-49.106409;;-49.10777;;-49.094869;;-49.076486;;-49.067709;;-49.073306;;-49.078605;;-49.067713;;-49.041027;;-49.007547;;-48.970344;;-48.925121;;-48.863873;;-48.778224;;-48.664664;;-48.53163;;-48.394986;;-48.272749;;-48.181882;;-48.138017;;-48.138017
