-16.983567;;-16.983567;;-17.031085;;-18.599011;;-21.62485;;-25.85305;;-31.366257;;-38.359702;;-47.002076;;-57.621302;;-70.069094;;-84.600132;;-101.31566;;-121.06431;;-146.21101;;-178.35878;;-218.50619;;-267.25428;;-323.85254;;-387.31122;;-455.43969;;-524.66313;;-591.92236;;-657.5873;;-723.5062;;-789.89299;;-855.94557;;-921.32397;;-985.77755;;-1048.4113;;-1108.5414;;-1166.3675;;-1221.9014;;-1274.2881;;-1323.0896;;-1369.1995;;-1413.2862;;-1453.8408;;-1487.8732;;-1513.5346;;-1531.714;;-1545.4575;;-1558.2427;;-1572.4363;;-1588.7722;;-1606.9078;;-1626.1399;;-1645.4824;;-1663.4434;;-1678.2801;;-1688.9754;;-1696.1503;;-1701.5567;;-1706.5137;;-1711.5324;;-1717.2454;;-1724.2983;;-1732.0968;;-1738.5367;;-1740.5712;;-1734.2857;;-1716.8136;;-1691.9798;;-1672.9052;;-1672.9052
-16.98366;;-16.98366;;-17.028404;;-18.520289;;-21.479062;;-25.623799;;-31.029468;;-37.887501;;-46.379547;;-56.849154;;-69.202472;;-83.84182;;-101.24476;;-122.7307;;-149.80559;;-183.72353;;-225.48812;;-275.21694;;-332.2285;;-395.24516;;-461.55956;;-527.53853;;-591.36429;;-654.67653;;-719.63333;;-786.37989;;-853.47937;;-919.496;;-983.76594;;-1046.19;;-1106.7174;;-1164.7538;;-1219.0239;;-1268.5466;;-1313.7909;;-1356.3866;;-1397.4502;;-1436.1844;;-1470.1721;;-1497.3018;;-1517.7216;;-1534.0192;;-1549.5591;;-1566.6621;;-1585.9262;;-1606.5116;;-1626.815;;-1645.3095;;-1661.1486;;-1674.1821;;-1684.7888;;-1693.7808;;-1701.8204;;-1708.7666;;-1714.362;;-1719.4329;;-1725.2492;;-1731.7022;;-1736.8477;;-1737.5382;;-1729.7713;;-1710.9134;;-1685.1956;;-1665.8027;;-1665.8027
-16.984156;;-16.984156;;-17.057599;;-18.635561;;-21.58887;;-25.687014;;-31.004989;;-37.724287;;-46.169716;;-56.202618;;-68.223494;;-82.518949;;-99.716125;;-121.10256;;-147.97904;;-181.4751;;-222.50597;;-270.98899;;-326.32341;;-387.237;;-451.27367;;-515.59844;;-579.40067;;-644.41828;;-712.45;;-783.29611;;-854.65565;;-923.59319;;-988.44903;;-1049.6322;;-1108.2847;;-1164.2346;;-1215.8717;;-1262.1112;;-1303.8468;;-1343.1715;;-1381.6016;;-1418.9337;;-1453.1682;;-1481.8374;;-1504.2625;;-1522.5465;;-1540.0822;;-1559.3178;;-1580.7342;;-1603.0096;;-1623.9378;;-1641.8838;;-1656.7399;;-1669.5717;;-1681.6054;;-1693.4228;;-1704.4958;;-1713.4816;;-1719.6435;;-1723.9165;;-1727.9199;;-1732.0623;;-1734.9711;;-1734.0433;;-1726.1717;;-1709.8677;;-1689.0862;;-1673.9517;;-1673.9517
-16.98619;;-16.98619;;-17.198895;;-19.068725;;-22.097669;;-26.17187;;-31.368397;;-37.831521;;-45.809258;;-55.153442;;-66.157645;;-78.96008;;-94.074664;;-113.12003;;-137.7439;;-168.98792;;-207.65536;;-253.81722;;-306.87176;;-365.89293;;-429.02753;;-494.15547;;-560.71088;;-630.02706;;-703.38592;;-780.07057;;-856.78363;;-928.97409;;-993.73649;;-1051.9149;;-1106.5059;;-1158.9607;;-1208.0387;;-1252.2303;;-1292.0801;;-1329.7455;;-1367.0075;;-1403.8586;;-1438.286;;-1467.5611;;-1490.6521;;-1509.465;;-1527.4484;;-1547.2353;;-1569.3492;;-1592.2804;;-1613.7861;;-1632.6575;;-1649.2982;;-1664.8301;;-1680.0581;;-1694.903;;-1708.1951;;-1718.2964;;-1724.5259;;-1727.9184;;-1730.2396;;-1732.3109;;-1733.3434;;-1731.4863;;-1724.9678;;-1713.699;;-1700.7719;;-1691.9176;;-1691.9176
-16.997709;;-16.997709;;-17.783721;;-20.09546;;-23.395676;;-27.631356;;-32.836505;;-38.974865;;-46.281395;;-54.512461;;-63.898396;;-74.332903;;-85.921171;;-101.17448;;-122.59828;;-150.72232;;-186.14625;;-229.35023;;-279.90681;;-337.46159;;-400.87363;;-468.35453;;-538.84616;;-613.15249;;-692.19641;;-774.59428;;-855.89147;;-930.05626;;-993.25185;;-1047.1302;;-1096.978;;-1146.3163;;-1194.4378;;-1238.9623;;-1279.3181;;-1317.2126;;-1354.5137;;-1391.2257;;-1425.1579;;-1453.558;;-1475.5896;;-1493.2715;;-1510.0473;;-1528.7033;;-1550.059;;-1572.8631;;-1595.2571;;-1616.5873;;-1637.3597;;-1657.8388;;-1677.4823;;-1695.2671;;-1709.9028;;-1720.229;;-1726.0937;;-1728.8158;;-1730.3719;;-1731.8309;;-1732.5946;;-1731.2259;;-1726.9644;;-1720.6148;;-1714.3111;;-1710.4277;;-1710.4277
-17.16999;;-17.16999;;-18.904886;;-21.734866;;-25.479031;;-30.117553;;-35.519213;;-41.723995;;-48.162258;;-54.747927;;-61.99997;;-69.859577;;-77.77698;;-88.905192;;-107.29991;;-132.43021;;-164.65331;;-204.69676;;-252.55281;;-308.32761;;-371.65377;;-441.3372;;-515.94035;;-595.28138;;-679.53057;;-766.3717;;-850.20253;;-924.00556;;-983.93836;;-1033.0474;;-1078.7807;;-1126.4688;;-1175.8067;;-1223.2538;;-1266.4652;;-1305.9866;;-1343.531;;-1379.4066;;-1411.7239;;-1438.102;;-1458.0967;;-1473.7986;;-1488.487;;-1505.0876;;-1524.9998;;-1547.5837;;-1571.3115;;-1595.5814;;-1620.6364;;-1646.0014;;-1670.0235;;-1690.7704;;-1706.801;;-1717.4777;;-1723.2903;;-1726.0328;;-1728.0259;;-1730.4451;;-1732.5576;;-1732.9627;;-1731.2711;;-1728.4224;;-1725.8121;;-1724.3717;;-1724.3717
-18.135802;;-18.135802;;-20.44244;;-23.814472;;-28.114157;;-33.249817;;-39.04533;;-45.335055;;-50.987353;;-55.258008;;-60.179518;;-65.911792;;-71.162358;;-78.501081;;-94.428255;;-117.04957;;-146.52436;;-183.62611;;-228.80602;;-282.44393;;-344.86442;;-415.68699;;-493.82658;;-577.96804;;-666.52645;;-755.8883;;-839.58142;;-910.45091;;-965.72581;;-1010.1371;;-1052.7563;;-1100.159;;-1152.2941;;-1204.4146;;-1252.0255;;-1293.9082;;-1331.3524;;-1365.3899;;-1395.2388;;-1419.4404;;-1437.8773;;-1452.2487;;-1465.298;;-1480.063;;-1498.75;;-1521.4574;;-1546.627;;-1573.0478;;-1600.6009;;-1628.9213;;-1656.2784;;-1680.1374;;-1698.4682;;-1710.5713;;-1717.3054;;-1720.9318;;-1724.0898;;-1728.0247;;-1731.9831;;-1734.6136;;-1735.4409;;-1734.951;;-1733.9979;;-1733.3311;;-1733.3311
-19.587041;;-19.587041;;-22.240872;;-26.078556;;-30.919588;;-36.576745;;-42.822731;;-49.224363;;-53.747088;;-55.607252;;-58.643741;;-63.020933;;-66.847885;;-70.851637;;-84.787956;;-105.39154;;-132.64373;;-167.32807;;-210.26328;;-261.96959;;-323.26962;;-394.3876;;-474.68206;;-562.2604;;-653.64489;;-743.41678;;-824.45334;;-890.54042;;-940.75174;;-981.21;;-1021.8443;;-1069.8339;;-1125.1493;;-1181.9611;;-1233.8396;;-1277.9144;;-1315.0247;;-1347.0121;;-1374.5814;;-1397.5549;;-1416.0111;;-1430.7338;;-1443.5315;;-1457.4653;;-1475.5264;;-1498.4159;;-1524.3496;;-1551.4153;;-1579.3781;;-1608.6561;;-1638.1979;;-1665.1828;;-1686.7066;;-1701.4463;;-1710.1754;;-1715.3191;;-1719.6328;;-1724.5374;;-1729.7081;;-1734.1732;;-1737.2465;;-1738.674;;-1738.7688;;-1738.4158;;-1738.4158
-20.970971;;-20.970971;;-23.898503;;-28.116744;;-33.406509;;-39.503357;;-46.107361;;-52.522495;;-55.613941;;-55.764221;;-57.603686;;-61.299781;;-64.705681;;-66.394378;;-78.554642;;-97.570514;;-123.18318;;-156.11445;;-197.43926;;-247.72477;;-307.99369;;-378.77531;;-459.66543;;-548.62916;;-641.09092;;-729.69335;;-806.72472;;-867.88065;;-914.26126;;-952.64891;;-992.86508;;-1041.8974;;-1099.4387;;-1158.9412;;-1212.9788;;-1257.975;;-1294.6612;;-1325.4087;;-1352.0037;;-1375.2796;;-1395.2946;;-1411.7824;;-1425.6066;;-1439.7269;;-1457.5412;;-1480.0795;;-1505.581;;-1531.9997;;-1559.2776;;-1588.5202;;-1619.3231;;-1648.8564;;-1673.6412;;-1691.6765;;-1703.1971;;-1710.2372;;-1715.3897;;-1720.3988;;-1725.7675;;-1731.2601;;-1736.1415;;-1739.3964;;-1740.6493;;-1740.7321;;-1740.7321
-22.081776;;-22.081776;;-25.202623;;-29.686053;;-35.278739;;-41.64857;;-48.416789;;-54.660803;;-56.507301;;-55.902059;;-57.11552;;-60.450989;;-63.933543;;-65.007274;;-75.06281;;-92.75778;;-117.17377;;-148.86169;;-188.91282;;-238.0471;;-297.23621;;-367.16738;;-447.57063;;-536.44428;;-628.81071;;-715.98939;;-789.87206;;-848.2748;;-893.82759;;-933.05388;;-974.58065;;-1024.4351;;-1082.0109;;-1140.857;;-1193.8886;;-1237.9643;;-1274.0864;;-1304.7185;;-1331.8677;;-1356.5977;;-1378.7198;;-1397.3163;;-1412.7188;;-1427.5948;;-1445.1877;;-1466.7203;;-1491.0189;;-1516.5166;;-1543.1996;;-1572.1223;;-1603.1246;;-1633.8141;;-1660.9302;;-1682.1247;;-1696.7532;;-1705.9294;;-1711.8242;;-1716.475;;-1721.2665;;-1726.9292;;-1733.0317;;-1737.9571;;-1740.4953;;-1741.1625;;-1741.1625
-23.023612;;-23.023612;;-26.27913;;-30.940259;;-36.718653;;-43.212381;;-50.109917;;-55.756818;;-56.987861;;-56.493123;;-57.486728;;-60.479459;;-64.034949;;-65.65527;;-72.964334;;-89.413113;;-112.74994;;-143.29353;;-182.08392;;-229.98933;;-287.85992;;-356.49173;;-435.74445;;-523.78855;;-615.77467;;-702.73794;;-776.42979;;-835.92247;;-884.4469;;-927.41913;;-971.39215;;-1021.0116;;-1075.8898;;-1130.8717;;-1180.37;;-1222.2477;;-1257.7234;;-1288.8983;;-1317.279;;-1343.5336;;-1367.2785;;-1387.6048;;-1404.716;;-1420.6799;;-1438.1473;;-1458.6161;;-1481.9234;;-1507.1008;;-1533.6925;;-1562.0327;;-1592.0667;;-1622.3807;;-1650.578;;-1674.1875;;-1691.5759;;-1702.8342;;-1709.621;;-1713.9771;;-1717.8352;;-1722.9133;;-1729.4497;;-1735.5399;;-1739.1747;;-1740.4054;;-1740.4054
-24.014974;;-24.014974;;-27.379907;;-32.175624;;-38.070319;;-44.581734;;-51.285704;;-56.25958;;-57.70529;;-58.00169;;-59.139762;;-61.721836;;-64.97019;;-67.031954;;-71.356495;;-86.493423;;-108.63497;;-137.88721;;-175.22862;;-221.68753;;-277.94896;;-344.90603;;-422.58961;;-509.48217;;-601.2711;;-689.63597;;-766.31712;;-830.28047;;-884.42073;;-932.60423;;-979.04321;;-1027.1716;;-1077.4918;;-1127.1007;;-1172.4144;;-1212.1012;;-1247.1207;;-1278.846;;-1308.0508;;-1335.0199;;-1359.6006;;-1381.4048;;-1400.5577;;-1418.1967;;-1436.1965;;-1456.3553;;-1479.3944;;-1504.6226;;-1530.9531;;-1558.1291;;-1586.5216;;-1615.9141;;-1644.6804;;-1669.9996;;-1689.3217;;-1702.1215;;-1709.7835;;-1714.0861;;-1717.0025;;-1720.9503;;-1726.9719;;-1733.2991;;-1737.4713;;-1739.0757;;-1739.0757
-25.172441;;-25.172441;;-28.636747;;-33.53798;;-39.471943;;-46.034625;;-52.198186;;-56.610127;;-58.906317;;-60.360148;;-61.932684;;-64.132672;;-66.730829;;-68.714432;;-70.673413;;-84.075559;;-104.80399;;-132.66843;;-168.49321;;-213.43384;;-268.04311;;-333.26212;;-409.32422;;-495.08275;;-586.91492;;-677.5139;;-758.61044;;-828.00349;;-887.68777;;-940.26086;;-988.22099;;-1034.1498;;-1079.7219;;-1124.4507;;-1166.5811;;-1205.0811;;-1240.1657;;-1272.2869;;-1301.633;;-1328.5362;;-1353.566;;-1377.0653;;-1398.9452;;-1419.2404;;-1438.9577;;-1459.8934;;-1483.0757;;-1507.7975;;-1532.792;;-1558.0336;;-1584.7615;;-1613.7178;;-1643.4356;;-1670.2739;;-1690.7832;;-1704.2552;;-1712.2674;;-1716.5057;;-1718.7167;;-1721.46;;-1726.2738;;-1731.8383;;-1735.7893;;-1737.4448;;-1737.4448
-26.543047;;-26.543047;;-30.102713;;-35.088871;;-41.102238;;-47.213533;;-52.771165;;-57.057001;;-60.337842;;-62.900439;;-65.011772;;-67.016255;;-69.081527;;-70.945327;;-72.147192;;-82.587377;;-101.78881;;-128.40601;;-162.94235;;-206.52038;;-259.78128;;-323.58327;;-398.3635;;-483.30807;;-575.39829;;-668.19248;;-753.22067;;-826.53984;;-889.24323;;-943.61649;;-991.53032;;-1035.1102;;-1076.8162;;-1117.9884;;-1158.3028;;-1196.8573;;-1232.9757;;-1266.0614;;-1295.7525;;-1322.6221;;-1348.1501;;-1373.5381;;-1398.6386;;-1422.5014;;-1445.0643;;-1467.5374;;-1490.7607;;-1514.1517;;-1536.9658;;-1559.9914;;-1585.2866;;-1614.0978;;-1644.7944;;-1672.869;;-1693.9619;;-1707.1585;;-1714.5313;;-1718.3108;;-1720.2743;;-1722.5223;;-1726.2902;;-1730.6052;;-1733.694;;-1735.0229;;-1735.0229
-28.204891;;-28.204891;;-31.715658;;-36.678948;;-42.499944;;-48.139174;;-53.108262;;-57.545567;;-61.533666;;-64.845985;;-67.399712;;-69.458713;;-71.529277;;-73.807304;;-75.504007;;-82.006367;;-99.766267;;-125.31083;;-158.80363;;-201.28427;;-253.57097;;-316.35973;;-390.26776;;-474.74327;;-567.20773;;-661.752;;-749.32613;;-823.92003;;-886.21764;;-939.36212;;-985.69053;;-1027.1335;;-1066.1776;;-1105.0418;;-1144.5861;;-1184.3493;;-1222.9743;;-1258.6444;;-1290.0976;;-1317.8066;;-1343.9573;;-1370.7945;;-1398.7111;;-1426.2449;;-1452.0741;;-1476.2683;;-1499.3654;;-1521.399;;-1542.5748;;-1564.2584;;-1588.5766;;-1616.7349;;-1647.1372;;-1675.0796;;-1695.6054;;-1707.3398;;-1712.8428;;-1715.6071;;-1717.9969;;-1721.1438;;-1724.9252;;-1728.2345;;-1730.198;;-1730.9344;;-1730.9344
-31.502501;;-31.502501;;-34.485011;;-39.18761;;-44.343496;;-49.220831;;-53.719604;;-58.174132;;-62.372741;;-65.929485;;-68.654769;;-70.859302;;-73.370618;;-76.539246;;-79.065472;;-82.063866;;-98.339993;;-122.80207;;-155.30878;;-196.78516;;-248.20464;;-310.08599;;-383.18518;;-467.15229;;-559.71254;;-655.22231;;-743.77986;;-817.16886;;-876.44224;;-926.50184;;-970.67063;;-1010.7515;;-1048.673;;-1086.7092;;-1126.596;;-1168.6084;;-1211.0452;;-1250.8585;;-1285.5753;;-1315.1098;;-1341.949;;-1369.3742;;-1398.853;;-1429.0468;;-1457.5588;;-1483.202;;-1506.3309;;-1527.9236;;-1549.1139;;-1571.2185;;-1595.5405;;-1622.6434;;-1651.0727;;-1676.686;;-1694.6698;;-1703.3843;;-1705.8848;;-1707.2595;;-1710.738;;-1716.0917;;-1721.0617;;-1723.996;;-1725.0452;;-1725.2373;;-1725.2373
-36.450793;;-36.450793;;-39.010643;;-43.153354;;-47.515768;;-51.661832;;-55.735091;;-59.743944;;-63.445542;;-66.560039;;-68.953446;;-71.042898;;-73.898226;;-77.805497;;-80.881977;;-81.898654;;-96.548;;-119.86252;;-151.29203;;-191.59592;;-241.83286;;-302.42331;;-374.20278;;-456.98415;;-548.73824;;-644.05236;;-732.43865;;-803.69276;;-859.62361;;-907.06318;;-950.18663;;-990.56903;;-1029.3437;;-1068.3512;;-1109.7397;;-1154.4098;;-1200.5971;;-1244.4408;;-1282.5269;;-1314.1697;;-1341.8174;;-1369.3574;;-1399.1864;;-1430.4433;;-1460.3155;;-1486.8976;;-1510.518;;-1532.8919;;-1555.696;;-1579.812;;-1605.3431;;-1631.7704;;-1657.4675;;-1679.1013;;-1692.8298;;-1697.5111;;-1696.8005;;-1696.9844;;-1701.7823;;-1709.5308;;-1715.9606;;-1718.9697;;-1719.6385;;-1719.6571;;-1719.6571
-42.619049;;-42.619049;;-44.902637;;-48.565852;;-52.487937;;-56.583534;;-60.414896;;-63.425212;;-65.68959;;-67.43549;;-68.769981;;-70.219054;;-72.863159;;-76.775663;;-79.777426;;-80.116995;;-93.470372;;-115.60472;;-145.68102;;-184.3463;;-232.69513;;-291.1463;;-360.57603;;-440.97031;;-530.62376;;-624.65506;;-712.99336;;-784.15374;;-839.6407;;-887.42839;;-932.05805;;-974.6883;;-1015.7073;;-1056.5253;;-1099.4611;;-1145.7929;;-1193.9051;;-1239.8387;;-1279.9619;;-1313.3027;;-1342.0403;;-1369.9513;;-1399.602;;-1430.5407;;-1460.3553;;-1487.3456;;-1511.9683;;-1536.1169;;-1561.4596;;-1588.3043;;-1615.6309;;-1641.7844;;-1664.7851;;-1682.2;;-1691.788;;-1693.5175;;-1691.2942;;-1691.3335;;-1697.0108;;-1705.7669;;-1712.5555;;-1715.4384;;-1716.0979;;-1716.2885;;-1716.2885
-49.330091;;-49.497778;;-51.575812;;-54.847711;;-58.964012;;-63.647677;;-67.565527;;-69.434927;;-69.548762;;-69.034271;;-68.605658;;-68.921859;;-70.813244;;-74.043953;;-76.526125;;-76.935495;;-89.141919;;-109.86712;;-138.14962;;-174.56226;;-220.22027;;-275.62312;;-341.67122;;-418.60023;;-505.21403;;-597.63515;;-687.43974;;-763.02303;;-823.23447;;-875.48266;;-924.11619;;-969.838;;-1012.6807;;-1054.1338;;-1096.8881;;-1142.5577;;-1189.8884;;-1235.4795;;-1276.1488;;-1310.8607;;-1341.1901;;-1370.063;;-1399.4854;;-1429.2902;;-1458.0913;;-1485.1208;;-1511.0693;;-1537.5471;;-1565.7481;;-1595.2481;;-1624.0026;;-1649.5244;;-1669.9232;;-1684.1112;;-1691.7338;;-1693.6861;;-1693.0711;;-1694.4439;;-1700.1036;;-1707.599;;-1712.7992;;-1714.681;;-1715.1582;;-1715.5208;;-1715.5208
-55.678439;;-55.849055;;-57.635914;;-61.029646;;-66.092589;;-71.863051;;-76.104474;;-76.825341;;-74.563278;;-71.413978;;-68.873226;;-67.786405;;-68.643894;;-70.851683;;-72.724622;;-73.694525;;-84.554698;;-103.62489;;-129.81196;;-163.62864;;-206.17592;;-258.22265;;-320.62025;;-393.92986;;-477.57782;;-568.89717;;-661.58286;;-745.21043;;-814.64375;;-874.57464;;-928.40468;;-976.49777;;-1019.3305;;-1059.2022;;-1099.403;;-1141.9089;;-1186.0804;;-1229.5401;;-1269.9239;;-1306.094;;-1338.5622;;-1368.8548;;-1398.14;;-1426.6073;;-1454.1543;;-1481.1608;;-1508.5486;;-1537.4217;;-1568.2439;;-1599.7588;;-1629.0802;;-1653.4053;;-1671.6023;;-1684.2538;;-1692.5645;;-1697.5883;;-1700.7463;;-1704.1805;;-1708.9625;;-1713.4831;;-1715.5768;;-1715.6222;;-1715.5944;;-1716.0263;;-1716.0263
-59.898792;;-59.898792;;-61.854452;;-66.029614;;-72.435397;;-79.415511;;-84.062845;;-83.743444;;-79.516664;;-74.148643;;-69.7063;;-67.259032;;-67.001227;;-68.112262;;-69.449882;;-71.36779;;-81.174426;;-98.654356;;-122.79782;;-154.11481;;-193.71944;;-242.837;;-302.22934;;-372.65274;;-454.03434;;-544.66979;;-639.97269;;-731.42803;;-811.49421;;-880.53145;;-939.74529;;-989.27474;;-1030.8036;;-1067.8409;;-1104.1375;;-1141.986;;-1181.6369;;-1222.0215;;-1261.6707;;-1299.2362;;-1333.9494;;-1365.8213;;-1395.2799;;-1422.9305;;-1449.7814;;-1477.1421;;-1506.0421;;-1536.9307;;-1569.4387;;-1601.7634;;-1630.8796;;-1654.3231;;-1671.8007;;-1684.8636;;-1695.193;;-1703.4232;;-1709.6468;;-1714.3372;;-1717.7323;;-1719.0507;;-1718.0146;;-1716.3968;;-1716.1664;;-1716.9117;;-1716.9117
-61.959677;;-61.959677;;-64.083731;;-68.913472;;-76.225652;;-83.9797;;-88.911892;;-88.056916;;-82.866807;;-76.362969;;-70.806127;;-67.359545;;-66.07713;;-66.122477;;-66.995465;;-70.090224;;-79.861703;;-96.135175;;-118.56647;;-147.79084;;-184.94266;;-231.45517;;-288.49022;;-356.63518;;-436.04427;;-525.60539;;-621.9265;;-718.40525;;-807.58325;;-885.79285;;-950.65896;;-1001.7292;;-1042.1824;;-1076.6815;;-1109.1325;;-1142.1673;;-1177.1616;;-1214.3329;;-1252.893;;-1291.2493;;-1327.6132;;-1360.8845;;-1391.0455;;-1419.0078;;-1446.3627;;-1474.8057;;-1505.1893;;-1537.1885;;-1569.7538;;-1601.3429;;-1629.9933;;-1654.1121;;-1673.3933;;-1688.6292;;-1700.6686;;-1709.8361;;-1716.31;;-1720.4591;;-1722.289;;-1721.4335;;-1718.7588;;-1716.8479;;-1717.3628;;-1718.8757;;-1718.8757
-63.358378;;-63.529538;;-65.060392;;-69.47904;;-76.528596;;-84.073083;;-88.871598;;-88.257415;;-83.452628;;-77.186161;;-71.60587;;-67.811688;;-65.788357;;-64.959515;;-65.550674;;-70.037968;;-80.500739;;-96.071024;;-117.04317;;-144.41201;;-179.46789;;-223.65532;;-278.49567;;-344.6051;;-422.00509;;-509.94389;;-605.88193;;-704.81134;;-800.34698;;-886.25202;;-956.49724;;-1009.5768;;-1049.7966;;-1082.6037;;-1111.9881;;-1141.1077;;-1172.489;;-1207.2365;;-1244.7746;;-1283.2358;;-1320.3006;;-1354.4275;;-1385.5882;;-1414.9205;;-1443.9857;;-1474.079;;-1505.4211;;-1537.0109;;-1567.7584;;-1597.4605;;-1626.2027;;-1653.21;;-1676.7866;;-1695.2993;;-1708.1274;;-1715.9623;;-1720.3598;;-1722.6359;;-1722.98;;-1721.2656;;-1718.8634;;-1718.302;;-1720.3827;;-1722.8336;;-1722.8336
-64.235698;;-64.407685;;-65.094032;;-68.361106;;-74.394448;;-81.063533;;-85.298917;;-85.074981;;-81.411027;;-76.430192;;-71.797721;;-68.336367;;-66.059589;;-64.844634;;-65.626011;;-71.541017;;-82.86312;;-98.405392;;-118.29148;;-143.85832;;-177.02825;;-219.39903;;-272.42997;;-337.11294;;-413.10641;;-499.79811;;-595.14107;;-695.01558;;-793.62179;;-883.50979;;-956.67197;;-1010.831;;-1050.7246;;-1082.1863;;-1109.484;;-1136.391;;-1166.1403;;-1200.0515;;-1237.2624;;-1275.5825;;-1312.5709;;-1346.8199;;-1378.7072;;-1409.6583;;-1440.8137;;-1472.397;;-1503.6205;;-1533.1964;;-1560.9102;;-1588.647;;-1618.6163;;-1650.1746;;-1679.2229;;-1701.1763;;-1714.3089;;-1720.3822;;-1722.6413;;-1723.2701;;-1722.6258;;-1720.9103;;-1719.8065;;-1721.2726;;-1724.9634;;-1728.108;;-1728.108
-64.111828;;-64.284401;;-64.255459;;-66.481598;;-71.47226;;-77.09462;;-80.546133;;-80.540266;;-78.129191;;-74.81388;;-71.581;;-68.909197;;-66.953065;;-66.038076;;-67.50339;;-74.298869;;-86.178657;;-101.98512;;-121.49473;;-145.85574;;-177.97069;;-219.66022;;-272.24629;;-336.84328;;-412.90669;;-499.70519;;-595.15857;;-694.9853;;-792.97704;;-881.43749;;-952.72652;;-1004.9341;;-1042.8358;;-1072.6211;;-1099.1492;;-1126.3471;;-1157.0078;;-1191.8044;;-1229.4179;;-1267.5874;;-1304.1166;;-1337.995;;-1370.0724;;-1402.0266;;-1434.5377;;-1466.7132;;-1496.8659;;-1523.8787;;-1548.8738;;-1575.6275;;-1607.6101;;-1643.6167;;-1677.2946;;-1701.9719;;-1715.6526;;-1721.3312;;-1723.341;;-1723.9755;;-1723.4006;;-1722.0849;;-1722.0025;;-1724.6913;;-1729.1081;;-1732.4164;;-1732.4164
-62.925806;;-63.098729;;-62.781553;;-64.507502;;-68.812005;;-73.551866;;-76.28235;;-76.426093;;-75.124407;;-73.323456;;-71.413689;;-69.687155;;-68.506669;;-68.441431;;-70.687096;;-77.613344;;-89.477607;;-105.27207;;-124.73578;;-149.21384;;-181.92918;;-224.60724;;-278.50003;;-344.65764;;-422.38181;;-510.7488;;-607.13568;;-706.12665;;-800.12638;;-881.96483;;-946.43065;;-992.95562;;-1026.4326;;-1053.97;;-1081.4198;;-1111.8666;;-1145.889;;-1182.6031;;-1220.6236;;-1258.4245;;-1294.48;;-1328.069;;-1360.0695;;-1392.0876;;-1424.5803;;-1456.2598;;-1485.2454;;-1510.8383;;-1535.0036;;-1562.1678;;-1595.827;;-1634.1533;;-1669.9184;;-1696.0501;;-1710.9561;;-1718.2592;;-1722.3139;;-1724.8349;;-1725.542;;-1724.9091;;-1724.9904;;-1727.3156;;-1731.0619;;-1733.8618;;-1733.8618
-61.114777;;-61.287988;;-61.071159;;-62.798574;;-66.809377;;-70.989989;;-73.279617;;-73.615232;;-73.150248;;-72.431179;;-71.517285;;-70.688918;;-70.467874;;-71.401147;;-74.250739;;-80.733967;;-91.934916;;-107.31281;;-127.05044;;-153.18104;;-188.06212;;-233.09566;;-289.59742;;-358.35651;;-438.66299;;-529.35946;;-626.97387;;-724.37857;;-812.10485;;-884.47124;;-939.68117;;-978.56065;;-1006.3066;;-1031.5338;;-1061.2864;;-1096.8999;;-1135.4035;;-1173.8963;;-1211.6401;;-1248.7521;;-1284.6507;;-1318.5101;;-1350.5308;;-1381.8062;;-1412.947;;-1443.349;;-1471.8486;;-1498.0836;;-1523.7017;;-1552.2145;;-1586.2403;;-1623.8837;;-1658.8321;;-1685.2413;;-1702.1086;;-1712.5859;;-1719.9653;;-1725.1727;;-1727.7387;;-1728.0775;;-1727.9895;;-1729.0866;;-1731.3338;;-1733.2155;;-1733.2155
-59.163199;;-59.336636;;-59.449546;;-61.49599;;-65.556609;;-69.578055;;-71.735003;;-72.16308;;-72.04678;;-71.886135;;-71.682847;;-71.674475;;-72.352198;;-74.101429;;-77.317958;;-83.17395;;-93.306216;;-108.32096;;-129.41797;;-158.25367;;-196.06393;;-244.12154;;-303.80723;;-375.3611;;-458.3611;;-551.23884;;-649.52754;;-744.28327;;-824.85905;;-888.11115;;-935.20519;;-967.8358;;-991.30519;;-1015.2572;;-1047.3544;;-1087.1739;;-1128.7196;;-1167.6954;;-1204.4397;;-1240.8616;;-1277.1504;;-1311.9207;;-1344.1542;;-1374.184;;-1403.1394;;-1431.8829;;-1460.4764;;-1488.5982;;-1516.664;;-1546.4264;;-1579.45;;-1614.4218;;-1647.0287;;-1673.3385;;-1692.623;;-1706.6285;;-1717.0542;;-1724.3462;;-1728.4502;;-1729.9731;;-1730.3257;;-1730.918;;-1732.227;;-1733.459;;-1733.459
-57.359647;;-57.533441;;-57.994693;;-60.435112;;-64.761846;;-68.986981;;-71.263187;;-71.601369;;-71.338055;;-71.32154;;-71.668047;;-72.414463;;-73.817814;;-76.126974;;-79.559658;;-84.917327;;-94.205099;;-110.14061;;-133.82764;;-165.703;;-206.70281;;-258.12755;;-320.90528;;-395.11811;;-480.43793;;-574.70312;;-672.37104;;-763.0906;;-836.93873;;-893.60554;;-935.94619;;-966.07551;;-988.87615;;-1013.3455;;-1046.4295;;-1086.8381;;-1127.9057;;-1165.4773;;-1200.8129;;-1236.8047;;-1273.8952;;-1309.9021;;-1342.4633;;-1371.2043;;-1397.9248;;-1424.9459;;-1453.3434;;-1482.6659;;-1512.1869;;-1542.2441;;-1573.7562;;-1606.2124;;-1637.1124;;-1663.8508;;-1685.3715;;-1701.8999;;-1713.9899;;-1722.179;;-1727.1647;;-1729.9554;;-1731.6979;;-1733.296;;-1735.0044;;-1736.2587;;-1736.2587
-55.75195;;-55.926283;;-56.54297;;-59.131406;;-63.621361;;-68.176626;;-70.825559;;-71.225554;;-70.794585;;-70.821557;;-71.600691;;-72.95652;;-74.893865;;-77.58262;;-81.187573;;-86.317046;;-96.292932;;-115.14901;;-142.05731;;-177.33151;;-221.96947;;-277.04442;;-342.84975;;-419.72016;;-506.85081;;-601.23429;;-696.18928;;-781.1634;;-849.19999;;-901.92525;;-942.56643;;-973.40683;;-998.55248;;-1024.9151;;-1057.5387;;-1095.1535;;-1132.6852;;-1167.4295;;-1201.1128;;-1236.6351;;-1274.3088;;-1311.2994;;-1344.2062;;-1372.1776;;-1397.4577;;-1423.0308;;-1450.2784;;-1478.7871;;-1507.6947;;-1537.0131;;-1567.4979;;-1599.0873;;-1630.0291;;-1657.8554;;-1680.7696;;-1698.1726;;-1710.4994;;-1718.7872;;-1724.3131;;-1728.402;;-1732.0629;;-1735.5491;;-1738.4219;;-1740.0608;;-1740.0608
-54.315629;;-54.490354;;-55.024127;;-57.367411;;-61.665587;;-66.402012;;-69.621707;;-70.610738;;-70.519457;;-70.782197;;-71.862524;;-73.587209;;-75.879364;;-78.849336;;-82.607487;;-88.104275;;-101.89387;;-124.54992;;-155.31336;;-194.75568;;-243.94649;;-303.1642;;-372.86653;;-452.78857;;-541.08302;;-633.34913;;-721.99612;;-798.91586;;-861.41089;;-911.58337;;-951.93774;;-984.50866;;-1012.6735;;-1041.2237;;-1073.1248;;-1107.2816;;-1140.7263;;-1172.422;;-1204.2282;;-1238.6464;;-1275.8941;;-1312.9809;;-1346.0864;;-1374.1057;;-1399.1864;;-1423.9432;;-1449.4019;;-1475.505;;-1502.2995;;-1530.4143;;-1560.6322;;-1592.7188;;-1624.679;;-1653.5072;;-1676.8195;;-1693.9857;;-1705.9624;;-1714.2924;;-1720.5043;;-1726.0166;;-1731.606;;-1736.8267;;-1740.6131;;-1742.4535;;-1742.4535
-53.083706;;-53.258576;;-53.671275;;-55.614441;;-59.488277;;-64.207111;;-68.044636;;-70.049582;;-70.805358;;-71.499388;;-72.74995;;-74.638118;;-77.179696;;-80.390547;;-84.294104;;-92.36224;;-110.953;;-137.78314;;-172.98087;;-217.46764;;-271.89801;;-336.51731;;-411.40886;;-495.18697;;-584.00826;;-670.80153;;-748.5143;;-815.06249;;-871.45104;;-919.31314;;-959.78303;;-994.01741;;-1024.6099;;-1054.953;;-1086.655;;-1118.6764;;-1149.3879;;-1178.772;;-1208.619;;-1241.0651;;-1276.4877;;-1312.4057;;-1345.3112;;-1373.9465;;-1399.7814;;-1424.4755;;-1448.5339;;-1472.3848;;-1497.2115;;-1524.4164;;-1554.6743;;-1587.1811;;-1619.4921;;-1648.3943;;-1671.5064;;-1688.4449;;-1700.4959;;-1709.375;;-1716.6457;;-1723.6514;;-1730.8002;;-1737.0698;;-1741.1475;;-1742.8816;;-1742.8816
-51.835603;;-52.01011;;-52.547364;;-54.374951;;-57.956001;;-62.637849;;-67.044469;;-70.108091;;-71.814926;;-72.966701;;-74.328309;;-76.32623;;-79.106398;;-82.533636;;-86.780707;;-99.470882;;-121.88122;;-152.69538;;-192.41462;;-242.13993;;-302.12141;;-372.75487;;-453.47547;;-541.51008;;-630.16304;;-708.47536;;-772.94784;;-828.51488;;-878.54188;;-924.1683;;-965.1566;;-1001.3082;;-1033.9768;;-1065.5163;;-1097.0797;;-1127.9805;;-1157.3065;;-1185.3297;;-1213.4519;;-1243.3775;;-1275.8253;;-1309.4137;;-1341.5163;;-1370.696;;-1397.447;;-1422.603;;-1446.4978;;-1469.8854;;-1494.3861;;-1521.5142;;-1551.5564;;-1583.2803;;-1614.3849;;-1642.2961;;-1665.1587;;-1682.6387;;-1695.7093;;-1705.7202;;-1714.031;;-1721.9169;;-1729.7165;;-1736.3362;;-1740.5014;;-1742.2121;;-1742.2121
-49.879091;;-49.879091;;-51.130559;;-53.408594;;-57.104784;;-61.913635;;-66.847259;;-70.804711;;-73.335787;;-74.926892;;-76.459717;;-78.625099;;-81.619965;;-85.126983;;-90.157732;;-106.45889;;-131.83056;;-165.88313;;-209.41941;;-263.45861;;-328.17832;;-403.92268;;-489.55289;;-581.01402;;-668.8155;;-739.006;;-792.97804;;-840.02657;;-884.98993;;-928.96427;;-970.8619;;-1009.1711;;-1043.6762;;-1075.6698;;-1106.4229;;-1136.1453;;-1164.5908;;-1191.8814;;-1218.6271;;-1245.8964;;-1274.8155;;-1305.3798;;-1336.0302;;-1365.129;;-1392.3498;;-1418.2508;;-1443.4229;;-1468.5884;;-1494.7635;;-1522.6524;;-1552.0024;;-1581.744;;-1610.5384;;-1637.0079;;-1659.9388;;-1678.7575;;-1693.5752;;-1704.7931;;-1713.2607;;-1720.4881;;-1727.6101;;-1734.1899;;-1738.8933;;-1741.1254;;-1741.1254
-46.830558;;-46.830558;;-48.952098;;-52.172317;;-56.399865;;-61.53727;;-66.981352;;-71.701865;;-74.993559;;-77.09729;;-78.919959;;-81.258392;;-84.269471;;-87.473064;;-92.903281;;-110.88956;;-137.90632;;-173.80555;;-219.50702;;-275.8985;;-343.21359;;-421.68732;;-509.845;;-602.91925;;-690.00251;;-756.82452;;-806.94711;;-850.49251;;-893.124;;-936.38357;;-979.03457;;-1018.8381;;-1054.4128;;-1086.1978;;-1115.6851;;-1144.0237;;-1171.5393;;-1198.0093;;-1223.1692;;-1247.5828;;-1272.9008;;-1300.3314;;-1329.1182;;-1357.5409;;-1384.9722;;-1412.1327;;-1439.8643;;-1468.3951;;-1497.4512;;-1526.4921;;-1554.9251;;-1582.4236;;-1608.9426;;-1634.2141;;-1657.4856;;-1677.8497;;-1694.3929;;-1706.2931;;-1713.7887;;-1718.9919;;-1724.5129;;-1730.956;;-1736.6699;;-1739.8694;;-1739.8694
-43.35871;;-43.35871;;-46.427812;;-50.745357;;-55.720672;;-61.295029;;-67.20417;;-72.591424;;-76.637313;;-79.34418;;-81.49774;;-83.855785;;-86.494986;;-88.850866;;-93.564732;;-111.71211;;-138.9278;;-175.01286;;-220.86822;;-277.28761;;-344.52838;;-422.79365;;-510.59101;;-603.26593;;-690.58777;;-760.04114;;-813.31028;;-858.63971;;-901.88141;;-945.29938;;-988.12273;;-1028.2233;;-1063.994;;-1095.4987;;-1124.1439;;-1151.3275;;-1177.4252;;-1201.787;;-1223.7905;;-1244.4272;;-1266.3384;;-1291.3436;;-1318.7082;;-1346.7191;;-1375.0336;;-1404.5951;;-1435.9609;;-1468.4239;;-1500.4477;;-1530.6446;;-1558.5268;;-1584.598;;-1609.7163;;-1634.23;;-1657.6651;;-1678.9289;;-1696.4233;;-1708.4991;;-1714.9944;;-1718.4365;;-1722.4714;;-1728.5201;;-1734.8083;;-1738.6798;;-1738.6798
-40.680408;;-40.680408;;-44.553732;;-49.769168;;-55.446552;;-61.415242;;-67.660877;;-73.534477;;-78.211006;;-81.4841;;-83.913271;;-86.11151;;-88.065933;;-89.254861;;-92.526968;;-109.88934;;-136.28793;;-171.35276;;-215.88959;;-270.62468;;-335.7974;;-411.64301;;-496.86998;;-587.49585;;-675.24138;;-750.136;;-810.59522;;-861.33935;;-907.48911;;-951.92699;;-994.73987;;-1034.6235;;-1070.5219;;-1102.4244;;-1131.1731;;-1157.5329;;-1181.2029;;-1200.9675;;-1216.7816;;-1231.8358;;-1250.7573;;-1275.1724;;-1302.9644;;-1332.0368;;-1362.6843;;-1395.975;;-1431.5793;;-1467.6622;;-1502.0566;;-1533.3862;;-1561.541;;-1587.3896;;-1612.0091;;-1635.9313;;-1658.8577;;-1679.8041;;-1697.2642;;-1709.6365;;-1716.5226;;-1719.9343;;-1723.2592;;-1728.3326;;-1734.0096;;-1737.7314;;-1737.7314
-39.412864;;-39.412864;;-43.625117;;-49.575963;;-55.747008;;-61.961572;;-68.308863;;-74.346577;;-79.350861;;-83.038728;;-85.744523;;-87.860216;;-89.279706;;-89.642099;;-91.462047;;-107.36511;;-132.37507;;-165.8079;;-208.30111;;-260.53304;;-322.65098;;-394.92592;;-476.32386;;-563.66661;;-650.73865;;-730.00195;;-797.7646;;-855.1995;;-905.79493;;-952.42123;;-996.05723;;-1036.5618;;-1073.6528;;-1107.1845;;-1137.1071;;-1163.056;;-1183.5172;;-1196.5114;;-1203.3882;;-1211.2625;;-1227.8418;;-1253.9057;;-1284.4645;;-1316.1961;;-1350.0554;;-1387.3416;;-1426.7664;;-1465.5992;;-1501.7601;;-1534.4352;;-1563.6878;;-1590.1187;;-1614.5755;;-1637.5711;;-1658.9576;;-1678.3065;;-1695.1238;;-1708.4962;;-1717.4737;;-1722.506;;-1725.8293;;-1729.625;;-1733.99;;-1737.0829;;-1737.0829
-38.861086;;-38.861086;;-43.379238;;-49.699019;;-56.22459;;-62.543657;;-68.710468;;-74.527513;;-79.520378;;-83.514281;;-86.682715;;-89.159664;;-90.752618;;-91.30894;;-92.554989;;-105.76758;;-128.83221;;-160.2166;;-200.24912;;-249.631;;-308.28219;;-376.44546;;-453.30281;;-536.36185;;-621.04091;;-701.76753;;-774.42345;;-837.84967;;-893.50172;;-943.54693;;-989.56246;;-1032.4838;;-1072.6144;;-1109.4792;;-1142.0724;;-1168.862;;-1187.0635;;-1194.0297;;-1192.7269;;-1194.2736;;-1209.2759;;-1237.4909;;-1270.9271;;-1304.8012;;-1340.6165;;-1380.1923;;-1421.8452;;-1462.4677;;-1500.2941;;-1534.8631;;-1565.8919;;-1593.2705;;-1617.3932;;-1638.6384;;-1657.1938;;-1673.8767;;-1689.8909;;-1704.9524;;-1716.9063;;-1724.2104;;-1728.017;;-1730.9764;;-1734.3456;;-1736.9364;;-1736.9364
-37.880751;;-37.880751;;-42.625947;;-49.25036;;-56.138542;;-62.58385;;-68.403856;;-73.758168;;-78.586261;;-82.92556;;-86.852945;;-90.268897;;-92.930015;;-94.845653;;-97.291519;;-106.74768;;-126.92568;;-155.52258;;-192.4491;;-238.34154;;-293.17976;;-356.83351;;-428.67591;;-506.77784;;-587.76389;;-667.5056;;-742.30258;;-809.98826;;-870.35293;;-924.51037;;-974.19534;;-1021.0921;;-1065.8858;;-1107.7966;;-1145.0204;;-1174.9816;;-1194.0516;;-1199.6133;;-1195.833;;-1195.3993;;-1209.521;;-1237.2913;;-1269.866;;-1302.3454;;-1336.8056;;-1375.6868;;-1417.5816;;-1459.408;;-1499.3213;;-1536.4955;;-1569.8648;;-1598.4395;;-1621.9672;;-1640.6365;;-1655.3867;;-1668.8779;;-1684.0609;;-1700.7593;;-1715.33;;-1724.652;;-1729.2994;;-1732.2241;;-1735.2369;;-1737.5571;;-1737.5571
-36.298178;;-36.298178;;-41.129766;;-47.912572;;-55.10379;;-61.818294;;-67.372983;;-72.30056;;-77.05535;;-81.861938;;-86.722028;;-91.40933;;-95.689941;;-99.660401;;-104.34518;;-112.74907;;-128.92002;;-153.42896;;-186.11397;;-227.32092;;-277.63515;;-336.52135;;-403.31284;;-476.59207;;-553.87211;;-631.91956;;-707.46464;;-778.02731;;-842.36593;;-900.58818;;-954.17915;;-1005.191;;-1054.7229;;-1102.1048;;-1145.115;;-1180.3361;;-1203.8184;;-1213.7448;;-1214.7271;;-1217.7256;;-1231.4975;;-1255.0655;;-1281.7882;;-1308.7573;;-1338.7601;;-1374.6337;;-1415.5061;;-1458.3623;;-1500.6816;;-1540.6533;;-1576.3267;;-1605.9557;;-1628.6997;;-1644.7668;;-1656.1536;;-1667.1196;;-1681.4887;;-1698.6812;;-1714.1901;;-1724.4669;;-1729.9918;;-1733.5021;;-1736.6218;;-1738.7933;;-1738.7933
-34.699287;;-34.699287;;-39.484797;;-46.255098;;-53.59389;;-60.627155;;-66.169115;;-70.884741;;-75.731009;;-81.021843;;-86.701487;;-92.537119;;-98.385806;;-104.40913;;-111.38537;;-121.0226;;-135.27665;;-155.49195;;-183.00738;;-218.82076;;-263.56624;;-317.6839;;-380.30369;;-450.17951;;-525.37801;;-603.06293;;-679.97287;;-753.26047;;-821.00997;;-882.62297;;-939.1914;;-992.84427;;-1045.2239;;-1096.3406;;-1144.1159;;-1184.6713;;-1214.0848;;-1231.4572;;-1240.9775;;-1250.0363;;-1263.714;;-1281.4853;;-1300.4541;;-1320.6608;;-1345.5521;;-1378.0238;;-1417.5666;;-1461.0773;;-1505.1193;;-1546.8113;;-1583.555;;-1613.2783;;-1635.0636;;-1649.5886;;-1659.7192;;-1670.0578;;-1683.8045;;-1699.7535;;-1713.8162;;-1723.4736;;-1729.5505;;-1734.0619;;-1737.7854;;-1740.0745;;-1740.0745
-33.625869;;-33.625869;;-38.352493;;-45.079707;;-52.502039;;-59.803389;;-65.538706;;-70.204626;;-75.169671;;-80.758942;;-86.879806;;-93.389478;;-100.30895;;-107.88648;;-116.7065;;-127.74462;;-141.86271;;-159.57973;;-182.33787;;-212.94383;;-253.05703;;-303.20862;;-363.54888;;-432.6097;;-508.55724;;-588.58699;;-668.90151;;-745.71412;;-816.36317;;-880.03666;;-937.81923;;-991.90676;;-1044.4557;;-1096.3559;;-1146.0865;;-1189.8793;;-1224.1408;;-1248.3695;;-1265.5614;;-1279.7587;;-1293.3755;;-1306.7646;;-1320.17;;-1335.7295;;-1357.1075;;-1386.9988;;-1425.0006;;-1467.9097;;-1511.7024;;-1552.8941;;-1588.7053;;-1617.2521;;-1638.0949;;-1652.6064;;-1663.8684;;-1675.4121;;-1688.7452;;-1702.2211;;-1713.2531;;-1721.2632;;-1727.6312;;-1733.4171;;-1738.2219;;-1740.9844;;-1740.9844
-33.23952;;-33.23952;;-37.969099;;-44.725099;;-52.264296;;-59.795301;;-65.749602;;-70.332614;;-75.265213;;-80.877077;;-87.033094;;-93.71009;;-101.12669;;-109.62266;;-119.63316;;-131.65496;;-145.91362;;-162.3231;;-181.82467;;-208.56703;;-246.0613;;-294.86518;;-355.10537;;-426.139;;-505.55263;;-590.49137;;-676.30175;;-757.50976;;-830.36527;;-894.37354;;-951.34381;;-1003.8902;;-1054.5622;;-1104.8187;;-1153.7314;;-1198.1941;;-1235.2428;;-1264.1589;;-1286.2513;;-1303.3504;;-1317.0399;;-1328.7912;;-1340.4092;;-1354.5237;;-1374.3821;;-1402.2945;;-1437.8868;;-1478.1489;;-1519.1594;;-1557.5423;;-1590.8226;;-1617.5861;;-1637.9166;;-1653.4955;;-1666.8704;;-1679.9706;;-1692.7733;;-1703.7329;;-1711.9936;;-1718.6695;;-1725.4161;;-1732.3905;;-1738.2298;;-1741.4974;;-1741.4974
-33.193868;;-33.193868;;-37.958111;;-44.601388;;-52.440553;;-60.155777;;-66.269585;;-70.657516;;-75.395921;;-80.863616;;-86.855145;;-93.413734;;-100.93143;;-109.82913;;-120.41273;;-132.85253;;-147.00139;;-162.40924;;-179.85359;;-204.75405;;-242.01274;;-291.71714;;-353.8772;;-428.18964;;-512.13209;;-602.85666;;-695.03678;;-781.3622;;-856.38376;;-919.7906;;-974.53605;;-1024.1687;;-1071.7685;;-1119.1055;;-1165.7517;;-1209.5226;;-1248.106;;-1280.0924;;-1305.0406;;-1323.6704;;-1338.0187;;-1350.6027;;-1363.4642;;-1378.487;;-1397.9751;;-1423.7643;;-1455.6755;;-1491.3529;;-1527.6072;;-1561.7142;;-1591.8127;;-1616.9591;;-1637.3188;;-1654.0964;;-1668.833;;-1682.3515;;-1694.201;;-1703.4867;;-1710.5098;;-1717.0051;;-1724.3293;;-1731.9698;;-1738.19;;-1741.5806;;-1741.5806
-32.807481;;-32.807481;;-37.545613;;-44.169316;;-52.047572;;-59.887683;;-66.255564;;-70.544293;;-75.086446;;-80.406238;;-86.243774;;-92.63471;;-100.06146;;-108.99591;;-119.65345;;-132.00141;;-145.67386;;-160.09335;;-176.27121;;-201.24566;;-239.76191;;-291.25335;;-355.80251;;-433.21045;;-521.22445;;-617.18748;;-715.49962;;-807.43934;;-885.44253;;-948.62929;;-1000.8588;;-1046.8895;;-1090.6715;;-1134.4885;;-1178.5879;;-1221.6653;;-1261.6053;;-1295.9478;;-1322.8857;;-1342.8826;;-1358.8602;;-1374.0048;;-1389.842;;-1406.926;;-1426.3852;;-1449.6751;;-1477.1034;;-1507.2891;;-1538.0358;;-1567.4526;;-1594.3626;;-1618.1313;;-1638.5172;;-1655.7023;;-1670.2567;;-1682.7742;;-1693.3867;;-1701.9985;;-1709.2231;;-1716.4091;;-1724.2452;;-1731.8798;;-1737.7558;;-1740.8501;;-1740.8501
-31.729851;;-31.729851;;-36.335209;;-42.799293;;-50.591969;;-58.502934;;-65.349268;;-69.916751;;-74.413379;;-79.651174;;-85.417417;;-91.706374;;-98.966482;;-107.66079;;-117.97712;;-129.81354;;-142.71789;;-156.16073;;-171.78161;;-198.0697;;-238.08911;;-291.12736;;-357.48517;;-437.00574;;-527.87027;;-627.70532;;-731.01566;;-828.42205;;-910.41262;;-974.71713;;-1025.4149;;-1068.2466;;-1108.1609;;-1148.3522;;-1190.098;;-1232.7988;;-1274.0015;;-1310.1742;;-1338.8303;;-1360.6708;;-1379.2062;;-1397.6906;;-1416.8596;;-1436.0137;;-1455.3365;;-1476.1666;;-1499.4092;;-1524.5544;;-1550.2721;;-1575.464;;-1599.5224;;-1621.8398;;-1641.5264;;-1657.8618;;-1670.9861;;-1681.8803;;-1691.4821;;-1700.1412;;-1708.141;;-1716.0316;;-1723.9281;;-1731.031;;-1736.2443;;-1738.9378;;-1738.9378
-30.32741;;-30.32741;;-34.750844;;-40.99005;;-48.636941;;-56.579423;;-63.944108;;-69.137455;;-73.758922;;-78.989212;;-84.774834;;-91.063855;;-98.134758;;-106.34284;;-115.89975;;-126.79058;;-138.67585;;-151.23953;;-167.10214;;-195.09384;;-236.2661;;-290.2101;;-357.47003;;-437.8888;;-530.10359;;-632.02928;;-738.50682;;-840.25304;;-926.69378;;-993.88746;;-1045.2361;;-1086.7016;;-1123.9333;;-1161.1851;;-1200.8818;;-1242.9398;;-1284.5396;;-1321.6946;;-1352.0127;;-1376.379;;-1397.9797;;-1419.4144;;-1440.8014;;-1460.9393;;-1479.7613;;-1498.7292;;-1519.0513;;-1540.5618;;-1562.4787;;-1584.4089;;-1606.1332;;-1626.7994;;-1644.9486;;-1659.5605;;-1670.9806;;-1680.6601;;-1689.8794;;-1698.8983;;-1707.4401;;-1715.4222;;-1722.7864;;-1729.106;;-1733.7564;;-1736.234;;-1736.234
-29.164358;;-29.164358;;-33.435765;;-39.485037;;-46.999977;;-54.935917;;-62.629369;;-68.470348;;-73.337553;;-78.664234;;-84.578089;;-90.964428;;-97.839072;;-105.36438;;-113.79777;;-123.35517;;-133.99414;;-145.80346;;-162.62037;;-192.12057;;-233.98436;;-288.17264;;-355.41218;;-435.44081;;-527.31357;;-629.18675;;-736.39673;;-840.49311;;-931.2886;;-1003.469;;-1058.6285;;-1101.7788;;-1138.6938;;-1174.5078;;-1212.5569;;-1253.1756;;-1293.764;;-1330.9356;;-1362.9562;;-1390.3609;;-1414.8962;;-1437.956;;-1459.5906;;-1479.1934;;-1497.1823;;-1515.11;;-1533.9326;;-1553.2673;;-1572.6004;;-1592.1269;;-1611.8863;;-1630.794;;-1647.2017;;-1660.3336;;-1670.9217;;-1680.4694;;-1689.9438;;-1699.1887;;-1707.5955;;-1714.9747;;-1721.4805;;-1727.0798;;-1731.3974;;-1733.8315;;-1733.8315
-28.260532;;-28.260532;;-32.401738;;-38.284545;;-45.649559;;-53.510912;;-61.340138;;-67.699714;;-72.931639;;-78.482015;;-84.605376;;-91.119123;;-97.785774;;-104.56423;;-111.76461;;-119.88642;;-129.25164;;-140.42899;;-158.51619;;-189.08982;;-231.24861;;-285.17638;;-351.65846;;-430.15305;;-520.08336;;-619.7584;;-725.14558;;-829.31814;;-923.88659;;-1002.9082;;-1065.1269;;-1113.3128;;-1152.6498;;-1188.7561;;-1225.5938;;-1264.0962;;-1302.6875;;-1339.3649;;-1373.092;;-1403.4243;;-1430.0457;;-1453.1326;;-1473.3497;;-1491.4931;;-1508.6987;;-1526.2234;;-1544.3215;;-1562.2262;;-1579.6319;;-1597.1626;;-1615.0444;;-1632.2392;;-1647.3878;;-1660.1793;;-1671.4432;;-1682.1041;;-1692.2659;;-1701.3123;;-1708.8343;;-1715.1872;;-1720.9338;;-1726.1135;;-1730.2388;;-1732.6032;;-1732.6032
-27.112379;;-27.112379;;-31.071115;;-36.710794;;-43.641755;;-51.494229;;-59.357447;;-66.248574;;-71.978306;;-77.778382;;-84.035905;;-90.580402;;-97.041698;;-103.23775;;-109.49903;;-116.53463;;-124.91967;;-135.62434;;-154.82169;;-186.05405;;-228.29845;;-281.84375;;-347.32691;;-423.92874;;-511.24073;;-607.59691;;-709.63022;;-812.31231;;-909.61834;;-995.65003;;-1066.4348;;-1121.7975;;-1165.5001;;-1203.0786;;-1239.0349;;-1275.3519;;-1311.9843;;-1348.2744;;-1383.3995;;-1415.703;;-1443.1294;;-1465.1583;;-1483.4225;;-1500.1659;;-1516.9272;;-1534.2494;;-1551.608;;-1568.1071;;-1583.7784;;-1599.5153;;-1615.6173;;-1631.2567;;-1645.6147;;-1658.9204;;-1671.9284;;-1684.5916;;-1695.7603;;-1704.3601;;-1710.6571;;-1716.0259;;-1721.4358;;-1726.6085;;-1730.6573;;-1732.8771;;-1732.8771
-25.505365;;-25.505365;;-29.202626;;-34.489607;;-41.034654;;-48.58301;;-56.384218;;-63.757522;;-69.964514;;-75.782939;;-81.843752;;-88.191562;;-94.503611;;-100.5069;;-106.45378;;-113.0821;;-121.01082;;-131.41986;;-151.38624;;-183.03346;;-225.40246;;-278.86105;;-343.77858;;-419.3643;;-505.10673;;-599.19919;;-698.5862;;-799.64993;;-898.26033;;-989.12954;;-1066.9039;;-1128.9896;;-1177.2424;;-1216.5295;;-1251.8658;;-1286.575;;-1322.0132;;-1358.1295;;-1393.7678;;-1426.5192;;-1453.6927;;-1474.6569;;-1491.6275;;-1507.5549;;-1523.9569;;-1540.7195;;-1556.9241;;-1571.9222;;-1586.127;;-1600.4779;;-1615.1281;;-1629.2921;;-1642.5735;;-1655.89;;-1670.3207;;-1685.0698;;-1697.5933;;-1706.2165;;-1711.923;;-1717.0682;;-1722.8114;;-1728.396;;-1732.5485;;-1734.6687;;-1734.6687
-23.776255;;-23.776255;;-27.188918;;-32.088415;;-38.198263;;-45.36606;;-52.954831;;-60.472371;;-66.825894;;-72.177536;;-77.546483;;-83.416358;;-89.659419;;-95.923825;;-102.24737;;-109.16734;;-117.14519;;-127.50533;;-148.28073;;-180.44791;;-223.24484;;-277.17056;;-342.53634;;-418.73336;;-505.22443;;-599.99729;;-699.57964;;-800.22595;;-898.62592;;-990.66364;;-1071.3626;;-1137.1799;;-1188.3991;;-1228.952;;-1264.1181;;-1298.2087;;-1333.2414;;-1368.963;;-1403.7953;;-1435.5279;;-1462.0268;;-1482.7802;;-1499.6548;;-1515.2596;;-1530.893;;-1546.3634;;-1561.0455;;-1574.8058;;-1588.2305;;-1601.9368;;-1615.6242;;-1628.2051;;-1639.395;;-1650.9672;;-1665.1088;;-1681.082;;-1695.219;;-1705.0148;;-1711.6577;;-1717.8571;;-1724.5824;;-1730.7285;;-1734.989;;-1737.0279;;-1737.0279
-22.348234;;-22.348234;;-25.514961;;-30.072752;;-35.780852;;-42.542003;;-49.760843;;-56.995049;;-62.94781;;-67.320609;;-71.648927;;-76.886523;;-83.092814;;-89.878501;;-97.020007;;-104.68144;;-113.02382;;-123.82227;;-146.00248;;-179.16157;;-222.95673;;-278.12498;;-345.0636;;-423.45682;;-512.86463;;-611.10691;;-713.80445;;-815.47225;;-912.35683;;-1002.0098;;-1081.269;;-1147.1203;;-1199.2088;;-1240.6966;;-1276.5851;;-1311.172;;-1346.2043;;-1380.9319;;-1413.8193;;-1443.6737;;-1469.4857;;-1490.751;;-1508.2833;;-1523.7051;;-1538.1127;;-1551.8089;;-1564.9783;;-1578.0809;;-1591.6063;;-1605.5085;;-1618.7683;;-1629.7591;;-1638.0643;;-1646.2959;;-1658.2231;;-1674.0065;;-1689.4915;;-1701.271;;-1710.017;;-1717.9884;;-1725.6715;;-1731.9281;;-1735.8908;;-1737.674;;-1737.674
-21.345557;;-21.345557;;-24.316332;;-28.593147;;-33.950598;;-40.303554;;-47.053096;;-53.720913;;-58.786441;;-61.924486;;-65.221043;;-69.905084;;-76.100237;;-83.399073;;-91.403922;;-99.903881;;-108.74056;;-120.88824;;-145.02635;;-179.66775;;-224.98361;;-282.01006;;-351.23454;;-432.67979;;-525.99467;;-628.82031;;-735.77494;;-838.88098;;-933.11899;;-1018.1426;;-1093.2912;;-1156.8943;;-1208.8085;;-1251.6603;;-1289.4804;;-1325.4626;;-1360.5407;;-1393.8227;;-1424.4473;;-1452.4077;;-1477.5697;;-1499.2691;;-1517.3137;;-1532.4322;;-1545.6433;;-1557.8662;;-1570.0429;;-1583.0252;;-1597.0842;;-1611.5212;;-1624.6578;;-1634.4258;;-1640.2704;;-1645.2654;;-1654.3236;;-1668.6876;;-1684.449;;-1697.6528;;-1708.0932;;-1717.1565;;-1724.8818;;-1730.4248;;-1733.6065;;-1734.9708;;-1734.9708
-20.543092;;-20.543092;;-23.336333;;-27.354276;;-32.379114;;-38.324389;;-44.576001;;-50.601741;;-54.676077;;-56.797516;;-59.422034;;-63.804267;;-70.008198;;-77.606756;;-86.16573;;-95.272246;;-104.62177;;-118.97118;;-144.87577;;-180.95534;;-227.765;;-286.58965;;-357.96704;;-442.21961;;-539.03043;;-645.84474;;-756.3755;;-860.1441;;-950.88001;;-1030.8253;;-1101.7257;;-1163.217;;-1215.5506;;-1260.7425;;-1301.3434;;-1339.0008;;-1374.0292;;-1406.0377;;-1435.1028;;-1461.8965;;-1486.5194;;-1508.1571;;-1526.1803;;-1540.9277;;-1553.4614;;-1565.0871;;-1577.0172;;-1590.025;;-1604.1064;;-1618.3231;;-1630.9057;;-1639.832;;-1644.5819;;-1648.1147;;-1655.3217;;-1667.9188;;-1682.6921;;-1695.8048;;-1706.415;;-1715.1881;;-1722.0075;;-1726.4668;;-1728.9166;;-1730.0133;;-1730.0133
-19.645522;;-19.645522;;-22.239373;;-25.971519;;-30.639179;;-36.002745;;-41.967775;;-47.504815;;-51.071636;;-52.782858;;-55.19108;;-59.483361;;-65.615092;;-73.177389;;-81.817697;;-91.126222;;-100.88874;;-117.09679;;-143.97151;;-180.77619;;-228.31741;;-288.03075;;-360.49743;;-446.23496;;-544.95252;;-653.98077;;-766.43811;;-869.88991;;-957.25552;;-1033.5389;;-1102.3125;;-1163.8592;;-1218.2882;;-1266.6334;;-1309.9636;;-1348.8824;;-1383.8284;;-1415.3176;;-1444.0536;;-1470.6494;;-1495.0038;;-1516.3794;;-1534.2632;;-1548.9394;;-1561.4535;;-1573.198;;-1585.2403;;-1597.8675;;-1610.7287;;-1623.1197;;-1633.889;;-1641.5806;;-1645.946;;-1649.6452;;-1656.7739;;-1668.6116;;-1682.3237;;-1694.5213;;-1704.2715;;-1712.0511;;-1717.924;;-1721.8249;;-1724.1994;;-1725.4317;;-1725.4317
-18.63684;;-18.63684;;-21.000589;;-24.415555;;-28.707405;;-33.690483;;-39.298767;;-44.63149;;-48.46772;;-50.510588;;-53.086976;;-57.282153;;-63.076641;;-70.214927;;-78.506541;;-87.638159;;-97.494003;;-114.21207;;-140.98995;;-177.44556;;-224.49817;;-283.64265;;-355.53656;;-440.78165;;-539.17865;;-648.16357;;-760.83081;;-863.92318;;-949.62556;;-1024.9829;;-1094.7195;;-1159.0963;;-1217.3809;;-1269.2776;;-1314.7812;;-1354.3857;;-1389.3392;;-1421.0269;;-1450.2603;;-1477.1728;;-1501.4608;;-1522.7569;;-1540.9172;;-1556.14;;-1569.1586;;-1581.162;;-1592.9926;;-1604.5009;;-1615.0598;;-1624.3126;;-1631.7961;;-1636.6394;;-1639.255;;-1642.9575;;-1651.5838;;-1665.1654;;-1679.8291;;-1692.0239;;-1701.1517;;-1708.1932;;-1713.7382;;-1717.9189;;-1720.8887;;-1722.5627;;-1722.5627
-17.792429;;-17.792429;;-19.905084;;-23.011662;;-26.968589;;-31.666504;;-37.056395;;-42.40781;;-46.943226;;-49.809947;;-52.654791;;-56.593251;;-61.83001;;-68.358501;;-76.133572;;-84.904826;;-94.441166;;-110.18644;;-135.81659;;-170.87995;;-216.26203;;-273.43952;;-343.20672;;-426.15276;;-522.26437;;-629.33432;;-741.08687;;-844.89677;;-931.75978;;-1008.9854;;-1082.0929;;-1151.1552;;-1214.3448;;-1269.9883;;-1317.4201;;-1357.5751;;-1392.6673;;-1424.7151;;-1454.4384;;-1481.5455;;-1505.6964;;-1527.0029;;-1545.714;;-1561.8567;;-1575.6109;;-1587.7196;;-1598.8748;;-1608.8828;;-1617.0771;;-1623.0945;;-1626.3389;;-1625.9747;;-1623.8094;;-1625.8243;;-1637.0889;;-1655.6571;;-1674.5074;;-1688.6412;;-1697.9914;;-1704.7203;;-1710.3052;;-1715.0839;;-1718.8094;;-1720.9418;;-1720.9418
-17.353764;;-17.353764;;-19.214334;;-22.087529;;-25.8189;;-30.352963;;-35.638662;;-41.055348;;-46.069766;;-49.584227;;-52.533198;;-56.177376;;-60.972908;;-67.084772;;-74.498231;;-82.942181;;-91.997163;;-105.51363;;-129.08022;;-161.89858;;-204.6928;;-258.85049;;-325.38088;;-404.77424;;-497.28584;;-601.27895;;-711.62422;;-817.55569;;-908.71492;;-990.18795;;-1067.9487;;-1142.2322;;-1210.488;;-1269.9756;;-1319.5722;;-1360.6029;;-1395.9976;;-1428.2854;;-1458.2435;;-1485.3267;;-1509.123;;-1530.0854;;-1548.8637;;-1565.4979;;-1579.7636;;-1591.9446;;-1602.5895;;-1611.6618;;-1618.5485;;-1622.3765;;-1621.4595;;-1614.5045;;-1605.3851;;-1604.259;;-1618.5246;;-1643.8598;;-1668.8083;;-1686.0598;;-1696.1126;;-1702.6555;;-1708.2214;;-1713.4205;;-1717.7071;;-1720.1809;;-1720.1809
-17.204597;;-17.204597;;-18.900663;;-21.655234;;-25.276626;;-29.7161;;-34.926234;;-40.308349;;-45.373516;;-48.929271;;-51.74218;;-55.252811;;-60.008952;;-66.1069;;-73.414586;;-81.628198;;-90.280432;;-100.99899;;-121.50019;;-151.32239;;-190.81991;;-241.17262;;-303.66574;;-378.65866;;-466.68013;;-566.80087;;-675.32668;;-784.02667;;-882.18332;;-970.16748;;-1053.4516;;-1132.9281;;-1206.0175;;-1269.3885;;-1321.5273;;-1363.9243;;-1400.0249;;-1432.8576;;-1463.3058;;-1490.4904;;-1513.7194;;-1533.6499;;-1551.4322;;-1567.4608;;-1581.5511;;-1593.8341;;-1604.7036;;-1614.0531;;-1621.0954;;-1624.2921;;-1620.8276;;-1608.9818;;-1594.3362;;-1590.3536;;-1606.3623;;-1636.3878;;-1665.6977;;-1685.1744;;-1695.6943;;-1702.1091;;-1707.7274;;-1713.3368;;-1718.1665;;-1721.0006;;-1721.0006
-17.125039;;-17.125039;;-18.664702;;-21.311022;;-24.82541;;-29.146762;;-34.059125;;-39.467768;;-44.360055;;-47.660036;;-50.323852;;-53.96604;;-59.039319;;-65.395706;;-72.726045;;-80.70015;;-89.00126;;-97.811574;;-113.83119;;-140.00435;;-175.70445;;-221.73337;;-279.48312;;-349.51191;;-432.38961;;-527.93813;;-633.9136;;-744.6498;;-850.79381;;-947.32085;;-1037.1282;;-1121.9709;;-1199.9506;;-1267.5461;;-1322.8204;;-1367.3178;;-1404.9978;;-1439.2759;;-1470.8581;;-1498.3206;;-1520.6851;;-1538.9076;;-1554.742;;-1569.1061;;-1582.2126;;-1594.4589;;-1606.1696;;-1616.8059;;-1625.0977;;-1629.1915;;-1626.1199;;-1614.1648;;-1598.9633;;-1594.0302;;-1608.9094;;-1637.9771;;-1666.6639;;-1685.7485;;-1696.0477;;-1702.5285;;-1708.6005;;-1714.9697;;-1720.6063;;-1723.9634;;-1723.9634
-17.037327;;-17.037327;;-18.136768;;-20.504025;;-23.74756;;-27.783145;;-32.434871;;-37.615026;;-42.403941;;-45.835423;;-48.66288;;-52.569458;;-57.923659;;-64.429903;;-71.678571;;-79.424688;;-87.539706;;-95.896593;;-107.28742;;-129.29432;;-160.87001;;-202.39296;;-255.05677;;-319.95835;;-397.45652;;-487.99362;;-590.53362;;-701.50422;;-813.76797;;-919.20086;;-1016.1727;;-1106.7185;;-1190.1703;;-1263.1079;;-1322.9503;;-1370.9765;;-1411.4687;;-1447.9796;;-1480.8395;;-1508.2457;;-1529.3199;;-1545.5039;;-1559.0606;;-1571.3324;;-1583.0405;;-1595.0943;;-1607.8632;;-1620.2326;;-1630.3414;;-1636.4695;;-1636.5174;;-1629.1589;;-1618.417;;-1614.6094;;-1625.7084;;-1648.2846;;-1671.3395;;-1687.3843;;-1696.8007;;-1703.548;;-1710.395;;-1717.7072;;-1724.1956;;-1728.0663;;-1728.0663
-17.000878;;-17.000878;;-17.392493;;-19.215388;;-21.971138;;-25.517187;;-29.756953;;-34.613204;;-39.372597;;-43.448171;;-46.76121;;-50.621959;;-55.557396;;-61.375083;;-68.087782;;-75.932816;;-84.62005;;-93.703341;;-103.50085;;-120.71497;;-148.1725;;-185.41933;;-233.2873;;-293.17102;;-365.57312;;-451.05177;;-549.42407;;-658.56252;;-773.27298;;-885.25317;;-988.84557;;-1085.0527;;-1174.609;;-1254.5486;;-1321.2936;;-1374.8937;;-1419.1426;;-1457.6034;;-1490.7815;;-1517.3252;;-1536.9557;;-1551.4665;;-1563.2171;;-1573.7821;;-1584.3966;;-1596.4397;;-1610.3022;;-1624.4282;;-1636.5314;;-1645.1493;;-1649.2479;;-1648.0453;;-1643.541;;-1641.8483;;-1648.5636;;-1662.7333;;-1678.1156;;-1689.9118;;-1698.1274;;-1705.2016;;-1712.7779;;-1720.7033;;-1727.5481;;-1731.5609;;-1731.5609
-16.99042;;-16.99042;;-17.074322;;-17.94399;;-20.075091;;-23.061415;;-26.795683;;-31.120035;;-35.973323;;-40.605004;;-44.518591;;-47.756698;;-51.191505;;-55.261707;;-60.991724;;-68.873697;;-78.633054;;-89.531943;;-100.79142;;-114.97434;;-138.82095;;-172.32715;;-216.10376;;-271.41676;;-339.33798;;-420.15421;;-514.17062;;-620.15943;;-734.31138;;-849.44122;;-958.03515;;-1059.1281;;-1154.5151;;-1242.1791;;-1317.4182;;-1377.842;;-1425.6307;;-1464.58;;-1496.6149;;-1521.8833;;-1540.8018;;-1554.8842;;-1566.0191;;-1575.9287;;-1586.3824;;-1598.9532;;-1613.828;;-1629.2713;;-1642.9794;;-1653.6743;;-1660.8828;;-1664.2115;;-1664.3898;;-1664.5025;;-1668.1146;;-1675.7743;;-1684.8592;;-1692.9645;;-1700.0659;;-1707.3816;;-1715.4491;;-1723.5388;;-1730.1709;;-1733.912;;-1733.912
-16.985665;;-16.985665;;-17.011793;;-17.215714;;-18.534086;;-20.957173;;-24.199982;;-28.176425;;-32.68687;;-37.608733;;-41.904721;;-44.437148;;-45.857427;;-48.144393;;-53.002972;;-60.604283;;-70.652292;;-82.801458;;-96.254154;;-111.22525;;-132.81554;;-163.6029;;-204.29945;;-256.09104;;-320.44538;;-397.66906;;-488.14947;;-591.2308;;-704.03868;;-820.48743;;-932.52527;;-1037.0391;;-1136.2897;;-1229.6598;;-1311.7919;;-1377.6324;;-1427.3458;;-1465.2951;;-1495.6428;;-1520.3681;;-1540.1462;;-1555.53;;-1567.5774;;-1578.1527;;-1589.4988;;-1603.0597;;-1618.5888;;-1634.4167;;-1648.6901;;-1660.3617;;-1668.9709;;-1674.1013;;-1675.9729;;-1676.4628;;-1678.3617;;-1682.9866;;-1689.2938;;-1695.7738;;-1702.3145;;-1709.6952;;-1718.0111;;-1726.1461;;-1732.5059;;-1735.9333;;-1735.9333
-16.983948;;-16.983948;;-16.990331;;-17.035351;;-17.486118;;-19.331719;;-22.103206;;-25.646119;;-29.814439;;-34.306542;;-38.712044;;-41.021109;;-40.618437;;-41.278891;;-45.563658;;-52.918094;;-62.887181;;-75.332292;;-89.991102;;-107.06192;;-129.1202;;-158.9978;;-198.17758;;-248.11196;;-310.43815;;-385.9163;;-474.83423;;-576.85514;;-689.62325;;-807.58476;;-922.13516;;-1028.0358;;-1127.5744;;-1221.7317;;-1305.5321;;-1372.6927;;-1422.234;;-1459.0047;;-1488.691;;-1514.316;;-1536.3882;;-1554.4702;;-1568.8073;;-1581.1916;;-1594.0288;;-1608.5227;;-1624.1203;;-1639.4283;;-1653.2338;;-1664.7637;;-1673.2945;;-1677.9507;;-1678.5582;;-1677.0718;;-1677.3074;;-1681.8474;;-1689.5871;;-1697.5953;;-1704.7189;;-1711.9941;;-1720.1801;;-1728.3017;;-1734.5848;;-1737.888;;-1737.888
-16.983555;;-16.983555;;-16.984511;;-16.992856;;-17.06674;;-17.995485;;-20.149143;;-23.103667;;-26.708933;;-30.667128;;-34.480476;;-36.902409;;-35.803775;;-35.257782;;-39.475201;;-46.66644;;-56.415722;;-68.784467;;-83.998185;;-102.68114;;-126.5036;;-157.30376;;-196.84599;;-246.91485;;-309.39149;;-385.31026;;-475.11772;;-578.57618;;-693.42441;;-813.9178;;-930.20546;;-1034.9402;;-1130.5361;;-1219.6526;;-1298.9404;;-1363.0872;;-1411.2789;;-1448.065;;-1478.8377;;-1506.4947;;-1531.4278;;-1552.8239;;-1570.3195;;-1585.1676;;-1599.4816;;-1614.4182;;-1629.6422;;-1644.2051;;-1657.2849;;-1668.1482;;-1675.748;;-1678.6016;;-1675.9306;;-1670.235;;-1667.7631;;-1673.5207;;-1685.719;;-1698.0879;;-1707.101;;-1714.1999;;-1721.6661;;-1729.2907;;-1735.293;;-1738.4436;;-1738.4436
-16.983511;;-16.983511;;-16.983582;;-16.984629;;-17.000545;;-17.18206;;-18.435877;;-20.672611;;-23.59085;;-26.916106;;-30.164026;;-32.164702;;-31.189147;;-30.450094;;-34.819845;;-41.671092;;-51.145802;;-63.369609;;-79.118469;;-98.947084;;-124.28197;;-156.6224;;-197.68482;;-249.39767;;-313.61061;;-391.47463;;-483.78158;;-590.3232;;-708.68821;;-832.47823;;-949.85994;;-1051.1192;;-1139.3696;;-1219.2799;;-1290.2141;;-1349.3601;;-1396.5342;;-1434.965;;-1468.3269;;-1498.7039;;-1526.5826;;-1551.3163;;-1572.1334;;-1589.4638;;-1604.9129;;-1619.8899;;-1634.7386;;-1648.9578;;-1661.6705;;-1671.8658;;-1678.3266;;-1679.2827;;-1673.3701;;-1663.3227;;-1657.6588;;-1664.0666;;-1680.4591;;-1697.3481;;-1708.5457;;-1715.476;;-1721.7738;;-1728.2004;;-1733.3225;;-1736.0176;;-1736.0176
-16.98351;;-16.98351;;-16.983512;;-16.983614;;-16.987621;;-17.029547;;-17.33763;;-18.668606;;-20.811868;;-23.443984;;-26.103572;;-27.784608;;-26.785892;;-26.648079;;-31.039532;;-37.838051;;-47.069281;;-59.202322;;-75.143006;;-95.486793;;-121.61655;;-154.99722;;-197.36542;;-250.6276;;-316.39658;;-396.13991;;-490.88542;;-600.51179;;-722.52811;;-849.94005;;-968.63463;;-1065.398;;-1144.6249;;-1213.9646;;-1276.1663;;-1330.9914;;-1378.4662;;-1419.9683;;-1457.1112;;-1490.9588;;-1521.9768;;-1549.7758;;-1573.4266;;-1592.7602;;-1609.0314;;-1624.0225;;-1638.7554;;-1652.9901;;-1665.5804;;-1675.2484;;-1680.947;;-1681.1838;;-1674.363;;-1662.7697;;-1655.2877;;-1660.7857;;-1677.7704;;-1695.9969;;-1708.0659;;-1714.7995;;-1719.9599;;-1724.8348;;-1728.6183;;-1730.5945;;-1730.5945
-16.98351;;-16.98351;;-16.98351;;-16.98352;;-16.984287;;-16.993843;;-17.057863;;-17.404947;;-18.644873;;-20.534448;;-22.573802;;-23.879105;;-23.091508;;-23.875901;;-28.194805;;-34.725306;;-43.629168;;-55.428429;;-71.056139;;-91.11998;;-117.00684;;-150.19431;;-192.43743;;-245.56971;;-311.25344;;-391.15104;;-486.49423;;-597.3978;;-721.62713;;-852.26058;;-973.88066;;-1067.9236;;-1139.335;;-1199.8175;;-1255.2529;;-1307.3997;;-1356.3181;;-1401.8321;;-1443.6851;;-1481.6897;;-1515.9363;;-1546.2713;;-1571.996;;-1592.8247;;-1609.865;;-1625.0933;;-1639.8675;;-1654.0658;;-1666.4811;;-1675.908;;-1681.6934;;-1682.916;;-1678.174;;-1668.8829;;-1662.1542;;-1665.8153;;-1679.5126;;-1695.1527;;-1706.202;;-1712.5674;;-1716.8582;;-1720.2748;;-1722.7114;;-1723.976;;-1723.976
-16.98351;;-16.98351;;-16.98351;;-16.983511;;-16.983586;;-16.984895;;-16.99674;;-17.059742;;-17.335192;;-18.339645;;-19.748246;;-20.692106;;-20.117716;;-21.564638;;-25.654322;;-31.724283;;-40.016227;;-51.057762;;-65.585541;;-84.721439;;-109.2781;;-140.87355;;-181.23065;;-232.20565;;-295.49208;;-372.85919;;-465.74962;;-574.65052;;-697.97316;;-829.85318;;-956.03284;;-1052.989;;-1121.8251;;-1177.8442;;-1229.2582;;-1279.5949;;-1329.8451;;-1379.2889;;-1426.0294;;-1468.2945;;-1505.5274;;-1537.8762;;-1565.2017;;-1587.4178;;-1605.5004;;-1621.3014;;-1636.1864;;-1650.1889;;-1662.4559;;-1672.1999;;-1679.0646;;-1682.4897;;-1681.4675;;-1676.6996;;-1672.7525;;-1675.1443;;-1684.4329;;-1695.8064;;-1704.7185;;-1710.3802;;-1713.9819;;-1716.401;;-1718.0097;;-1718.8946;;-1718.8946
-16.98351;;-16.98351;;-16.98351;;-16.98351;;-16.983511;;-16.983589;;-16.984965;;-16.994418;;-17.030355;;-17.155792;;-17.73655;;-18.316786;;-17.965417;;-19.523695;;-23.205849;;-28.639041;;-36.085018;;-46.042832;;-59.199364;;-76.613264;;-99.019822;;-127.94558;;-165.01703;;-212.0884;;-270.85462;;-343.1;;-430.4447;;-533.78319;;-652.37404;;-782.05287;;-911.68087;;-1018.1104;;-1092.1377;;-1149.404;;-1199.6335;;-1248.3651;;-1298.881;;-1351.1144;;-1401.9891;;-1448.2226;;-1488.53;;-1523.1591;;-1552.3866;;-1576.336;;-1595.8572;;-1612.5746;;-1627.7559;;-1641.6505;;-1654.0061;;-1664.6168;;-1673.2233;;-1679.2353;;-1681.9741;;-1681.8713;;-1681.4726;;-1683.9714;;-1690.1471;;-1697.7819;;-1704.3336;;-1709.0231;;-1712.3038;;-1714.7047;;-1716.4767;;-1717.5176;;-1717.5176
-16.98351;;-16.98351;;-16.98351;;-16.98351;;-16.98351;;-16.983511;;-16.983594;;-16.98433;;-16.987378;;-16.994914;;-17.013515;;-17.06244;;-17.031875;;-17.919586;;-20.995725;;-25.670484;;-32.150469;;-40.874576;;-52.454807;;-67.682385;;-87.719481;;-113.43907;;-146.50293;;-188.66189;;-241.62778;;-307.10435;;-386.8061;;-481.95877;;-592.60305;;-716.25983;;-845.26591;;-962.05963;;-1047.6656;;-1111.1571;;-1163.462;;-1212.0389;;-1262.6955;;-1316.6375;;-1370.5937;;-1420.6686;;-1464.9845;;-1503.2272;;-1535.3691;;-1561.5419;;-1582.6977;;-1600.5191;;-1616.2931;;-1630.4323;;-1643.1905;;-1654.9014;;-1665.3666;;-1673.8414;;-1679.8372;;-1683.7314;;-1686.7317;;-1690.193;;-1694.6088;;-1699.3577;;-1703.6761;;-1707.5557;;-1711.368;;-1715.0264;;-1717.9357;;-1719.5269;;-1719.5269
-16.98351;;-16.98351;;-16.98351;;-16.98351;;-16.98351;;-16.98351;;-16.983511;;-16.983516;;-16.983541;;-16.9836;;-16.983705;;-16.983867;;-16.983834;;-17.071501;;-19.201241;;-23.020339;;-28.513982;;-36.007018;;-46.014926;;-59.227196;;-76.689683;;-99.144818;;-128.0973;;-165.138;;-211.97222;;-270.19269;;-341.51156;;-427.36513;;-528.3738;;-643.38178;;-767.59061;;-889.1453;;-987.55178;;-1060.1858;;-1118.0187;;-1169.6208;;-1221.9356;;-1277.3163;;-1333.5971;;-1387.5886;;-1437.008;;-1480.2183;;-1516.1295;;-1544.7552;;-1567.5181;;-1586.553;;-1603.3276;;-1618.3088;;-1631.943;;-1644.8621;;-1657.0233;;-1667.7423;;-1676.6344;;-1683.8147;;-1689.4202;;-1693.543;;-1696.4587;;-1698.6792;;-1701.0431;;-1704.6105;;-1709.7888;;-1715.5045;;-1719.938;;-1722.1265;;-1722.1265
-16.98351;;-16.98351;;-16.98351;;-16.98351;;-16.98351;;-16.98351;;-16.98351;;-16.98351;;-16.98351;;-16.98351;;-16.983511;;-16.983511;;-16.983514;;-16.985452;;-17.784442;;-20.802682;;-25.408173;;-31.797359;;-40.397238;;-51.803198;;-66.95264;;-86.464554;;-111.69251;;-144.06472;;-185.22922;;-236.71429;;-300.15362;;-377.09381;;-468.54142;;-574.26888;;-691.48807;;-812.35134;;-920.37663;;-1003.0381;;-1068.2263;;-1124.9092;;-1179.8567;;-1236.4946;;-1294.7741;;-1352.8472;;-1407.8;;-1456.2179;;-1495.8246;;-1526.7367;;-1551.1038;;-1571.5924;;-1589.8558;;-1606.3756;;-1621.5351;;-1635.9531;;-1649.7906;;-1662.6726;;-1674.1906;;-1683.8153;;-1690.7578;;-1694.6052;;-1695.8929;;-1695.9943;;-1696.855;;-1700.3947;;-1707.0321;;-1714.719;;-1720.5054;;-1723.1683;;-1723.1683
-16.98351;;-16.98351;;-16.98351;;-16.98351;;-16.98351;;-16.98351;;-16.98351;;-16.98351;;-16.98351;;-16.98351;;-16.98351;;-16.98351;;-16.98351;;-16.98361;;-17.064223;;-19.156649;;-22.953202;;-28.420566;;-35.874628;;-45.821529;;-59.107617;;-76.251726;;-98.486817;;-127.11068;;-163.66096;;-209.69977;;-266.7573;;-336.43692;;-420.0043;;-517.85297;;-628.51105;;-746.75577;;-860.43363;;-952.34605;;-1023.6833;;-1083.8961;;-1140.1412;;-1197.4689;;-1258.0247;;-1320.6225;;-1381.0057;;-1433.9772;;-1476.5946;;-1509.4932;;-1535.5133;;-1557.5755;;-1577.4267;;-1595.6932;;-1612.6995;;-1628.8695;;-1644.4821;;-1659.4577;;-1673.1617;;-1684.2467;;-1691.376;;-1694.4332;;-1694.6037;;-1693.6428;;-1693.7584;;-1697.2652;;-1704.6959;;-1713.4468;;-1719.8508;;-1722.6192;;-1722.6192
-16.98351;;-16.98351;;-16.98351;;-16.98351;;-16.98351;;-16.98351;;-16.98351;;-16.98351;;-16.98351;;-16.98351;;-16.98351;;-16.98351;;-16.98351;;-16.983527;;-16.988292;;-17.994336;;-21.158534;;-25.938215;;-32.549645;;-41.436119;;-53.209757;;-68.825656;;-88.924553;;-114.87814;;-148.12929;;-190.27899;;-242.80848;;-307.33503;;-385.29541;;-477.48054;;-583.24686;;-699.00595;;-815.42968;;-914.5647;;-989.25055;;-1049.757;;-1105.4834;;-1163.5343;;-1227.2318;;-1294.8044;;-1360.2212;;-1416.9477;;-1461.9687;;-1496.5842;;-1524.0192;;-1547.1469;;-1567.841;;-1587.1297;;-1605.4703;;-1623.0856;;-1640.2087;;-1656.823;;-1671.95;;-1683.6488;;-1690.5461;;-1693.2408;;-1693.57;;-1693.1881;;-1693.7743;;-1697.3022;;-1704.1525;;-1711.5588;;-1716.0596;;-1717.3363;;-1717.3363
-16.98351;;-16.98351;;-16.98351;;-16.98351;;-16.98351;;-16.98351;;-16.98351;;-16.98351;;-16.98351;;-16.98351;;-16.98351;;-16.98351;;-16.98351;;-16.983514;;-16.984255;;-17.309726;;-19.974968;;-24.24519;;-30.267416;;-38.433101;;-49.304429;;-63.785618;;-82.462248;;-106.63853;;-137.68509;;-177.20289;;-226.67861;;-287.71626;;-361.85753;;-450.13723;;-552.41679;;-666.08623;;-783.51522;;-887.83714;;-964.52013;;-1024.1696;;-1079.6027;;-1139.4041;;-1206.7542;;-1278.7394;;-1348.0425;;-1407.5055;;-1454.2725;;-1490.0367;;-1518.0778;;-1541.1732;;-1561.4722;;-1580.547;;-1599.1081;;-1617.2552;;-1635.0697;;-1652.3969;;-1667.9976;;-1679.7955;;-1686.7249;;-1689.9572;;-1691.6609;;-1693.206;;-1695.2733;;-1698.3211;;-1701.3584;;-1701.5531;;-1697.607;;-1693.0578;;-1693.0578
-16.98351;;-16.98351;;-16.98351;;-16.98351;;-16.98351;;-16.98351;;-16.98351;;-16.98351;;-16.98351;;-16.98351;;-16.98351;;-16.98351;;-16.98351;;-16.983511;;-16.983652;;-17.060324;;-19.192839;;-23.071105;;-28.678431;;-36.347336;;-46.601953;;-60.140865;;-77.849835;;-100.82375;;-130.56263;;-168.28602;;-215.68748;;-274.35644;;-345.90856;;-431.54357;;-531.45846;;-643.69202;;-761.81057;;-870.62666;;-950.56194;;-1010.8899;;-1067.5327;;-1129.5595;;-1199.4764;;-1273.7412;;-1344.7676;;-1405.3597;;-1452.7018;;-1488.4985;;-1515.9774;;-1537.9791;;-1556.9695;;-1574.9102;;-1592.7031;;-1610.4168;;-1627.9878;;-1645.0696;;-1660.3656;;-1672.0645;;-1679.4589;;-1683.7705;;-1687.0022;;-1690.3119;;-1693.3362;;-1693.6651;;-1686.8713;;-1669.8948;;-1646.6918;;-1629.2497;;-1629.2497
-16.98351;;-16.98351;;-16.98351;;-16.98351;;-16.98351;;-16.98351;;-16.98351;;-16.98351;;-16.98351;;-16.98351;;-16.98351;;-16.98351;;-16.98351;;-16.98351;;-16.983529;;-17.003697;;-18.667581;;-22.277685;;-27.609392;;-34.952731;;-44.809592;;-57.857702;;-74.959965;;-97.186541;;-125.8385;;-162.64006;;-208.79276;;-266.06047;;-336.12425;;-420.31214;;-519.06974;;-630.91581;;-750.35073;;-863.84567;;-949.30428;;-1012.4527;;-1070.9887;;-1134.0291;;-1203.9056;;-1277.4694;;-1347.721;;-1407.6426;;-1454.2002;;-1488.8771;;-1514.9271;;-1535.3691;;-1552.8247;;-1569.3537;;-1585.947;;-1602.7097;;-1619.4635;;-1635.7158;;-1650.3252;;-1661.9496;;-1670.0591;;-1675.2832;;-1678.8948;;-1682.0567;;-1683.9549;;-1678.6909;;-1656.5442;;-1613.958;;-1563.0254;;-1527.6972;;-1527.6972
-16.98351;;-16.98351;;-16.98351;;-16.98351;;-16.98351;;-16.98351;;-16.98351;;-16.98351;;-16.98351;;-16.98351;;-16.98351;;-16.98351;;-16.98351;;-16.98351;;-16.983512;;-16.9907;;-18.316624;;-21.748092;;-26.894296;;-34.020493;;-43.616277;;-56.34712;;-73.062449;;-94.981298;;-122.90273;;-158.85356;;-204.44208;;-260.9036;;-330.15411;;-413.63049;;-511.97993;;-624.10935;;-745.29034;;-863.46932;;-956.08684;;-1023.7078;;-1084.1368;;-1146.5517;;-1213.9095;;-1284.3884;;-1352.1394;;-1410.346;;-1455.4962;;-1488.7164;;-1513.322;;-1532.4316;;-1548.591;;-1563.8215;;-1579.2308;;-1594.9787;;-1610.7428;;-1625.9655;;-1639.8369;;-1651.507;;-1660.3507;;-1665.9292;;-1668.4094;;-1669.2682;;-1668.4461;;-1657.6948;;-1621.9959;;-1556.806;;-1481.5419;;-1430.5564;;-1430.5564
-16.98351;;-16.98351;;-16.98351;;-16.98351;;-16.98351;;-16.98351;;-16.98351;;-16.98351;;-16.98351;;-16.98351;;-16.98351;;-16.98351;;-16.98351;;-16.98351;;-16.983511;;-16.986181;;-18.002555;;-21.260856;;-26.216219;;-33.112278;;-42.425126;;-54.805449;;-71.24743;;-92.470082;;-119.90132;;-154.89843;;-199.60504;;-255.08793;;-323.30005;;-405.77522;;-503.34892;;-615.30095;;-737.65438;;-859.8373;;-960.31489;;-1033.686;;-1096.3953;;-1157.7012;;-1221.6094;;-1288.2331;;-1353.2633;;-1410.0848;;-1454.4679;;-1487.0011;;-1510.9487;;-1529.3636;;-1544.5989;;-1558.7073;;-1573.029;;-1587.776;;-1602.4785;;-1616.646;;-1629.9072;;-1641.7694;;-1651.2888;;-1656.9495;;-1657.9408;;-1656.2245;;-1653.5013;;-1641.9302;;-1604.2222;;-1534.1557;;-1452.7256;;-1397.3048;;-1397.3048
-16.98351;;-16.98351;;-16.98351;;-16.98351;;-16.98351;;-16.98351;;-16.98351;;-16.98351;;-16.98351;;-16.98351;;-16.98351;;-16.98351;;-16.98351;;-16.98351;;-16.98351;;-16.984235;;-17.629945;;-20.649771;;-25.335492;;-31.903059;;-40.805479;;-52.66816;;-68.457819;;-88.863634;;-115.27999;;-149.19871;;-192.29539;;-246.14376;;-312.52219;;-393.05577;;-488.7719;;-599.34284;;-721.58334;;-846.47384;;-954.3958;;-1033.7939;;-1098.8614;;-1159.3393;;-1220.4404;;-1284.2679;;-1347.9872;;-1405.0259;;-1450.2668;;-1483.5538;;-1507.9206;;-1526.3093;;-1540.9645;;-1554.0276;;-1567.0109;;-1580.1797;;-1593.222;;-1606.1761;;-1619.2193;;-1631.8163;;-1642.3903;;-1648.7444;;-1649.7436;;-1647.692;;-1645.8508;;-1639.2449;;-1613.0758;;-1560.1011;;-1496.3544;;-1452.703;;-1452.703
-16.98351;;-16.98351;;-16.98351;;-16.98351;;-16.98351;;-16.98351;;-16.98351;;-16.98351;;-16.98351;;-16.98351;;-16.98351;;-16.98351;;-16.98351;;-16.98351;;-16.98351;;-16.983646;;-17.260532;;-19.926007;;-24.250541;;-30.393877;;-38.767159;;-49.958137;;-64.734216;;-84.062454;;-109.29848;;-141.54969;;-182.67302;;-234.25849;;-298.04236;;-375.72898;;-468.53041;;-576.50749;;-697.25856;;-823.29773;;-937.39632;;-1021.9691;;-1088.2301;;-1147.7617;;-1207.3582;;-1270.5798;;-1335.3182;;-1394.6865;;-1442.6117;;-1478.0665;;-1503.7368;;-1522.6026;;-1536.9908;;-1548.9257;;-1559.5957;;-1569.2496;;-1578.6213;;-1589.595;;-1603.3406;;-1618.4328;;-1631.71;;-1640.4627;;-1644.0293;;-1644.8593;;-1646.5426;;-1647.1737;;-1637.1371;;-1609.9435;;-1573.889;;-1548.17;;-1548.17
-16.98351;;-16.98351;;-16.98351;;-16.98351;;-16.98351;;-16.98351;;-16.98351;;-16.98351;;-16.98351;;-16.98351;;-16.98351;;-16.98351;;-16.98351;;-16.98351;;-16.98351;;-16.983529;;-17.046997;;-19.145443;;-23.034233;;-28.687142;;-36.446555;;-46.852855;;-60.626814;;-78.683717;;-102.32075;;-132.58325;;-171.27911;;-220.0602;;-280.58783;;-354.61534;;-443.51839;;-547.72152;;-665.57832;;-791.1316;;-909.88589;;-999.57284;;-1066.0439;;-1124.3842;;-1183.6558;;-1248.3017;;-1316.1194;;-1379.53;;-1431.4866;;-1470.0502;;-1497.562;;-1517.2522;;-1531.6257;;-1542.1415;;-1548.8998;;-1551.9669;;-1554.3487;;-1561.8054;;-1577.4312;;-1597.9045;;-1616.8681;;-1630.4829;;-1638.8895;;-1644.7328;;-1650.8933;;-1657.0291;;-1658.3196;;-1650.6487;;-1637.0105;;-1626.3769;;-1626.3769
-16.98351;;-16.98351;;-16.98351;;-16.98351;;-16.98351;;-16.98351;;-16.98351;;-16.98351;;-16.98351;;-16.98351;;-16.98351;;-16.98351;;-16.98351;;-16.98351;;-16.98351;;-16.983512;;-16.990961;;-18.313646;;-21.723258;;-26.830657;;-33.898911;;-43.416449;;-56.049114;;-72.812138;;-94.437498;;-122.38406;;-158.21225;;-203.61812;;-260.19268;;-329.68767;;-413.61578;;-512.73921;;-626.15281;;-749.45312;;-871.10009;;-967.95203;;-1036.3844;;-1094.7068;;-1154.7273;;-1221.6535;;-1293.1686;;-1361.1573;;-1417.6862;;-1459.837;;-1489.5385;;-1510.2724;;-1524.6285;;-1533.2395;;-1534.8618;;-1529.4216;;-1522.7723;;-1525.5181;;-1543.3539;;-1570.9039;;-1597.8414;;-1618.2865;;-1632.6196;;-1643.6989;;-1653.6546;;-1662.433;;-1668.0142;;-1668.8156;;-1666.0897;;-1663.3122;;-1663.3122
-16.98351;;-16.98351;;-16.98351;;-16.98351;;-16.98351;;-16.98351;;-16.98351;;-16.98351;;-16.98351;;-16.98351;;-16.98351;;-16.98351;;-16.98351;;-16.98351;;-16.98351;;-16.98351;;-16.984055;;-17.516036;;-20.405001;;-24.916148;;-31.241171;;-39.809541;;-51.222385;;-66.421178;;-86.056398;;-111.49192;;-144.18229;;-185.81679;;-237.96663;;-302.32453;;-380.51125;;-473.59491;;-581.36808;;-700.90968;;-823.65933;;-930.21127;;-1005.8142;;-1067.2175;;-1128.9167;;-1197.3627;;-1271.1052;;-1342.41;;-1402.854;;-1448.4997;;-1480.6138;;-1502.584;;-1516.8195;;-1523.3672;;-1520.5077;;-1508.6678;;-1495.586;;-1494.6575;;-1513.4397;;-1545.8734;;-1579.4018;;-1606.1713;;-1625.7184;;-1640.7004;;-1653.0039;;-1662.6288;;-1668.7048;;-1671.2017;;-1671.4347;;-1671.0678;;-1671.0678
-16.98351;;-16.98351;;-16.98351;;-16.98351;;-16.98351;;-16.98351;;-16.98351;;-16.98351;;-16.98351;;-16.98351;;-16.98351;;-16.98351;;-16.98351;;-16.98351;;-16.98351;;-16.98351;;-16.983579;;-17.072925;;-19.237258;;-23.121896;;-28.726102;;-36.388259;;-46.638793;;-60.347425;;-78.085368;;-101.12612;;-130.82567;;-168.79271;;-216.67885;;-276.09043;;-348.72848;;-435.93658;;-538.12762;;-653.6967;;-776.85683;;-893.61041;;-982.59202;;-1050.4755;;-1114.132;;-1182.1636;;-1255.0876;;-1326.457;;-1387.9581;;-1435.1982;;-1469.2301;;-1493.1449;;-1508.4487;;-1514.571;;-1510.5983;;-1498.3795;;-1485.6923;;-1484.6522;;-1502.4257;;-1534.3939;;-1569.2557;;-1598.6378;;-1620.6397;;-1637.1645;;-1650.2104;;-1660.0723;;-1666.1785;;-1668.8528;;-1669.529;;-1669.5701;;-1669.5701
-16.98351;;-16.98351;;-16.98351;;-16.98351;;-16.98351;;-16.98351;;-16.98351;;-16.98351;;-16.98351;;-16.98351;;-16.98351;;-16.98351;;-16.98351;;-16.98351;;-16.98351;;-16.98351;;-16.983543;;-16.995015;;-18.290145;;-21.638279;;-26.642663;;-33.555015;;-42.851336;;-55.183453;;-71.547404;;-92.660512;;-119.96401;;-154.99397;;-199.49656;;-255.07606;;-323.47545;;-406.28685;;-504.44288;;-617.38947;;-741.45857;;-866.65404;;-971.88168;;-1048.311;;-1113.5617;;-1179.486;;-1248.5754;;-1315.2644;;-1371.6625;;-1414.9628;;-1448.8073;;-1476.7904;;-1497.6208;;-1508.1529;;-1508.2571;;-1501.8751;;-1495.8817;;-1498.3777;;-1514.3092;;-1541.4389;;-1572.1832;;-1599.3634;;-1620.0824;;-1635.4446;;-1647.6546;;-1657.4333;;-1664.1367;;-1667.5511;;-1668.6441;;-1668.7739;;-1668.7739
-16.98351;;-16.98351;;-16.98351;;-16.98351;;-16.98351;;-16.98351;;-16.98351;;-16.98351;;-16.98351;;-16.98351;;-16.98351;;-16.98351;;-16.98351;;-16.98351;;-16.98351;;-16.98351;;-16.983528;;-16.986654;;-17.63473;;-20.579728;;-25.136321;;-31.505929;;-40.12831;;-51.618006;;-66.931186;;-86.745648;;-112.45928;;-145.56713;;-187.84057;;-241.03688;;-306.89009;;-387.18256;;-483.22527;;-595.16385;;-720.6319;;-852.00613;;-971.22124;;-1057.001;;-1123.965;;-1187.9423;;-1251.8608;;-1309.0674;;-1352.0629;;-1383.1497;;-1413.5551;;-1448.938;;-1482.2696;;-1503.9223;;-1512.707;;-1514.79;;-1517.0026;;-1524.1787;;-1539.0292;;-1560.9486;;-1585.7049;;-1607.9767;;-1624.8918;;-1637.2544;;-1647.4666;;-1656.6409;;-1664.0173;;-1668.562;;-1670.3988;;-1670.7445;;-1670.7445
-16.98351;;-16.98351;;-16.98351;;-16.98351;;-16.98351;;-16.98351;;-16.98351;;-16.98351;;-16.98351;;-16.98351;;-16.98351;;-16.98351;;-16.98351;;-16.98351;;-16.98351;;-16.98351;;-16.983517;;-16.984574;;-17.267665;;-19.864219;;-24.08272;;-30.068768;;-38.227492;;-49.146301;;-63.755462;;-82.709943;;-107.38124;;-139.24276;;-180.05668;;-231.7228;;-295.98642;;-374.73092;;-469.5122;;-580.91201;;-707.36875;;-842.80224;;-971.88748;;-1067.7104;;-1138.1374;;-1202.2984;;-1262.0114;;-1307.7516;;-1332.3184;;-1345.9497;;-1370.8827;;-1415.4499;;-1465.1714;;-1501.3634;;-1519.9582;;-1529.1409;;-1537.2305;;-1548.1172;;-1563.1579;;-1582.0266;;-1602.1707;;-1619.8679;;-1632.9607;;-1642.3351;;-1650.4366;;-1658.6313;;-1666.2249;;-1671.6488;;-1674.2571;;-1674.9394;;-1674.9394
-16.98351;;-16.98351;;-16.98351;;-16.98351;;-16.98351;;-16.98351;;-16.98351;;-16.98351;;-16.98351;;-16.98351;;-16.98351;;-16.98351;;-16.98351;;-16.98351;;-16.983513;;-16.983527;;-16.983569;;-16.983939;;-17.087379;;-19.283534;;-23.19211;;-28.837343;;-36.58045;;-47.135694;;-60.941303;;-79.09608;;-102.78209;;-133.44069;;-172.8043;;-222.84176;;-285.33023;;-362.18161;;-455.1138;;-565.02481;;-690.97525;;-828.13928;;-963.61269;;-1070.445;;-1147.2611;;-1214.6873;;-1273.5411;;-1311.6864;;-1322.345;;-1322.5708;;-1343.1152;;-1393.8986;;-1454.8532;;-1500.7162;;-1524.9785;;-1537.4337;;-1548.5396;;-1562.3793;;-1578.9783;;-1597.1346;;-1614.9346;;-1630.0138;;-1641.0351;;-1648.8786;;-1655.759;;-1663.1316;;-1670.5378;;-1676.3092;;-1679.3749;;-1680.3105;;-1680.3105
-16.98351;;-16.98351;;-16.98351;;-16.98351;;-16.98351;;-16.98351;;-16.98351;;-16.98351;;-16.98351;;-16.98351;;-16.98351;;-16.98351;;-16.983511;;-16.98356;;-16.983956;;-16.985519;;-16.989233;;-16.995055;;-17.030185;;-18.699899;;-22.263432;;-27.520637;;-34.776432;;-44.707986;;-57.718975;;-74.86698;;-97.283983;;-126.35645;;-163.75328;;-211.43394;;-271.21711;;-344.97773;;-434.53316;;-541.03411;;-664.08892;;-800.02573;;-938.31628;;-1055.3386;;-1140.5078;;-1214.1896;;-1278.0276;;-1318.7668;;-1329.5626;;-1328.9148;;-1348.5426;;-1398.3006;;-1457.9805;;-1502.1363;;-1524.1878;;-1535.2113;;-1547.6776;;-1565.4321;;-1585.7347;;-1605.3058;;-1622.6978;;-1637.0908;;-1647.8632;;-1655.6385;;-1662.2444;;-1669.1308;;-1676.092;;-1681.6191;;-1684.5947;;-1685.4999;;-1685.4999
-16.98351;;-16.98351;;-16.98351;;-16.98351;;-16.98351;;-16.98351;;-16.98351;;-16.98351;;-16.98351;;-16.98351;;-16.98351;;-16.98351;;-16.983542;;-16.984201;;-16.988877;;-17.006335;;-17.046692;;-17.113489;;-17.240112;;-18.197988;;-21.326709;;-26.101726;;-32.757949;;-41.921601;;-53.946748;;-69.828697;;-90.628635;;-117.65168;;-152.47606;;-196.97012;;-252.98985;;-322.3169;;-406.7939;;-507.74739;;-625.23106;;-756.56884;;-893.39074;;-1016.2906;;-1108.4202;;-1189.8291;;-1265.7352;;-1321.9696;;-1348.4449;;-1359.0072;;-1380.6309;;-1423.1781;;-1471.6069;;-1505.4253;;-1519.5043;;-1525.8494;;-1538.8456;;-1561.6747;;-1587.593;;-1610.202;;-1628.4097;;-1643.1372;;-1654.4708;;-1662.7194;;-1669.32;;-1675.6443;;-1681.6845;;-1686.2897;;-1688.6507;;-1689.3042;;-1689.3042
-16.98351;;-16.98351;;-16.98351;;-16.98351;;-16.98351;;-16.98351;;-16.98351;;-16.98351;;-16.98351;;-16.98351;;-16.98351;;-16.983513;;-16.983794;;-16.988064;;-17.015084;;-17.110732;;-17.33795;;-17.831454;;-18.584832;;-19.164115;;-20.943331;;-24.921138;;-30.953417;;-39.074994;;-49.985001;;-64.44889;;-83.440088;;-108.16319;;-140.08324;;-180.94758;;-232.61049;;-296.74388;;-375.14164;;-469.22714;;-579.37396;;-703.68052;;-835.50992;;-958.9974;;-1054.249;;-1142.5417;;-1235.0258;;-1315.4423;;-1366.3412;;-1392.5422;;-1416.1879;;-1450.0279;;-1486.9324;;-1511.9259;;-1520.0195;;-1522.621;;-1535.4605;;-1561.671;;-1591.6498;;-1616.4698;;-1635.1278;;-1649.9129;;-1661.577;;-1670.174;;-1676.6272;;-1682.0057;;-1686.4985;;-1689.6466;;-1691.2507;;-1691.7623;;-1691.7623
-16.98351;;-16.98351;;-16.98351;;-16.98351;;-16.98351;;-16.98351;;-16.98351;;-16.98351;;-16.98351;;-16.98351;;-16.983528;;-16.983697;;-16.985633;;-17.004151;;-17.105621;;-17.451095;;-18.268651;;-19.560772;;-20.878984;;-21.675109;;-22.410023;;-24.986057;;-29.741131;;-36.788203;;-46.507224;;-59.545892;;-76.776066;;-99.296954;;-128.45764;;-165.87901;;-213.40528;;-272.64058;;-345.28435;;-432.82768;;-535.89943;;-653.2329;;-779.61613;;-902.03974;;-999.29275;;-1092.8594;;-1200.399;;-1303.7876;;-1377.6324;;-1416.5981;;-1440.2918;;-1467.5122;;-1499.3995;;-1524.2226;;-1534.465;;-1538.1989;;-1550.3787;;-1575.0772;;-1603.4377;;-1626.5891;;-1643.5678;;-1657.119;;-1668.3819;;-1677.1312;;-1683.4744;;-1687.8605;;-1690.6979;;-1692.4537;;-1693.5989;;-1694.2568;;-1694.2568
-16.98351;;-16.98351;;-16.98351;;-16.98351;;-16.98351;;-16.98351;;-16.98351;;-16.98351;;-16.98351;;-16.983511;;-16.983711;;-16.985504;;-16.996574;;-17.060715;;-17.361292;;-18.31621;;-19.95947;;-21.974371;;-23.857095;;-25.079541;;-25.693899;;-27.425094;;-30.744511;;-36.085903;;-44.306978;;-55.874794;;-71.496389;;-92.140407;;-119.04137;;-153.71044;;-197.9359;;-253.42374;;-321.75177;;-404.5143;;-502.63631;;-615.50912;;-739.32243;;-863.80316;;-968.56467;;-1067.1047;;-1182.7172;;-1298.6834;;-1386.3183;;-1433.0923;;-1456.3565;;-1480.2078;;-1512.2984;;-1542.7839;;-1561.0273;;-1570.0143;;-1581.4029;;-1600.2936;;-1621.6293;;-1639.256;;-1652.4819;;-1663.6787;;-1673.9924;;-1682.839;;-1689.351;;-1693.2511;;-1695.0944;;-1696.0119;;-1696.8661;;-1697.574;;-1697.574
-16.98351;;-16.98351;;-16.98351;;-16.98351;;-16.98351;;-16.98351;;-16.98351;;-16.98351;;-16.98351;;-16.983518;;-16.984577;;-16.994082;;-17.041155;;-17.240144;;-18.074777;;-19.834991;;-22.204913;;-24.88711;;-27.469862;;-28.866221;;-29.557942;;-31.166;;-34.187356;;-38.310102;;-44.002997;;-53.61208;;-67.584631;;-86.587835;;-111.67311;;-144.23133;;-185.97368;;-238.791;;-304.22657;;-383.98475;;-479.3613;;-590.46326;;-714.89946;;-845.19129;;-964.98498;;-1070.356;;-1186.2214;;-1302.8619;;-1394.7038;;-1447.3575;;-1473.8467;;-1498.0328;;-1530.6727;;-1564.6291;;-1588.929;;-1602.6514;;-1613.1588;;-1625.6108;;-1639.0223;;-1650.6309;;-1660.1615;;-1669.2871;;-1678.8575;;-1687.879;;-1694.6931;;-1698.5012;;-1699.8403;;-1699.9355;;-1699.7816;;-1699.7295;;-1699.7295
-16.98351;;-16.98351;;-16.98351;;-16.98351;;-16.98351;;-16.98351;;-16.98351;;-16.98351;;-16.98351;;-16.983539;;-16.987077;;-17.019132;;-17.167864;;-17.762914;;-19.380367;;-21.789147;;-24.777069;;-28.147355;;-31.104329;;-32.798491;;-33.575689;;-35.100369;;-37.837806;;-41.339016;;-45.284494;;-51.835015;;-63.904135;;-81.209487;;-104.4931;;-134.99597;;-174.334;;-224.44992;;-287.09514;;-363.96457;;-456.70534;;-566.08967;;-691.0157;;-826.58261;;-960.94291;;-1077.5702;;-1190.1693;;-1301.4987;;-1394.0538;;-1455.0521;;-1491.2273;;-1520.3821;;-1552.6564;;-1584.7113;;-1609.0069;;-1623.8066;;-1633.2225;;-1641.5119;;-1649.9864;;-1658.1745;;-1666.131;;-1674.8255;;-1684.5187;;-1693.753;;-1700.4421;;-1703.5794;;-1703.6118;;-1701.68;;-1699.1181;;-1697.3373;;-1697.3373
-16.98351;;-16.98351;;-16.98351;;-16.98351;;-16.98351;;-16.98351;;-16.98351;;-16.98351;;-16.983511;;-16.983624;;-16.99239;;-17.071942;;-17.468665;;-18.783966;;-21.003781;;-23.910566;;-27.485878;;-31.108051;;-34.35709;;-36.218768;;-37.061091;;-38.352712;;-40.432413;;-42.881098;;-45.563562;;-49.556888;;-59.343492;;-74.589174;;-95.616175;;-123.44915;;-159.56542;;-205.81477;;-264.16551;;-336.2612;;-423.93405;;-528.46843;;-649.77787;;-784.94246;;-925.47543;;-1054.035;;-1166.0589;;-1272.9145;;-1367.4309;;-1439.9096;;-1491.6609;;-1531.9825;;-1567.2887;;-1597.2404;;-1619.1007;;-1632.8557;;-1641.4512;;-1648.2801;;-1655.3113;;-1663.0468;;-1671.6751;;-1681.4968;;-1691.9553;;-1701.0791;;-1706.6306;;-1707.6737;;-1704.8338;;-1699.6554;;-1694.234;;-1690.7959;;-1690.7959
-16.98351;;-16.98351;;-16.98351;;-16.98351;;-16.98351;;-16.98351;;-16.98351;;-16.98351;;-16.983543;;-16.984334;;-17.004377;;-17.185733;;-18.177439;;-20.188352;;-22.917988;;-26.21803;;-29.965922;;-33.53945;;-36.444469;;-38.057045;;-38.890086;;-39.835553;;-41.071502;;-42.366267;;-43.992214;;-46.757511;;-53.841513;;-66.697178;;-84.962172;;-109.4051;;-141.31083;;-182.33918;;-234.45645;;-299.29687;;-378.62815;;-474.00559;;-586.0064;;-713.15061;;-849.85075;;-983.28788;;-1098.6488;;-1203.7128;;-1300.66;;-1384.6523;;-1455.015;;-1513.9262;;-1561.7926;;-1597.459;;-1621.1623;;-1635.5948;;-1644.6603;;-1651.8531;;-1659.2748;;-1667.6989;;-1677.3944;;-1688.3226;;-1699.3459;;-1707.9824;;-1711.7636;;-1709.9761;;-1704.0154;;-1696.4605;;-1690.0057;;-1686.4655;;-1686.4655
-16.98351;;-16.98351;;-16.98351;;-16.98351;;-16.98351;;-16.98351;;-16.98351;;-16.983512;;-16.983797;;-16.988304;;-17.041342;;-17.597595;;-19.386502;;-21.986673;;-25.22141;;-28.967612;;-32.585427;;-35.549469;;-37.394917;;-38.389054;;-38.97671;;-39.511116;;-40.005617;;-40.447788;;-41.377567;;-43.647633;;-48.4105;;-58.634679;;-73.865872;;-94.596112;;-121.86151;;-157.07937;;-201.98636;;-258.2251;;-327.32936;;-410.89056;;-509.82595;;-623.59289;;-748.75079;;-876.66929;;-993.34011;;-1097.8063;;-1196.1291;;-1289.5527;;-1379.0319;;-1462.4602;;-1533.1517;;-1585.0751;;-1618.0355;;-1637.0602;;-1648.3899;;-1656.6232;;-1664.0941;;-1671.7581;;-1680.4084;;-1690.6928;;-1701.7901;;-1710.6963;;-1714.0463;;-1711.0536;;-1704.238;;-1697.3295;;-1692.8383;;-1691.031;;-1691.031
-16.98351;;-16.98351;;-16.98351;;-16.98351;;-16.98351;;-16.98351;;-16.983515;;-16.983561;;-16.984991;;-17.002439;;-17.197495;;-18.576114;;-20.971012;;-24.11023;;-27.825052;;-31.901576;;-35.467004;;-37.343259;;-37.76573;;-37.862965;;-38.004693;;-38.168326;;-38.206415;;-38.200347;;-38.79224;;-40.813043;;-44.415655;;-51.437218;;-63.521411;;-80.561244;;-103.26146;;-132.75724;;-170.50715;;-218.07331;;-276.74307;;-347.99842;;-432.90127;;-531.49132;;-641.80215;;-758.30697;;-871.03467;;-975.07878;;-1075.5282;;-1178.3234;;-1286.4593;;-1395.4178;;-1492.7408;;-1566.39;;-1613.4118;;-1639.9579;;-1654.5655;;-1663.1892;;-1668.6238;;-1672.4569;;-1676.9322;;-1684.6579;;-1696.0164;;-1707.3701;;-1713.5584;;-1712.881;;-1708.5292;;-1704.9274;;-1703.8992;;-1704.2818;;-1704.2818
-16.98351;;-16.98351;;-16.98351;;-16.98351;;-16.983511;;-16.983579;;-16.984144;;-16.986535;;-16.996358;;-17.056569;;-17.764585;;-19.813513;;-22.715746;;-26.337364;;-30.592084;;-34.82556;;-38.260816;;-38.9476;;-38.059641;;-37.241748;;-36.926246;;-36.898474;;-36.850839;;-36.791382;;-37.254031;;-38.95553;;-41.99173;;-46.303888;;-54.890962;;-68.298292;;-86.722325;;-110.95138;;-142.13475;;-181.68377;;-230.7468;;-290.59384;;-362.3575;;-446.49389;;-542.16115;;-646.31561;;-753.36084;;-859.82356;;-968.87741;;-1085.6853;;-1212.1411;;-1341.6681;;-1459.8951;;-1551.8211;;-1611.7848;;-1645.5165;;-1662.5656;;-1669.9178;;-1671.2916;;-1669.6212;;-1669.0697;;-1674.2321;;-1686.5613;;-1701.8007;;-1712.9739;;-1716.9472;;-1716.6255;;-1716.4851;;-1717.9474;;-1719.5207;;-1719.5207
-16.98351;;-16.98351;;-16.98351;;-16.983525;;-16.983644;;-16.984703;;-16.991208;;-17.015836;;-17.097645;;-17.374862;;-18.568327;;-20.950353;;-24.167595;;-28.101639;;-32.603582;;-36.949489;;-40.053018;;-39.973106;;-38.480138;;-37.196562;;-36.671537;;-36.707032;;-36.901765;;-37.087741;;-37.52735;;-38.751655;;-41.064695;;-44.364502;;-49.086966;;-58.813377;;-73.414832;;-93.186788;;-118.94444;;-151.8345;;-193.05196;;-243.64535;;-304.83369;;-377.49818;;-461.85806;;-557.1464;;-661.91588;;-776.41844;;-902.41708;;-1038.6725;;-1180.962;;-1321.7571;;-1448.9909;;-1549.1443;;-1615.6542;;-1652.7797;;-1669.8074;;-1674.6797;;-1672.6872;;-1668.19;;-1666.0098;;-1670.7866;;-1683.8937;;-1701.068;;-1715.1121;;-1722.2413;;-1724.5669;;-1726.0796;;-1728.1991;;-1729.8586;;-1729.8586
-16.98351;;-16.98351;;-16.98357;;-16.984243;;-16.987758;;-17.001325;;-17.050698;;-17.292348;;-18.098528;;-18.901942;;-19.810449;;-21.836497;;-24.906845;;-28.745559;;-33.107905;;-37.16568;;-39.818233;;-39.993779;;-38.929409;;-37.941582;;-37.630199;;-37.939681;;-38.501955;;-39.021083;;-39.525063;;-40.37903;;-42.010261;;-44.624575;;-48.057192;;-53.104122;;-64.184491;;-80.465504;;-102.26222;;-130.44652;;-166.23848;;-210.81767;;-265.54995;;-332.04268;;-412.00516;;-507.30425;;-619.64408;;-749.40548;;-893.82529;;-1046.0823;;-1196.599;;-1336.8678;;-1459.8756;;-1556.6817;;-1621.3746;;-1656.8589;;-1672.0244;;-1675.8941;;-1675.0923;;-1673.9534;;-1675.4565;;-1681.8944;;-1693.7164;;-1707.8417;;-1719.1717;;-1725.0431;;-1727.2077;;-1728.8638;;-1731.0821;;-1732.7853;;-1732.7853
-16.983515;;-16.983515;;-16.984096;;-16.990246;;-17.020455;;-17.121724;;-17.558106;;-18.811144;;-20.327701;;-21.45741;;-22.220897;;-23.536605;;-25.756152;;-28.963573;;-32.44413;;-35.720727;;-38.134077;;-39.273322;;-39.434682;;-39.315908;;-39.499522;;-40.140681;;-41.034451;;-41.862302;;-42.491111;;-43.145327;;-44.292394;;-46.294468;;-49.049425;;-52.31266;;-61.336201;;-76.442051;;-97.397722;;-125.02161;;-160.68117;;-206.15113;;-263.33319;;-334.05689;;-420.41199;;-524.19986;;-646.41918;;-786.36143;;-940.06755;;-1098.1087;;-1245.1837;;-1372.3121;;-1479.8316;;-1563.7297;;-1619.697;;-1650.8583;;-1666.0219;;-1674.0053;;-1680.5224;;-1687.6334;;-1695.1322;;-1702.6835;;-1710.1844;;-1716.5504;;-1720.0425;;-1720.6535;;-1720.9016;;-1723.1495;;-1726.9868;;-1729.9266;;-1729.9266
-16.983534;;-16.983534;;-16.986273;;-17.014537;;-17.155176;;-17.735485;;-19.227411;;-21.276875;;-23.389269;;-24.810796;;-25.46054;;-26.483412;;-27.768261;;-29.708935;;-31.800582;;-34.193039;;-36.664075;;-38.794531;;-40.228751;;-41.044796;;-41.724334;;-42.615049;;-43.715612;;-44.76253;;-45.512025;;-46.064621;;-46.874721;;-48.310537;;-50.273584;;-55.376206;;-67.752184;;-85.745786;;-109.84072;;-141.20393;;-181.44059;;-232.5264;;-296.38316;;-375.08723;;-470.72901;;-584.8856;;-717.94023;;-867.82199;;-1027.7161;;-1182.5384;;-1311.2101;;-1412.7538;;-1495.7714;;-1560.0865;;-1604.6587;;-1633.8752;;-1654.8908;;-1672.9634;;-1689.9013;;-1704.7469;;-1715.5861;;-1721.3823;;-1722.3215;;-1719.0144;;-1712.7669;;-1706.8549;;-1705.5852;;-1710.5756;;-1718.6623;;-1724.4993;;-1724.4993
-16.983654;;-16.983654;;-16.992242;;-17.080863;;-17.671779;;-19.327143;;-21.685617;;-24.465848;;-27.184255;;-28.862673;;-29.383093;;-29.740189;;-30.333239;;-31.02989;;-32.137005;;-34.0248;;-36.593472;;-39.275028;;-41.424199;;-42.822786;;-43.770282;;-44.694534;;-45.804956;;-46.945001;;-47.788898;;-48.320042;;-48.940412;;-49.93157;;-52.781314;;-63.313358;;-79.462598;;-101.45529;;-130.29077;;-167.43602;;-214.7489;;-274.21964;;-347.90808;;-438.039;;-546.53084;;-674.42084;;-820.82611;;-981.0696;;-1142.9654;;-1281.0926;;-1377.7748;;-1447.4468;;-1502.2192;;-1546.2643;;-1582.9845;;-1616.5121;;-1648.7841;;-1678.4798;;-1702.9631;;-1720.2996;;-1729.6668;;-1731.1119;;-1725.1786;;-1713.1765;;-1698.5165;;-1687.4891;;-1686.4243;;-1696.0645;;-1709.914;;-1719.396;;-1719.396
-16.984367;;-16.984367;;-17.008249;;-17.402842;;-19.080647;;-21.598273;;-24.75545;;-28.231588;;-31.523895;;-33.460757;;-33.280101;;-32.621686;;-32.026489;;-32.091629;;-33.148784;;-35.168319;;-37.828172;;-40.578172;;-42.87111;;-44.428857;;-45.362263;;-46.076976;;-46.987461;;-48.125352;;-49.289692;;-50.939066;;-53.177661;;-55.277477;;-61.58022;;-75.53228;;-95.672774;;-122.56099;;-157.45981;;-202.09178;;-258.47504;;-328.53797;;-414.5641;;-518.68219;;-642.41315;;-785.74582;;-945.2848;;-1111.2747;;-1261.6583;;-1365.6964;;-1428.4987;;-1470.1623;;-1502.8503;;-1534.8068;;-1571.7424;;-1614.2631;;-1656.9482;;-1692.7658;;-1717.7919;;-1731.9805;;-1736.9717;;-1733.8248;;-1722.7492;;-1704.9583;;-1685.1659;;-1671.7734;;-1672.2212;;-1686.0803;;-1704.2902;;-1716.2953;;-1716.2953
-16.987382;;-16.987382;;-17.125855;;-18.559505;;-21.033824;;-24.281358;;-28.145353;;-32.293634;;-36.259747;;-37.906067;;-36.550169;;-34.161236;;-32.412589;;-32.454152;;-34.196856;;-36.805428;;-39.615562;;-42.205047;;-44.326483;;-45.790731;;-46.608843;;-47.482577;;-49.273328;;-52.221876;;-56.215888;;-60.516357;;-64.339418;;-67.376195;;-74.774716;;-91.758639;;-116.33187;;-149.04742;;-191.31354;;-245.07325;;-312.25892;;-394.90601;;-495.24389;;-614.92904;;-754.35661;;-911.23018;;-1077.7464;;-1235.2279;;-1350.0156;;-1415.8366;;-1454.9232;;-1482.3398;;-1508.4158;;-1541.3155;;-1584.5059;;-1633.5541;;-1678.6183;;-1711.7152;;-1731.1262;;-1739.7222;;-1740.6707;;-1734.8751;;-1721.677;;-1701.954;;-1680.9574;;-1667.6542;;-1669.1729;;-1684.1111;;-1702.8235;;-1714.9039;;-1714.9039
-17.004113;;-17.004113;;-17.835445;;-20.066293;;-23.186282;;-27.081176;;-31.550831;;-36.41175;;-40.55187;;-41.20924;;-38.288572;;-34.78831;;-32.469197;;-32.898094;;-35.40781;;-38.578508;;-41.461019;;-43.766957;;-45.59756;;-47.463257;;-51.187299;;-55.143632;;-58.694146;;-63.138666;;-68.949014;;-75.216111;;-80.609263;;-84.718729;;-92.272928;;-112.07591;;-141.54698;;-180.92141;;-231.67007;;-295.89452;;-375.28796;;-471.93376;;-587.65211;;-723.09282;;-876.51755;;-1041.278;;-1200.7811;;-1321.6623;;-1390.783;;-1433.0593;;-1465.4445;;-1496.2687;;-1530.6676;;-1571.9987;;-1619.3975;;-1666.3328;;-1704.1906;;-1728.3548;;-1740.2829;;-1744.258;;-1743.2109;;-1737.2085;;-1724.9539;;-1706.9754;;-1687.9977;;-1675.8727;;-1676.497;;-1688.4605;;-1703.6747;;-1713.5481;;-1713.5481
-17.207465;;-17.207465;;-18.966666;;-21.765261;;-25.421641;;-29.85921;;-34.814051;;-40.021638;;-43.970766;;-42.964554;;-39.387267;;-35.718587;;-33.579105;;-34.541649;;-37.379563;;-40.628718;;-43.262665;;-45.289429;;-49.170793;;-55.344698;;-61.947477;;-67.90819;;-72.944041;;-78.947052;;-86.703082;;-95.073866;;-102.25782;;-107.68908;;-115.16233;;-136.8047;;-171.29305;;-217.95721;;-278.11147;;-353.89802;;-446.59015;;-558.07125;;-689.31385;;-839.10204;;-1001.7686;;-1162.4221;;-1288.6757;;-1359.7483;;-1402.4779;;-1440.0031;;-1481.3737;;-1526.5006;;-1573.1344;;-1619.3724;;-1662.4888;;-1698.46;;-1723.8552;;-1738.3201;;-1744.6764;;-1746.3963;;-1745.2054;;-1740.6219;;-1731.3103;;-1717.3799;;-1702.0833;;-1691.1312;;-1689.0963;;-1695.5477;;-1705.1325;;-1711.6861;;-1711.6861
-18.112688;;-18.112688;;-20.399642;;-23.729476;;-27.952553;;-32.9293;;-38.55561;;-43.966291;;-47.425587;;-44.990923;;-41.019147;;-37.598481;;-36.112314;;-37.460956;;-40.24466;;-43.091416;;-45.637463;;-51.086484;;-58.87411;;-68.042551;;-77.359811;;-85.434793;;-92.073557;;-99.859376;;-109.91753;;-120.78991;;-130.13607;;-137.22616;;-145.18135;;-166.81616;;-205.85393;;-260.00423;;-330.05109;;-417.9582;;-524.30208;;-650.32952;;-795.50881;;-955.42293;;-1117.6231;;-1253.6069;;-1334.5301;;-1379.9682;;-1417.5024;;-1463.2818;;-1518.5393;;-1575.6102;;-1626.8104;;-1668.1982;;-1699.0464;;-1720.345;;-1733.8308;;-1741.515;;-1745.3609;;-1746.8245;;-1746.4492;;-1743.8046;;-1737.974;;-1728.6579;;-1717.3719;;-1707.5712;;-1702.7574;;-1703.7198;;-1707.8115;;-1711.1309;;-1711.1309
-19.329063;;-19.329063;;-21.933766;;-25.700093;;-30.448999;;-35.984331;;-42.191533;;-48.054102;;-51.185799;;-47.763558;;-43.349867;;-40.152244;;-39.413003;;-41.003508;;-43.525711;;-46.42995;;-52.740088;;-61.841064;;-72.967474;;-85.306917;;-97.67576;;-108.24057;;-116.75722;;-126.6553;;-139.48529;;-153.3896;;-165.38138;;-174.55132;;-183.897;;-204.33439;;-245.93736;;-306.73552;;-386.25719;;-485.83199;;-604.96206;;-743.47511;;-898.34649;;-1060.0037;;-1205.933;;-1305.8225;;-1367.0935;;-1411.6294;;-1457.5419;;-1513.2044;;-1574.6441;;-1631.6408;;-1676.0654;;-1705.4518;;-1722.1335;;-1730.8548;;-1736.1196;;-1740.3603;;-1743.8833;;-1746.1468;;-1746.8405;;-1745.8823;;-1742.9536;;-1737.5807;;-1729.9806;;-1721.8316;;-1715.6821;;-1713.0427;;-1713.1941;;-1714.0653;;-1714.0653
-20.363638;;-20.363638;;-23.203848;;-27.307018;;-32.474786;;-38.479691;;-45.189458;;-51.485535;;-54.513995;;-50.470164;;-45.6557;;-42.572677;;-42.451718;;-44.253641;;-47.180187;;-54.016125;;-64.080385;;-76.766412;;-91.532121;;-107.62617;;-123.65275;;-137.21423;;-147.96083;;-160.29614;;-176.27125;;-193.66613;;-208.77364;;-220.5117;;-232.60071;;-253.09237;;-294.15836;;-358.53412;;-445.27517;;-554.26722;;-683.51903;;-830.08991;;-987.19127;;-1138.3354;;-1256.3813;;-1340.0306;;-1404.7602;;-1462.1;;-1519.6022;;-1578.3017;;-1633.3092;;-1678.2908;;-1709.4356;;-1726.6789;;-1733.2373;;-1734.3726;;-1735.1106;;-1737.8098;;-1741.7319;;-1744.9949;;-1746.634;;-1746.8131;;-1745.7695;;-1743.1865;;-1738.6972;;-1732.8454;;-1727.2134;;-1723.2885;;-1721.3588;;-1720.7266;;-1720.7266
-21.173789;;-21.173789;;-24.179469;;-28.518178;;-33.975394;;-40.297306;;-47.327433;;-53.848936;;-56.523568;;-52.165784;;-47.246546;;-44.413493;;-44.751153;;-47.461364;;-54.731929;;-65.506946;;-79.378661;;-96.071663;;-115.15884;;-135.805;;-156.17912;;-173.15013;;-186.36743;;-201.3749;;-220.92152;;-242.37571;;-261.19158;;-276.11453;;-291.68108;;-315.51725;;-356.5169;;-419.91561;;-507.89204;;-620.31198;;-753.66249;;-900.09352;;-1048.4081;;-1179.0399;;-1282.7126;;-1368.5406;;-1445.4583;;-1517.3677;;-1582.5792;;-1636.8232;;-1677.8126;;-1706.6598;;-1725.4455;;-1735.2954;;-1737.5975;;-1735.785;;-1734.3947;;-1736.065;;-1740.0601;;-1743.9611;;-1746.2703;;-1747.1043;;-1747.0462;;-1746.1249;;-1743.9607;;-1740.5495;;-1736.6174;;-1733.1262;;-1730.6462;;-1729.3618;;-1729.3618
-21.926101;;-21.926101;;-25.0623;;-29.580799;;-35.245683;;-41.76299;;-48.934762;;-55.400588;;-57.075167;;-52.705883;;-48.163132;;-45.947726;;-47.519207;;-54.845874;;-66.059935;;-80.752123;;-98.922625;;-120.29663;;-144.45956;;-170.41306;;-195.83624;;-216.75032;;-232.75783;;-250.68108;;-274.13341;;-300.11157;;-323.21094;;-342.0574;;-362.11015;;-391.83744;;-436.96684;;-500.76613;;-584.53215;;-689.82451;;-813.67253;;-944.87091;;-1073.7662;;-1192.71;;-1296.9236;;-1388.1951;;-1473.7806;;-1555.3509;;-1624.8917;;-1673.8194;;-1702.6063;;-1719.2872;;-1730.6011;;-1737.7363;;-1739.6515;;-1737.6082;;-1735.3951;;-1736.0432;;-1739.4606;;-1743.3989;;-1746.0541;;-1747.25;;-1747.6157;;-1747.4819;;-1746.7176;;-1745.1969;;-1743.103;;-1740.8227;;-1738.7967;;-1737.5502;;-1737.5502
-22.63453;;-22.63453;;-25.881155;;-30.546985;;-36.370548;;-43.005812;;-50.196024;;-56.413454;;-56.929394;;-52.824291;;-49.065174;;-48.178354;;-54.607546;;-65.794486;;-80.897386;;-99.996609;;-122.9724;;-149.71696;;-179.8644;;-212.09365;;-243.38658;;-268.72768;;-287.70867;;-308.54341;;-335.90746;;-366.57772;;-394.43064;;-418.11254;;-443.95888;;-481.1023;;-534.49215;;-603.34581;;-684.63674;;-775.21022;;-870.88916;;-974.42858;;-1089.1569;;-1204.9186;;-1306.636;;-1392.1585;;-1475.3228;;-1561.6611;;-1637.806;;-1688.5282;;-1713.6305;;-1725.1252;;-1733.049;;-1739.2043;;-1741.592;;-1740.1942;;-1737.8861;;-1737.6139;;-1739.9612;;-1743.3471;;-1746.0086;;-1747.3972;;-1747.9255;;-1748.0529;;-1747.9001;;-1747.421;;-1746.5971;;-1745.4859;;-1744.2996;;-1743.4832;;-1743.4832
-23.337148;;-23.337148;;-26.695674;;-31.511937;;-37.499479;;-44.260653;;-51.469964;;-57.415969;;-57.144941;;-53.384119;;-50.445369;;-54.299952;;-64.855999;;-79.877743;;-99.265724;;-123.21276;;-151.6752;;-184.75062;;-221.88004;;-261.30909;;-299.1399;;-329.15995;;-351.01302;;-374.28153;;-404.87195;;-439.72436;;-472.52927;;-502.28003;;-535.80946;;-582.09546;;-645.016;;-721.23983;;-801.59674;;-875.01693;;-943.39199;;-1027.6662;;-1133.3691;;-1240.6488;;-1324.8591;;-1386.8291;;-1455.3328;;-1542.5591;;-1629.1915;;-1689.9769;;-1719.5005;;-1730.8992;;-1737.0657;;-1741.7608;;-1743.834;;-1742.9559;;-1740.9268;;-1740.0017;;-1741.148;;-1743.6371;;-1746.0337;;-1747.4894;;-1748.0869;;-1748.262;;-1748.2797;;-1748.1927;;-1747.9686;;-1747.5751;;-1747.0765;;-1746.701;;-1746.701
-24.483774;;-24.483774;;-28.039437;;-33.127918;;-39.42927;;-46.62821;;-53.861247;;-59.563832;;-58.46101;;-54.653026;;-54.131591;;-63.389571;;-77.796006;;-96.906469;;-121.04041;;-150.39606;;-185.2103;;-225.50961;;-270.48807;;-317.80653;;-362.44644;;-396.89285;;-420.94961;;-445.25721;;-476.97727;;-514.08735;;-551.57276;;-589.41437;;-633.6427;;-691.29119;;-764.41542;;-846.88063;;-924.19011;;-983.75346;;-1037.1481;;-1113.1599;;-1213.7733;;-1308.9553;;-1367.6721;;-1397.9535;;-1444.1945;;-1525.8447;;-1619.0805;;-1689.2972;;-1724.7031;;-1737.3439;;-1742.0222;;-1744.7292;;-1745.8204;;-1745.1126;;-1743.4509;;-1742.2231;;-1742.4651;;-1744.1148;;-1746.1303;;-1747.5321;;-1748.1447;;-1748.3184;;-1748.3591;;-1748.366;;-1748.3293;;-1748.2205;;-1748.0527;;-1747.9136;;-1747.9136
-26.405399;;-26.405399;;-30.296526;;-35.850258;;-42.837356;;-50.405959;;-57.948166;;-63.148505;;-60.681281;;-56.456212;;-61.887709;;-74.817663;;-93.030312;;-116.55603;;-145.9452;;-181.35208;;-223.20207;;-271.3728;;-324.67861;;-379.96075;;-430.76481;;-468.36293;;-492.91247;;-515.29955;;-543.62477;;-578.99033;;-621.001;;-670.74788;;-730.30203;;-802.15032;;-885.79557;;-972.20117;;-1044.4469;;-1092.9319;;-1138.0243;;-1211.5286;;-1311.0466;;-1399.001;;-1440.9377;;-1449.0909;;-1474.1597;;-1540.7855;;-1626.5406;;-1694.6792;;-1730.1377;;-1742.4023;;-1745.6949;;-1746.7965;;-1746.9779;;-1746.2364;;-1744.8921;;-1743.7372;;-1743.6399;;-1744.7793;;-1746.4019;;-1747.6109;;-1748.1569;;-1748.3118;;-1748.3536;;-1748.3767;;-1748.3724;;-1748.3169;;-1748.2184;;-1748.1332;;-1748.1332
