-10.916893;;-10.916893;;-10.921697;;-11.377509;;-12.505583;;-14.117662;;-16.228941;;-18.90634;;-22.199881;;-26.148339;;-30.992249;;-36.233394;;-41.831842;;-47.210895;;-51.746533;;-57.068892;;-64.676457;;-75.364252;;-89.700986;;-108.02562;;-130.6316;;-157.46709;;-188.00019;;-221.73919;;-258.0031;;-296.11324;;-335.17428;;-373.7294;;-409.93877;;-442.41269;;-470.98193;;-496.46511;;-519.74586;;-541.0521;;-560.03954;;-576.59109;;-591.2359;;-604.62845;;-617.02027;;-628.36775;;-638.563;;-647.48606;;-655.06623;;-661.30631;;-666.22946;;-669.98891;;-673.12517;;-676.53495;;-680.94507;;-686.42015;;-692.47912;;-698.483;;-703.70063;;-707.32472;;-708.91076;;-708.77026;;-707.60815;;-705.96155;;-704.48178;;-704.19518;;-705.48957;;-707.37201;;-708.59385;;-708.90067;;-708.90067
-10.916899;;-10.916899;;-10.929774;;-11.519197;;-12.724885;;-14.419317;;-16.629542;;-19.428752;;-22.867734;;-26.992904;;-32.04792;;-37.523909;;-43.366543;;-48.943684;;-53.483727;;-58.978428;;-67.151889;;-78.549028;;-93.559959;;-112.50872;;-135.67399;;-162.85133;;-193.49862;;-227.04509;;-262.88306;;-300.49063;;-339.00005;;-376.92572;;-412.41636;;-444.01309;;-471.51876;;-495.97935;;-518.61753;;-539.80395;;-559.14218;;-576.37976;;-591.80166;;-605.74266;;-618.2426;;-629.2531;;-638.78839;;-646.88062;;-653.63061;;-659.23077;;-663.86597;;-667.78005;;-671.48439;;-675.6766;;-680.79658;;-686.728;;-692.96948;;-698.90459;;-703.82261;;-707.03167;;-708.33413;;-708.29748;;-707.74734;;-707.11877;;-706.67373;;-706.90705;;-707.96803;;-709.14336;;-709.67849;;-709.68337;;-709.68337
-10.916924;;-10.916924;;-10.955786;;-11.704542;;-13.009466;;-14.808765;;-17.145505;;-20.101328;;-23.729086;;-28.084573;;-33.415794;;-39.205986;;-45.389075;;-51.285021;;-55.994174;;-62.039198;;-71.305234;;-83.994327;;-100.30068;;-120.49371;;-144.74676;;-172.58314;;-203.43132;;-236.56354;;-271.48461;;-307.8777;;-344.93318;;-381.2738;;-415.21255;;-445.28533;;-471.24517;;-494.39401;;-516.31075;;-537.45208;;-557.33339;;-575.59796;;-592.25983;;-607.18007;;-620.00879;;-630.59708;;-639.10926;;-645.87886;;-651.36909;;-656.06787;;-660.32733;;-664.47754;;-669.00893;;-674.35893;;-680.52683;;-687.06038;;-693.37073;;-698.91604;;-703.17374;;-705.78148;;-706.9111;;-707.33461;;-707.8405;;-708.62646;;-709.47966;;-710.27214;;-710.83449;;-710.74937;;-709.92633;;-709.08675;;-709.08675
-10.916958;;-10.916958;;-10.98377;;-11.813165;;-13.17504;;-15.035116;;-17.445505;;-20.493223;;-24.233935;;-28.729803;;-34.235322;;-40.235098;;-46.677748;;-52.918106;;-58.19742;;-65.51074;;-76.388169;;-90.815405;;-108.90131;;-130.84286;;-156.39998;;-185.06078;;-216.01952;;-248.37529;;-281.77479;;-316.0442;;-350.51088;;-384.19487;;-415.85128;;-444.14788;;-468.77543;;-491.0878;;-512.74061;;-534.08024;;-554.51971;;-573.73467;;-591.62913;;-607.65016;;-620.98319;;-631.2643;;-638.77857;;-644.25654;;-648.63413;;-652.6915;;-656.83612;;-661.3793;;-666.77267;;-673.24438;;-680.38344;;-687.34216;;-693.3657;;-698.0591;;-701.34162;;-703.3909;;-704.69187;;-705.93864;;-707.60971;;-709.59888;;-711.38874;;-712.4579;;-712.32853;;-710.65299;;-707.90331;;-705.71783;;-705.71783
-10.916948;;-10.916948;;-10.976262;;-11.787369;;-13.135556;;-14.981081;;-17.374445;;-20.402302;;-24.123294;;-28.601464;;-34.100586;;-40.122451;;-46.670544;;-53.271291;;-59.802946;;-69.171273;;-82.052368;;-98.50743;;-118.66784;;-142.34119;;-169.13758;;-198.36435;;-228.90752;;-259.84475;;-291.07407;;-322.50485;;-353.67934;;-384.17833;;-413.34034;;-440.08346;;-464.02391;;-486.28364;;-508.21694;;-529.9093;;-550.72621;;-570.49081;;-589.16564;;-605.96996;;-619.72055;;-629.84111;;-636.72353;;-641.4567;;-645.35717;;-649.39483;;-653.94684;;-659.19941;;-665.47231;;-672.82347;;-680.5882;;-687.63467;;-693.06844;;-696.70619;;-699.01362;;-700.68324;;-702.31646;;-704.34666;;-706.91302;;-709.69502;;-712.03043;;-713.16457;;-712.27314;;-708.80415;;-703.64333;;-699.64562;;-699.64562
-10.91692;;-10.91692;;-10.950557;;-11.675993;;-12.964503;;-14.746505;;-17.063847;;-19.999256;;-23.61527;;-27.975722;;-33.357991;;-39.297468;;-45.897964;;-53.015336;;-61.543802;;-73.054381;;-87.909073;;-106.33174;;-128.29234;;-153.35767;;-180.98719;;-210.09974;;-239.34749;;-268.17382;;-296.90844;;-325.5564;;-353.82677;;-381.67051;;-408.85795;;-434.64126;;-458.63397;;-481.47445;;-503.89469;;-525.71158;;-546.4175;;-566.07009;;-584.77174;;-601.72938;;-615.62076;;-625.75648;;-632.59375;;-637.40634;;-641.64849;;-646.3306;;-651.78904;;-658.05169;;-665.18265;;-673.0365;;-680.88606;;-687.61528;;-692.40785;;-695.3192;;-697.15273;;-698.76304;;-700.6364;;-703.02599;;-705.99526;;-709.18715;;-711.82771;;-712.91425;;-711.20519;;-705.79203;;-697.91128;;-691.81819;;-691.81819
-10.916912;;-10.916912;;-10.93624;;-11.573981;;-12.804717;;-14.524503;;-16.766955;;-19.611482;;-23.126697;;-27.600183;;-32.664897;;-38.575146;;-45.372696;;-53.4037;;-63.629635;;-76.702241;;-93.02838;;-112.85374;;-135.87221;;-161.68101;;-189.38968;;-217.54411;;-244.9;;-271.60778;;-298.4191;;-325.42077;;-352.28651;;-378.87806;;-405.09352;;-430.56889;;-455.02595;;-478.54593;;-501.13355;;-522.44108;;-542.29036;;-561.04486;;-578.97636;;-595.47119;;-609.31319;;-619.7503;;-627.14412;;-632.73366;;-637.93336;;-643.70592;;-650.34976;;-657.72566;;-665.54759;;-673.41447;;-680.71956;;-686.75398;;-691.10403;;-694.02238;;-696.22155;;-698.23816;;-700.28016;;-702.60486;;-705.47494;;-708.6488;;-711.27069;;-712.10161;;-709.54965;;-702.44931;;-692.3569;;-684.61007;;-684.61007
-10.91695;;-10.91695;;-10.935149;;-11.541962;;-12.745419;;-14.431257;;-16.629969;;-19.419418;;-22.873488;;-27.286733;;-32.312411;;-38.26617;;-45.343271;;-54.080777;;-65.090984;;-78.883704;;-95.86781;;-116.09191;;-139.27829;;-164.90733;;-191.878;;-218.71268;;-244.67193;;-270.42262;;-296.84249;;-323.99042;;-351.28192;;-378.133;;-404.27371;;-429.66372;;-454.28227;;-477.88762;;-499.96106;;-520.10353;;-538.50576;;-555.83067;;-572.53234;;-588.28657;;-602.11015;;-613.14429;;-621.44918;;-628.07735;;-634.39734;;-641.35302;;-649.18773;;-657.55989;;-665.8174;;-673.33925;;-679.78112;;-685.08191;;-689.39583;;-693.05311;;-696.32327;;-699.14886;;-701.4254;;-703.48896;;-705.85619;;-708.48296;;-710.5787;;-710.86334;;-707.70934;;-700.04604;;-689.5947;;-681.71898;;-681.71898
-10.917152;;-10.917152;;-10.947025;;-11.588848;;-12.790082;;-14.456969;;-16.620012;;-19.353032;;-22.940504;;-27.022707;;-31.913198;;-37.726886;;-44.7204;;-53.417445;;-64.347189;;-77.968597;;-94.654477;;-114.37164;;-136.87583;;-161.64951;;-187.69361;;-213.85539;;-239.80493;;-266.24913;;-293.91961;;-322.73493;;-351.75917;;-379.79827;;-406.17722;;-431.06238;;-454.91823;;-477.6748;;-498.67708;;-517.48394;;-534.45886;;-550.45307;;-566.08338;;-581.26708;;-595.19085;;-606.85098;;-615.97133;;-623.40726;;-630.53878;;-638.36175;;-647.07174;;-656.13109;;-664.64259;;-671.94114;;-677.98301;;-683.20166;;-688.09581;;-692.90221;;-697.406;;-701.06115;;-703.56809;;-705.30713;;-706.93712;;-708.62433;;-709.81059;;-709.4374;;-706.24131;;-699.61737;;-691.1745;;-685.03136;;-685.03136
-10.917979;;-10.917979;;-11.004496;;-11.765034;;-12.997032;;-14.65418;;-16.767825;;-19.396648;;-22.794222;;-26.59502;;-31.070586;;-36.27701;;-42.423637;;-50.168809;;-60.182606;;-72.888582;;-88.613547;;-107.38661;;-128.96355;;-152.96751;;-178.6447;;-205.13315;;-232.20242;;-260.39489;;-290.23201;;-321.42202;;-352.62369;;-381.98583;;-408.32673;;-431.98964;;-454.19341;;-475.52822;;-495.48945;;-513.46315;;-529.67079;;-544.98988;;-560.1449;;-575.13273;;-589.13474;;-601.04112;;-610.43213;;-618.08304;;-625.39654;;-633.44358;;-642.43707;;-651.76307;;-660.50928;;-668.18406;;-674.95165;;-681.26836;;-687.46161;;-693.49926;;-698.9056;;-703.01439;;-705.54875;;-706.92973;;-707.87561;;-708.72058;;-709.14396;;-708.3932;;-705.74791;;-701.17254;;-695.92496;;-692.3367;;-692.3367
-10.922665;;-10.922665;;-11.242369;;-12.18265;;-13.524986;;-15.247814;;-17.364966;;-19.861694;;-22.985774;;-26.333163;;-30.149256;;-34.392265;;-39.104594;;-45.307601;;-54.02014;;-65.457682;;-79.863892;;-97.434335;;-117.99554;;-141.40309;;-167.19315;;-194.63855;;-223.30867;;-253.53066;;-285.68;;-319.19373;;-352.25988;;-382.42503;;-408.12857;;-430.04239;;-450.31678;;-470.38383;;-489.95589;;-508.0648;;-524.47808;;-539.89017;;-555.06087;;-569.99196;;-583.79238;;-595.34269;;-604.30263;;-611.49337;;-618.31557;;-625.90252;;-634.58755;;-643.8617;;-652.96907;;-661.64384;;-670.0918;;-678.42058;;-686.40967;;-693.64295;;-699.59563;;-703.79578;;-706.18174;;-707.29001;;-707.92478;;-708.52085;;-708.83514;;-708.28333;;-706.55648;;-703.98246;;-701.42943;;-699.86337;;-699.86337
-10.992738;;-10.992738;;-11.698394;;-12.849465;;-14.372374;;-16.259054;;-18.456136;;-21.130856;;-23.749352;;-26.426592;;-29.3746;;-32.570133;;-35.789163;;-40.314288;;-47.79523;;-58.015751;;-71.120762;;-87.406247;;-106.86929;;-129.5529;;-155.30798;;-183.64916;;-213.99149;;-246.26112;;-280.52752;;-315.84845;;-349.94507;;-379.96305;;-404.33943;;-424.31331;;-442.91406;;-462.30978;;-482.37645;;-501.67397;;-519.2486;;-535.32227;;-550.59176;;-565.18246;;-578.32589;;-589.05361;;-597.18496;;-603.57027;;-609.5434;;-616.29424;;-624.39211;;-633.57662;;-643.22644;;-653.09677;;-663.28653;;-673.60244;;-683.37227;;-691.81018;;-698.33002;;-702.67255;;-705.03721;;-706.15376;;-706.96632;;-707.95311;;-708.81619;;-708.9861;;-708.30491;;-707.15528;;-706.10494;;-705.53281;;-705.53281
-11.385575;;-11.385575;;-12.323781;;-13.695328;;-15.444189;;-17.533078;;-19.890355;;-22.601068;;-24.898094;;-26.632239;;-28.631955;;-30.962124;;-33.096292;;-36.080009;;-42.5575;;-51.757862;;-63.745518;;-78.83497;;-97.209874;;-119.02453;;-144.41122;;-173.21567;;-204.99639;;-239.21846;;-275.23744;;-311.5836;;-345.62417;;-374.44891;;-396.9307;;-414.99376;;-432.32776;;-451.60728;;-472.81159;;-494.00992;;-513.37391;;-530.40788;;-545.63651;;-559.47946;;-571.61878;;-581.46112;;-588.95879;;-594.80289;;-600.1093;;-606.11352;;-613.713;;-622.94774;;-633.18391;;-643.92903;;-655.13469;;-666.65251;;-677.77859;;-687.48207;;-694.93724;;-699.85976;;-702.59906;;-704.07512;;-705.36148;;-706.96491;;-708.57895;;-709.65422;;-709.99777;;-709.8079;;-709.43198;;-709.17464;;-709.17464
-11.975854;;-11.975854;;-13.055279;;-14.616225;;-16.585276;;-18.886278;;-21.426782;;-24.184165;;-26.020868;;-26.773742;;-28.006172;;-29.784567;;-31.33938;;-32.966294;;-38.63403;;-47.013889;;-58.097899;;-72.204508;;-89.666724;;-110.69606;;-135.62716;;-164.5517;;-197.20893;;-232.82884;;-269.9972;;-306.51008;;-339.47008;;-366.34957;;-386.77178;;-403.22696;;-419.75359;;-439.27178;;-461.76954;;-484.87591;;-505.97562;;-523.90118;;-538.99394;;-552.003;;-563.21505;;-572.55785;;-580.06334;;-586.05032;;-591.25439;;-596.92053;;-604.26541;;-613.5742;;-624.12108;;-635.12838;;-646.5005;;-658.40759;;-670.42202;;-681.3966;;-690.1502;;-696.14492;;-699.69551;;-701.78864;;-703.5451;;-705.54301;;-707.65028;;-709.4719;;-710.72916;;-711.31936;;-711.36988;;-711.24019;;-711.24019
-12.538757;;-12.538757;;-13.729507;;-15.445242;;-17.596811;;-20.076654;;-22.762779;;-25.526394;;-26.780797;;-26.837366;;-27.582085;;-29.082875;;-30.466196;;-31.151244;;-36.096572;;-43.830717;;-54.2481;;-67.64191;;-84.449337;;-104.9011;;-129.41305;;-158.20077;;-191.10031;;-227.2837;;-264.89014;;-300.92729;;-332.2582;;-357.13198;;-375.99609;;-391.60906;;-407.96562;;-427.90788;;-451.31101;;-475.51175;;-497.48962;;-515.78994;;-530.71021;;-543.21491;;-554.03066;;-563.49651;;-571.636;;-578.34095;;-583.96253;;-589.70454;;-596.94901;;-606.11489;;-616.48592;;-627.22993;;-638.32321;;-650.2156;;-662.74263;;-674.75338;;-684.83307;;-692.16798;;-696.8538;;-699.7182;;-701.81587;;-703.85643;;-706.04435;;-708.28398;;-710.27676;;-711.61033;;-712.13192;;-712.17944;;-712.17944
-12.990568;;-12.990568;;-14.259947;;-16.083545;;-18.358325;;-20.949202;;-23.70212;;-26.396209;;-27.143833;;-26.892757;;-27.382374;;-28.736258;;-30.150736;;-30.585585;;-34.674681;;-41.871563;;-51.802256;;-64.690446;;-80.979907;;-100.96362;;-125.03659;;-153.47849;;-186.17999;;-222.32676;;-259.89441;;-295.3524;;-325.40258;;-349.15652;;-367.68391;;-383.63803;;-400.52769;;-420.80435;;-444.22152;;-468.15528;;-489.72399;;-507.64996;;-522.3408;;-534.7986;;-545.8398;;-555.8971;;-564.89371;;-572.45635;;-578.71993;;-584.76928;;-591.92371;;-600.68046;;-610.562;;-620.93115;;-631.7822;;-643.54412;;-656.15187;;-668.63257;;-679.66016;;-688.27979;;-694.22962;;-697.96277;;-700.36242;;-702.25728;;-704.21055;;-706.51942;;-709.00886;;-711.02191;;-712.06628;;-712.35136;;-712.35136
-13.373652;;-13.373652;;-14.697807;;-16.593683;;-18.943998;;-21.58527;;-24.543795;;-26.840348;;-27.337643;;-27.13191;;-27.532204;;-28.746824;;-30.191131;;-30.848412;;-33.820095;;-40.509908;;-50.001561;;-62.424284;;-78.200993;;-97.684961;;-121.22181;;-149.13532;;-181.36886;;-217.17829;;-254.59124;;-289.96154;;-319.93406;;-344.13129;;-363.86739;;-381.34516;;-399.22985;;-419.41101;;-441.731;;-464.09308;;-484.22475;;-501.25669;;-515.6847;;-528.36335;;-539.9055;;-550.58298;;-560.23972;;-568.50601;;-575.4646;;-581.95646;;-589.05978;;-597.38365;;-606.86177;;-617.10029;;-627.91385;;-639.43849;;-651.65205;;-663.97968;;-675.44676;;-685.04846;;-692.12069;;-696.70067;;-699.46312;;-701.23813;;-702.8118;;-704.88296;;-707.54889;;-710.03557;;-711.52593;;-712.04005;;-712.04005
-13.77688;;-13.77688;;-15.145539;;-17.096158;;-19.493778;;-22.142243;;-25.022243;;-27.04334;;-27.627636;;-27.744236;;-28.203793;;-29.251572;;-30.570937;;-31.407825;;-33.165283;;-39.321347;;-48.326688;;-60.224084;;-75.411425;;-94.307083;;-117.18955;;-144.42197;;-176.01732;;-211.35844;;-248.69118;;-284.6315;;-315.81981;;-341.83541;;-363.85567;;-383.45311;;-402.34085;;-421.91562;;-442.38174;;-462.5585;;-480.98818;;-497.12912;;-511.37164;;-524.27426;;-536.15171;;-547.11985;;-557.11664;;-565.98415;;-573.77319;;-580.94643;;-588.26614;;-596.46375;;-605.83252;;-616.09132;;-626.79825;;-637.84894;;-649.39453;;-661.34707;;-673.04532;;-683.34221;;-691.20076;;-696.40768;;-699.52606;;-701.27934;;-702.46999;;-704.0814;;-706.53784;;-709.12082;;-710.82959;;-711.49557;;-711.49557
-14.247671;;-14.247671;;-15.656749;;-17.650286;;-20.063877;;-22.885059;;-25.391824;;-27.18404;;-28.114541;;-28.702457;;-29.339126;;-30.231641;;-31.286597;;-32.091749;;-32.886837;;-38.33712;;-46.767524;;-58.100351;;-72.670753;;-90.948877;;-113.15945;;-139.68502;;-170.62087;;-205.50077;;-242.85111;;-279.70005;;-312.68421;;-340.90823;;-365.18344;;-386.5663;;-406.0728;;-424.75298;;-443.28795;;-461.47984;;-478.61481;;-494.27317;;-508.54225;;-521.60598;;-533.54103;;-544.48244;;-554.66202;;-564.21911;;-573.11745;;-581.37103;;-589.38921;;-597.90255;;-607.32917;;-617.38164;;-627.54477;;-637.80835;;-648.67655;;-660.45141;;-672.53642;;-683.45099;;-691.79235;;-697.27251;;-700.5333;;-702.26038;;-703.16411;;-704.28553;;-706.25053;;-708.52308;;-710.14171;;-710.82835;;-710.82835
-14.805153;;-14.805153;;-16.253019;;-18.281098;;-20.878694;;-23.363831;;-25.622989;;-27.363608;;-28.695078;;-29.734552;;-30.590846;;-31.404057;;-32.242383;;-32.998882;;-33.485995;;-37.731267;;-45.540423;;-56.365856;;-70.412161;;-88.136033;;-109.79818;;-135.74742;;-166.16193;;-200.71073;;-238.16602;;-275.90782;;-310.49104;;-340.3119;;-365.81506;;-387.93012;;-407.41784;;-425.14268;;-442.10516;;-458.85053;;-475.24696;;-490.92755;;-505.61721;;-519.07335;;-531.14879;;-542.07673;;-552.45912;;-562.78456;;-572.99292;;-582.6975;;-591.87291;;-601.0112;;-610.4542;;-619.96503;;-629.24104;;-638.60298;;-648.88818;;-660.60377;;-673.08673;;-684.50397;;-693.08249;;-698.45048;;-701.45108;;-702.99151;;-703.79451;;-704.71437;;-706.25373;;-708.01773;;-709.28547;;-709.83915;;-709.83915
-15.481095;;-15.481095;;-16.909071;;-18.927849;;-21.447745;;-23.73954;;-25.758291;;-27.560506;;-29.180009;;-30.524821;;-31.561445;;-32.397063;;-33.237685;;-34.162771;;-34.851318;;-37.494686;;-44.717368;;-55.106406;;-68.728189;;-86.005651;;-107.2715;;-132.80859;;-162.86831;;-197.22633;;-234.83385;;-273.28744;;-308.9061;;-339.24537;;-364.58345;;-386.19874;;-405.04168;;-421.89739;;-437.77721;;-453.58383;;-469.66704;;-485.83933;;-501.54864;;-516.05602;;-528.84835;;-540.11796;;-550.75384;;-561.66884;;-573.02256;;-584.22015;;-594.72381;;-604.56187;;-613.95325;;-622.9117;;-631.52102;;-640.33688;;-650.22447;;-661.67431;;-674.0374;;-685.40072;;-693.74842;;-698.52146;;-700.76132;;-701.88865;;-702.865;;-704.15041;;-705.69494;;-707.04946;;-707.85923;;-708.17182;;-708.17182
-16.822371;;-16.822371;;-18.035483;;-20.100379;;-22.196686;;-24.178234;;-26.005455;;-27.814811;;-29.520252;;-30.964775;;-32.071364;;-32.966339;;-33.986317;;-35.273757;;-36.299938;;-37.517985;;-44.137037;;-54.085654;;-67.306222;;-84.175101;;-105.08819;;-130.25621;;-159.98694;;-194.13815;;-231.78464;;-270.63091;;-306.64946;;-336.49856;;-360.60656;;-380.96716;;-398.93176;;-415.23341;;-430.65662;;-446.1264;;-462.34905;;-479.43624;;-496.69604;;-512.88878;;-527.00878;;-539.02109;;-549.93712;;-561.09128;;-573.0803;;-585.35961;;-596.95424;;-607.38142;;-616.78548;;-625.56434;;-634.17935;;-643.16626;;-653.05521;;-664.07561;;-675.63609;;-686.0519;;-693.36544;;-696.9099;;-697.92816;;-698.48997;;-699.90901;;-702.09203;;-704.11982;;-705.32133;;-705.75887;;-705.85006;;-705.85006
-18.835048;;-18.835048;;-19.876247;;-21.715019;;-23.486855;;-25.170553;;-26.824774;;-28.452898;;-29.956202;;-31.220983;;-32.192673;;-33.040823;;-34.200625;;-35.788509;;-37.038622;;-37.450606;;-43.407863;;-52.889574;;-65.671929;;-82.063901;;-102.49606;;-127.13905;;-156.33301;;-190.00193;;-227.32051;;-266.08713;;-302.03594;;-331.01664;;-353.76511;;-373.06008;;-390.59949;;-407.02375;;-422.79392;;-438.65885;;-455.49235;;-473.6606;;-492.44599;;-510.27825;;-525.76893;;-538.63891;;-549.88378;;-561.08452;;-573.21576;;-585.92727;;-598.07493;;-608.88379;;-618.48752;;-627.58393;;-636.85514;;-646.66;;-657.04064;;-667.78611;;-678.23514;;-687.03216;;-692.6146;;-694.51822;;-694.22999;;-694.30709;;-696.2625;;-699.41949;;-702.04102;;-703.27264;;-703.55511;;-703.57567;;-703.57567
-21.343937;;-21.343937;;-22.272767;;-23.917805;;-25.51008;;-27.173091;;-28.729045;;-29.951059;;-30.869664;;-31.5776;;-32.118398;;-32.705856;;-33.779474;;-35.369302;;-36.588878;;-36.725388;;-42.155522;;-51.157224;;-63.389108;;-79.114664;;-98.778994;;-122.55196;;-150.79018;;-183.48814;;-219.95233;;-258.19714;;-294.12636;;-323.06886;;-345.63679;;-365.07333;;-383.22531;;-400.56377;;-417.2468;;-433.84823;;-451.31117;;-470.15544;;-489.72393;;-508.40645;;-524.72583;;-538.28649;;-549.97455;;-561.32599;;-573.38451;;-585.96635;;-598.09041;;-609.06511;;-619.0763;;-628.89437;;-639.19801;;-650.11261;;-661.22339;;-671.85739;;-681.20944;;-688.2902;;-692.18826;;-692.89096;;-691.98705;;-692.00494;;-694.31764;;-697.88428;;-700.6518;;-701.83194;;-702.11027;;-702.20077;;-702.20077
-24.073598;;-24.298887;;-25.143162;;-26.472726;;-28.144713;;-30.047515;;-31.639;;-32.396932;;-32.440633;;-32.22891;;-32.052235;;-32.178494;;-32.945574;;-34.257781;;-35.26586;;-35.430677;;-40.394289;;-48.82285;;-60.325113;;-75.134525;;-93.70453;;-116.23783;;-143.10062;;-174.38917;;-209.61703;;-247.20689;;-283.73241;;-314.47384;;-338.96335;;-360.2141;;-379.99452;;-398.59041;;-416.01528;;-432.87516;;-450.26441;;-468.83947;;-488.09027;;-506.63368;;-523.17525;;-537.29349;;-549.62878;;-561.37118;;-573.33663;;-585.45705;;-597.16865;;-608.15913;;-618.70943;;-629.47471;;-640.94079;;-652.93526;;-664.62674;;-675.00357;;-683.29712;;-689.0651;;-692.1635;;-692.95656;;-692.70653;;-693.26639;;-695.57148;;-698.62504;;-700.74644;;-701.51937;;-701.72333;;-701.88382;;-701.88382
-26.655737;;-26.884334;;-27.609273;;-28.987432;;-31.044964;;-33.390415;;-35.113596;;-35.404192;;-34.481298;;-33.19757;;-32.161396;;-31.716674;;-32.063083;;-32.959076;;-33.719142;;-34.111812;;-38.527715;;-46.283064;;-56.933087;;-70.686748;;-87.99168;;-109.16016;;-134.53822;;-164.35467;;-198.37623;;-235.51795;;-273.2153;;-307.22857;;-335.46888;;-359.8444;;-381.73836;;-401.29882;;-418.71978;;-434.93649;;-451.28721;;-468.57569;;-486.54175;;-504.21835;;-520.64377;;-535.3549;;-548.55987;;-560.87946;;-572.7888;;-584.36496;;-595.56625;;-606.54719;;-617.68273;;-629.42214;;-641.95424;;-654.76816;;-666.69008;;-676.58003;;-683.97774;;-689.12053;;-692.49859;;-694.54081;;-695.82521;;-697.2232;;-699.1709;;-701.01403;;-701.87174;;-701.89767;;-701.89604;;-702.08481;;-702.08481
-28.372331;;-28.372331;;-29.326013;;-31.022148;;-33.625929;;-36.463417;;-38.351505;;-38.218669;;-36.496303;;-34.309989;;-32.500264;;-31.502064;;-31.394699;;-31.84445;;-32.386587;;-33.164788;;-37.15203;;-44.260468;;-54.079386;;-66.81642;;-82.924692;;-102.90199;;-127.0578;;-155.70037;;-188.80015;;-225.66377;;-264.42568;;-301.62275;;-334.1877;;-362.26703;;-386.3508;;-406.49555;;-423.38622;;-438.45021;;-453.21313;;-468.60743;;-484.73496;;-501.16083;;-517.28729;;-532.5657;;-546.68345;;-559.6451;;-571.62465;;-582.8684;;-593.78634;;-604.91112;;-616.6616;;-629.22065;;-642.43834;;-655.58157;;-667.41991;;-676.95109;;-684.05598;;-689.36593;;-693.56504;;-696.9113;;-699.44249;;-701.35123;;-702.73443;;-703.27459;;-702.85894;;-702.20824;;-702.1241;;-702.44041;;-702.44041
-29.21058;;-29.21058;;-30.233248;;-32.195956;;-35.168339;;-38.320334;;-40.323876;;-39.973057;;-37.858904;;-35.210598;;-32.947488;;-31.542708;;-31.018428;;-31.034549;;-31.387492;;-32.644347;;-36.617323;;-43.23508;;-52.357729;;-64.243681;;-79.354415;;-98.27227;;-121.46947;;-149.18534;;-181.48288;;-217.90961;;-257.08579;;-296.32609;;-332.59706;;-364.40706;;-390.78977;;-411.56121;;-428.01445;;-442.04623;;-455.24522;;-468.68181;;-482.91534;;-498.03413;;-513.71733;;-529.31702;;-544.10586;;-557.63632;;-569.90132;;-581.27152;;-592.39422;;-603.959;;-616.3128;;-629.32351;;-642.56444;;-655.40839;;-667.05714;;-676.86282;;-684.70123;;-690.89498;;-695.78958;;-699.51708;;-702.15002;;-703.83838;;-704.58463;;-704.24009;;-703.15751;;-702.38735;;-702.60619;;-703.23473;;-703.23473
-29.77949;;-30.008258;;-30.630195;;-32.426096;;-35.291734;;-38.358271;;-40.307301;;-40.054423;;-38.09707;;-35.545314;;-33.272587;;-31.7263;;-30.900443;;-30.560772;;-30.799003;;-32.622378;;-36.87662;;-43.208474;;-51.737754;;-62.86905;;-77.127395;;-95.099632;;-117.4042;;-144.29218;;-175.77266;;-211.53971;;-250.56023;;-290.79733;;-329.6541;;-364.59398;;-393.16448;;-414.75321;;-431.11166;;-444.45547;;-456.40735;;-468.25147;;-481.01536;;-495.14803;;-510.41518;;-526.05718;;-541.13074;;-555.00888;;-567.68015;;-579.60732;;-591.42544;;-603.66125;;-616.40479;;-629.24892;;-641.75045;;-653.82681;;-665.51284;;-676.49336;;-686.07888;;-693.60547;;-698.82087;;-702.00638;;-703.7947;;-704.72108;;-704.86271;;-704.16842;;-703.19618;;-702.97457;;-703.83011;;-704.84017;;-704.84017
-30.136333;;-30.366151;;-30.643837;;-31.971227;;-34.423688;;-37.134081;;-38.853995;;-38.759827;;-37.266555;;-35.237709;;-33.350358;;-31.939317;;-31.010259;;-30.513395;;-30.828974;;-33.2332;;-37.837089;;-44.157701;;-52.24536;;-62.643798;;-76.134992;;-93.368275;;-114.93691;;-141.24479;;-172.15329;;-207.4132;;-246.19186;;-286.81348;;-326.91915;;-363.47887;;-393.2357;;-415.26351;;-431.48946;;-444.28618;;-455.38932;;-466.33344;;-478.43331;;-492.22553;;-507.35922;;-522.94344;;-537.98552;;-551.91301;;-564.8795;;-577.46481;;-590.13287;;-602.97457;;-615.66973;;-627.6947;;-638.96228;;-650.2393;;-662.42445;;-675.25609;;-687.06726;;-695.99338;;-701.33271;;-703.80172;;-704.72019;;-704.97645;;-704.71587;;-704.02078;;-703.57618;;-704.17875;;-705.68898;;-706.98115;;-706.98115
-30.08595;;-30.316559;;-30.303169;;-31.206835;;-33.235161;;-35.51982;;-36.920914;;-36.915402;;-35.931644;;-34.580113;;-33.261956;;-32.172022;;-31.37333;;-30.99843;;-31.592204;;-34.354607;;-39.185482;;-45.613689;;-53.548283;;-63.456291;;-76.518266;;-93.474329;;-114.86205;;-141.13508;;-172.07211;;-207.37557;;-246.19926;;-286.80156;;-326.65731;;-362.63631;;-391.63124;;-412.86535;;-428.28112;;-440.39601;;-451.18602;;-462.24822;;-474.71853;;-488.87051;;-504.16756;;-519.69016;;-534.54514;;-548.32154;;-561.36505;;-574.35809;;-587.57732;;-600.65977;;-612.91934;;-623.90177;;-634.06359;;-644.94079;;-657.94492;;-672.58596;;-686.2803;;-696.31448;;-701.87681;;-704.18527;;-705.00235;;-705.26081;;-705.02828;;-704.49554;;-704.46589;;-705.56535;;-707.3706;;-708.72932;;-708.72932
-29.603545;;-29.834696;;-29.704143;;-30.404183;;-32.153358;;-34.079162;;-35.187118;;-35.242243;;-34.709565;;-33.973852;;-33.193765;;-32.488264;;-32.00506;;-31.975816;;-32.887075;;-35.702752;;-40.527292;;-46.950594;;-54.866557;;-64.822253;;-78.128384;;-95.486385;;-117.40563;;-144.31348;;-175.92601;;-211.8674;;-251.07083;;-291.33329;;-329.5654;;-362.85101;;-389.07068;;-407.99337;;-421.60933;;-432.80977;;-443.97457;;-456.35799;;-470.19528;;-485.12679;;-500.58899;;-515.96135;;-530.62334;;-544.28178;;-557.2937;;-570.31248;;-583.52403;;-596.40462;;-608.18941;;-618.59434;;-628.4187;;-639.46293;;-653.14907;;-668.73384;;-683.27732;;-693.90323;;-699.96401;;-702.93328;;-704.5821;;-705.60784;;-705.89664;;-705.64135;;-705.6778;;-706.6289;;-708.16118;;-709.313;;-709.313
-28.866924;;-29.09858;;-29.009;;-29.709688;;-31.339361;;-33.037848;;-33.966515;;-34.099508;;-33.906945;;-33.61103;;-33.235844;;-32.895585;;-32.802669;;-33.179655;;-34.336527;;-36.971954;;-41.526684;;-47.780598;;-55.808036;;-66.43598;;-80.622996;;-98.938986;;-121.91938;;-149.88536;;-182.54816;;-219.43699;;-259.13965;;-298.75689;;-334.43733;;-363.87031;;-386.32523;;-402.13806;;-413.42284;;-423.68349;;-435.78469;;-450.26932;;-465.92893;;-481.58355;;-496.93288;;-512.02477;;-526.62272;;-540.39082;;-553.4107;;-566.12718;;-578.78864;;-591.14949;;-602.73659;;-613.40273;;-623.81805;;-635.41093;;-649.24638;;-664.55365;;-678.76519;;-689.50413;;-696.36278;;-700.62317;;-703.62431;;-705.7427;;-706.78749;;-706.92718;;-706.89432;;-707.34544;;-708.26764;;-709.0459;;-709.0459
-28.073135;;-28.305233;;-28.350084;;-29.180818;;-30.830633;;-32.464456;;-33.339073;;-33.509562;;-33.458468;;-33.38946;;-33.30318;;-33.29631;;-33.568998;;-34.277895;;-35.584024;;-37.964169;;-42.084173;;-48.190512;;-56.771136;;-68.499445;;-83.877786;;-103.42369;;-127.69908;;-156.80178;;-190.56;;-228.33591;;-268.31273;;-306.85245;;-339.62445;;-365.35021;;-384.50392;;-397.775;;-407.32031;;-417.06209;;-430.11656;;-446.31158;;-463.20816;;-479.05892;;-494.00152;;-508.81254;;-523.56892;;-537.70719;;-550.81335;;-563.02297;;-574.79539;;-586.48161;;-598.10689;;-609.54053;;-620.95156;;-633.05288;;-646.48096;;-660.70182;;-673.96128;;-684.66;;-692.50197;;-698.1975;;-702.43768;;-705.40402;;-707.07426;;-707.69536;;-707.84128;;-708.08653;;-708.62681;;-709.14064;;-709.14064
-27.339555;;-27.57227;;-27.759148;;-28.750257;;-30.508327;;-32.224954;;-33.147937;;-33.28169;;-33.170425;;-33.159771;;-33.29699;;-33.597131;;-34.164871;;-35.101543;;-36.49561;;-38.672996;;-42.449668;;-48.930843;;-58.565034;;-71.529624;;-88.205157;;-109.12054;;-134.65354;;-164.83764;;-199.53933;;-237.87942;;-277.60353;;-314.50137;;-344.53685;;-367.5839;;-384.80414;;-397.05782;;-406.33104;;-416.28296;;-429.73847;;-446.17271;;-462.8745;;-478.15389;;-492.52332;;-507.15913;;-522.24129;;-536.88223;;-550.12141;;-561.80661;;-572.6699;;-583.65555;;-595.20115;;-607.12326;;-619.12634;;-631.34782;;-644.16139;;-657.35933;;-669.92484;;-680.79818;;-689.54985;;-696.27161;;-701.18878;;-704.51996;;-706.54876;;-707.68531;;-708.39619;;-709.05004;;-709.75236;;-710.27505;;-710.27505
-26.685637;;-26.919209;;-27.16953;;-28.220912;;-30.045388;;-31.896105;;-32.970551;;-33.129249;;-32.949519;;-32.95626;;-33.269354;;-33.817375;;-34.602245;;-35.693329;;-37.157507;;-39.242271;;-43.299074;;-50.96839;;-61.912786;;-76.259642;;-94.414803;;-116.81482;;-143.57919;;-174.84407;;-210.28214;;-248.67016;;-287.29058;;-321.85128;;-349.52281;;-370.96666;;-387.4956;;-400.03847;;-410.2653;;-420.98699;;-434.25493;;-449.55252;;-464.81587;;-478.94498;;-492.64203;;-507.08656;;-522.40551;;-537.44621;;-550.82574;;-562.19775;;-572.47514;;-582.87183;;-593.94988;;-605.54111;;-617.29496;;-629.21616;;-641.61222;;-654.45791;;-667.04072;;-678.35685;;-687.67553;;-694.7531;;-699.7666;;-703.13784;;-705.38631;;-707.05071;;-708.54152;;-709.96286;;-711.13833;;-711.81725;;-711.81725
-26.101425;;-26.335651;;-26.552676;;-27.504259;;-29.250677;;-31.174861;;-32.481333;;-32.879517;;-32.837805;;-32.940153;;-33.37562;;-34.073637;;-35.00287;;-36.208372;;-37.73495;;-39.969349;;-45.577688;;-54.792664;;-67.304961;;-83.346999;;-103.35383;;-127.43874;;-155.78804;;-188.29397;;-224.20527;;-261.73185;;-297.78627;;-329.07075;;-354.48819;;-374.89373;;-391.30609;;-404.55279;;-416.00732;;-427.61851;;-440.59227;;-454.48317;;-468.08381;;-480.97273;;-493.90583;;-507.90077;;-523.04601;;-538.12553;;-551.58567;;-562.9771;;-573.17337;;-583.23814;;-593.5887;;-604.20172;;-615.09632;;-626.52826;;-638.81607;;-651.86435;;-664.8617;;-676.58559;;-686.06638;;-693.0477;;-697.91877;;-701.30712;;-703.83449;;-706.07771;;-708.35271;;-710.47907;;-712.02561;;-712.78616;;-712.78616
-25.600351;;-25.834888;;-26.003263;;-26.791909;;-28.365634;;-30.282691;;-31.840399;;-32.651683;;-32.954366;;-33.231962;;-33.736445;;-34.500949;;-35.531704;;-36.835112;;-38.420957;;-41.701665;;-49.26317;;-60.175772;;-74.491468;;-92.585146;;-114.72291;;-141.00464;;-171.46436;;-205.53854;;-241.6639;;-276.96427;;-308.57114;;-335.63699;;-358.57067;;-378.03653;;-394.49589;;-408.41918;;-420.86102;;-433.20124;;-446.09374;;-459.11574;;-471.60438;;-483.55249;;-495.6882;;-508.88042;;-523.28295;;-537.88684;;-551.26547;;-562.90739;;-573.41048;;-583.44991;;-593.23111;;-602.92829;;-613.02277;;-624.08493;;-636.38932;;-649.60886;;-662.7492;;-674.50339;;-683.9029;;-690.79166;;-695.69292;;-699.30451;;-702.26247;;-705.11302;;-708.02209;;-710.57463;;-712.23902;;-712.95589;;-712.95589
-25.092695;;-25.32687;;-25.545994;;-26.287991;;-27.74298;;-29.64517;;-31.434251;;-32.675997;;-33.365379;;-33.829038;;-34.378506;;-35.18761;;-36.315396;;-37.706899;;-39.432569;;-44.5937;;-53.708933;;-66.241859;;-82.39641;;-102.62058;;-127.01593;;-155.74356;;-188.57393;;-224.37916;;-260.43586;;-292.28653;;-318.50801;;-341.10741;;-361.45366;;-380.01021;;-396.68037;;-411.38339;;-424.66965;;-437.49634;;-450.3322;;-462.89802;;-474.82252;;-486.2165;;-497.65001;;-509.81669;;-523.00893;;-536.66515;;-549.71711;;-561.58045;;-572.45621;;-582.68363;;-592.39853;;-601.90752;;-611.86967;;-622.90093;;-635.11789;;-648.0193;;-660.66916;;-672.02053;;-681.31866;;-688.42771;;-693.74363;;-697.81554;;-701.19641;;-704.40484;;-707.57847;;-710.27296;;-711.97227;;-712.6792;;-712.6792
-24.296899;;-24.296899;;-24.969516;;-25.89561;;-27.397681;;-29.351519;;-31.354753;;-32.959887;;-33.984419;;-34.626698;;-35.245718;;-36.122739;;-37.337907;;-38.762033;;-40.806637;;-47.436835;;-57.756544;;-71.606474;;-89.313331;;-111.29184;;-137.61412;;-168.42026;;-203.24734;;-240.44604;;-276.15622;;-304.70335;;-326.65391;;-345.78859;;-364.07534;;-381.95992;;-398.99982;;-414.58023;;-428.61325;;-441.62442;;-454.13042;;-466.21637;;-477.78218;;-488.87756;;-499.75082;;-510.83676;;-522.59361;;-535.01964;;-547.48091;;-559.31138;;-570.37836;;-580.90899;;-591.14364;;-601.37598;;-612.01943;;-623.36045;;-635.29613;;-647.39151;;-659.102;;-669.86709;;-679.19307;;-686.84671;;-692.87326;;-697.43603;;-700.88058;;-703.82103;;-706.71885;;-709.39668;;-711.31425;;-712.23277;;-712.23277
-23.056933;;-23.056933;;-24.083628;;-25.393497;;-27.111915;;-29.199231;;-31.409955;;-33.325305;;-34.659177;;-35.509955;;-36.246902;;-37.194152;;-38.415931;;-39.716803;;-41.924186;;-49.239743;;-60.228438;;-74.829343;;-93.416632;;-116.35163;;-143.72928;;-175.64534;;-211.50022;;-249.35485;;-284.77275;;-311.94974;;-332.33463;;-350.0445;;-367.3828;;-384.97661;;-402.3228;;-418.5108;;-432.9786;;-445.90454;;-457.89513;;-469.41762;;-480.60458;;-491.36581;;-501.59385;;-511.51816;;-521.81018;;-532.96156;;-544.66483;;-556.22038;;-567.37314;;-578.41625;;-589.69211;;-601.2935;;-613.10905;;-624.91887;;-636.48186;;-647.6651;;-658.45028;;-668.72816;;-678.19279;;-686.47503;;-693.20341;;-698.04367;;-701.09274;;-703.20973;;-705.45612;;-708.07797;;-710.40585;;-711.71739;;-711.71739
-21.644788;;-21.644788;;-23.056817;;-24.813374;;-26.836193;;-29.100951;;-31.500939;;-33.687678;;-35.328275;;-36.424433;;-37.296024;;-38.251287;;-39.321835;;-40.27795;;-42.193965;;-49.574887;;-60.644334;;-75.320702;;-93.970427;;-116.91655;;-144.2638;;-176.09491;;-211.80304;;-249.49507;;-285.00992;;-313.25719;;-334.9219;;-353.35737;;-370.94378;;-388.60192;;-406.01812;;-422.32675;;-436.87389;;-449.6852;;-461.33257;;-472.38461;;-482.99445;;-492.89795;;-501.84209;;-510.23005;;-519.13634;;-529.30124;;-540.42616;;-551.81435;;-563.32646;;-575.34628;;-588.10048;;-601.3015;;-614.32441;;-626.60468;;-637.94385;;-648.54671;;-658.76222;;-668.73197;;-678.26318;;-686.91141;;-694.02668;;-698.93826;;-701.58039;;-702.98096;;-704.62269;;-707.08366;;-709.64453;;-711.22896;;-711.22896
-20.55541;;-20.55541;;-22.294299;;-24.416209;;-26.724463;;-29.149862;;-31.686991;;-34.071819;;-35.968988;;-37.29547;;-38.279287;;-39.169704;;-39.961588;;-40.442978;;-41.772485;;-48.83397;;-59.570825;;-73.832107;;-91.945458;;-114.20638;;-140.71237;;-171.55917;;-206.22165;;-243.08013;;-278.76725;;-309.22767;;-333.81684;;-354.45462;;-373.22373;;-391.29655;;-408.70831;;-424.92833;;-439.52681;;-452.49919;;-464.188;;-474.90453;;-484.52667;;-492.56018;;-498.9867;;-505.10393;;-512.79421;;-522.71923;;-534.01813;;-545.83821;;-558.29936;;-571.83613;;-586.3145;;-600.9881;;-614.97549;;-627.7167;;-639.16689;;-649.67932;;-659.69198;;-669.42119;;-678.74548;;-687.26455;;-694.36577;;-699.39792;;-702.19894;;-703.58698;;-704.93974;;-707.0037;;-709.31538;;-710.83864;;-710.83864
-20.039847;;-20.039847;;-21.753146;;-24.337626;;-26.846537;;-29.372199;;-31.950837;;-34.402615;;-36.433242;;-37.928524;;-39.024958;;-39.881875;;-40.456202;;-40.601218;;-41.339938;;-47.807644;;-57.979436;;-71.576815;;-88.858913;;-110.10168;;-135.36505;;-164.75938;;-197.86431;;-233.38734;;-268.80047;;-301.03776;;-328.59749;;-351.95659;;-372.53374;;-391.49637;;-409.24251;;-425.7145;;-440.79738;;-454.43178;;-466.59762;;-477.14674;;-485.46357;;-490.74312;;-493.53431;;-496.73117;;-503.46883;;-514.06466;;-526.48907;;-539.39087;;-553.15858;;-568.32067;;-584.35322;;-600.14555;;-614.85164;;-628.14023;;-640.03709;;-650.78637;;-660.73289;;-670.08514;;-678.78297;;-686.65217;;-693.4919;;-698.93072;;-702.58227;;-704.62933;;-705.98133;;-707.52538;;-709.30292;;-710.57009;;-710.57009
-19.815416;;-19.815416;;-21.653137;;-24.388013;;-27.040883;;-29.608883;;-32.114413;;-34.476502;;-36.502683;;-38.122581;;-39.407259;;-40.411287;;-41.056258;;-41.280042;;-41.785158;;-47.158244;;-56.538606;;-69.302627;;-85.583813;;-105.66734;;-129.52056;;-157.24239;;-188.50036;;-222.28097;;-256.72072;;-289.55315;;-319.10308;;-344.89892;;-367.53249;;-387.88527;;-406.59865;;-424.05296;;-440.37158;;-455.36123;;-468.61295;;-479.50378;;-486.90125;;-489.72881;;-489.19295;;-489.81617;;-495.91253;;-507.3834;;-520.97835;;-534.75178;;-549.31531;;-565.40895;;-582.34803;;-598.86848;;-614.25216;;-628.31121;;-640.93049;;-652.06524;;-661.8757;;-670.51584;;-678.062;;-684.84672;;-691.35964;;-697.48532;;-702.34739;;-705.31839;;-706.86691;;-708.07064;;-709.44286;;-710.50555;;-710.50555
-19.416672;;-19.416672;;-21.346742;;-24.205661;;-27.005922;;-29.62509;;-31.989738;;-34.163602;;-36.122919;;-37.883607;;-39.477148;;-40.863313;;-41.942849;;-42.719533;;-43.712512;;-47.55738;;-55.763389;;-67.393445;;-82.411215;;-101.07543;;-123.37771;;-149.26519;;-178.48325;;-210.24753;;-243.18515;;-275.61689;;-306.0375;;-333.56553;;-358.11551;;-380.14037;;-400.34563;;-419.41628;;-437.63102;;-454.67263;;-469.80749;;-481.98806;;-489.73857;;-491.9947;;-490.45116;;-490.2689;;-496.00724;;-507.29746;;-520.54219;;-533.74861;;-547.76127;;-563.57266;;-580.61038;;-597.62075;;-613.85333;;-628.97203;;-642.54325;;-654.1643;;-663.73259;;-671.32476;;-677.32302;;-682.80925;;-688.98389;;-695.77521;;-701.70153;;-705.49324;;-707.38369;;-708.57333;;-709.80046;;-710.753;;-710.753
-18.772974;;-18.772974;;-20.738183;;-23.661435;;-26.585062;;-29.313833;;-31.570187;;-33.570586;;-35.50032;;-37.451448;;-39.424652;;-41.327996;;-43.066332;;-44.678876;;-46.5824;;-49.998961;;-56.574849;;-66.541985;;-79.83446;;-96.592879;;-117.05502;;-141.00321;;-168.1667;;-197.96929;;-229.39944;;-261.14187;;-291.86648;;-320.56431;;-346.73017;;-370.40781;;-392.20123;;-412.94508;;-433.08653;;-452.35302;;-469.84104;;-484.16074;;-493.7058;;-497.73721;;-498.13079;;-499.34469;;-504.94101;;-514.52222;;-525.387;;-536.35247;;-548.55247;;-563.14084;;-579.76288;;-597.19226;;-614.40348;;-630.65996;;-645.16819;;-657.21792;;-666.46716;;-673.0006;;-677.63044;;-682.08935;;-687.93268;;-694.92483;;-701.2326;;-705.41255;;-707.6599;;-709.08789;;-710.35862;;-711.25079;;-711.25079
-18.122638;;-18.122638;;-20.069105;;-22.987316;;-25.971239;;-28.829466;;-31.080396;;-32.994712;;-34.961982;;-37.110353;;-39.41711;;-41.787567;;-44.16373;;-46.611263;;-49.446712;;-53.364637;;-59.160597;;-67.381197;;-78.570966;;-93.135522;;-111.3325;;-133.341;;-158.80752;;-187.22559;;-217.80892;;-249.40363;;-280.68299;;-310.4887;;-338.0414;;-363.09764;;-386.10156;;-407.91911;;-429.21833;;-450.00354;;-469.42944;;-485.91871;;-497.8762;;-504.93625;;-508.80272;;-512.48184;;-518.04014;;-525.26389;;-532.97517;;-541.19046;;-551.31165;;-564.51657;;-580.59794;;-598.29353;;-616.20539;;-633.16146;;-648.10482;;-660.19262;;-669.05149;;-674.95735;;-679.07592;;-683.2793;;-688.8692;;-695.35526;;-701.07462;;-705.00262;;-707.4745;;-709.30997;;-710.82659;;-711.76695;;-711.76695
-17.686033;;-17.686033;;-19.60855;;-22.509584;;-25.527742;;-28.494916;;-30.824362;;-32.718538;;-34.73434;;-37.004231;;-39.490546;;-42.135213;;-44.94675;;-48.026374;;-51.611606;;-56.09913;;-61.83967;;-69.044088;;-78.298876;;-90.745221;;-107.05786;;-127.45299;;-151.99203;;-180.07828;;-210.966;;-243.51414;;-276.17786;;-307.41685;;-336.14841;;-362.04222;;-385.53944;;-407.53328;;-428.90095;;-450.00455;;-470.22565;;-488.03175;;-501.96123;;-511.81016;;-518.79722;;-524.56667;;-530.1005;;-535.54221;;-540.991;;-547.31637;;-556.0088;;-568.16429;;-583.61891;;-601.06972;;-618.88009;;-635.63246;;-650.19623;;-661.80506;;-670.28021;;-676.18016;;-680.75852;;-685.45167;;-690.87294;;-696.35282;;-700.83929;;-704.09721;;-706.68761;;-709.04177;;-710.99872;;-712.13217;;-712.13217
-17.528889;;-17.528889;;-19.452607;;-22.365929;;-25.431463;;-28.492431;;-30.910943;;-32.771484;;-34.774137;;-37.053155;;-39.553741;;-42.266444;;-45.280134;;-48.73314;;-52.802441;;-57.690061;;-63.487724;;-70.160324;;-78.090497;;-88.965213;;-104.21228;;-124.05879;;-148.55675;;-177.44506;;-209.74225;;-244.28672;;-279.18542;;-312.21173;;-341.84025;;-367.86972;;-391.03606;;-412.40262;;-433.00655;;-453.44147;;-473.33;;-491.40871;;-506.47199;;-518.22764;;-527.20812;;-534.15817;;-539.722;;-544.49795;;-549.22008;;-554.95802;;-563.0325;;-574.38315;;-588.85772;;-605.23185;;-621.91035;;-637.52003;;-651.05395;;-661.93702;;-670.20341;;-676.53713;;-681.97435;;-687.30012;;-692.50533;;-696.96141;;-700.3205;;-703.03567;;-705.78019;;-708.61815;;-710.99654;;-712.33615;;-712.33615
-17.510321;;-17.510321;;-19.448138;;-22.150237;;-25.503421;;-28.639851;;-31.123371;;-32.904643;;-34.828336;;-37.04858;;-39.482077;;-42.146535;;-45.201341;;-48.817664;;-53.120066;;-58.177739;;-63.93079;;-70.195957;;-77.289317;;-87.414527;;-102.56522;;-122.77747;;-148.05587;;-178.27747;;-212.41637;;-249.31381;;-286.80293;;-321.91023;;-352.41929;;-378.20362;;-400.46455;;-420.64564;;-439.99981;;-459.24729;;-478.21409;;-496.01153;;-511.69912;;-524.70377;;-534.84613;;-542.41916;;-548.25136;;-553.36639;;-558.59471;;-564.70238;;-572.62641;;-583.11355;;-596.09089;;-610.60008;;-625.34382;;-639.21394;;-651.45337;;-661.67833;;-669.95612;;-676.77683;;-682.76748;;-688.26291;;-693.07997;;-696.85495;;-699.71046;;-702.35208;;-705.33165;;-708.441;;-710.97504;;-712.36553;;-712.36553
-17.353161;;-17.353161;;-19.280358;;-21.974495;;-25.343845;;-28.531319;;-31.118499;;-32.859435;;-34.703298;;-36.863285;;-39.233955;;-41.830179;;-44.848063;;-48.47945;;-52.811916;;-57.83232;;-63.391668;;-69.254849;;-75.832764;;-85.987564;;-101.64914;;-122.58765;;-148.83736;;-180.3177;;-216.11236;;-255.14014;;-295.12301;;-332.51344;;-364.23476;;-389.92914;;-411.16642;;-429.88226;;-447.68363;;-465.49942;;-483.43032;;-500.9457;;-517.18516;;-531.14831;;-542.10034;;-550.22985;;-556.72518;;-562.88212;;-569.32109;;-576.26741;;-584.17987;;-593.65055;;-604.80448;;-617.07985;;-629.58317;;-641.54533;;-652.48754;;-662.15172;;-670.43969;;-677.42564;;-683.34168;;-688.42956;;-692.74311;;-696.24363;;-699.18079;;-702.10322;;-705.29111;;-708.39849;;-710.79333;;-712.06435;;-712.06435
-16.914844;;-16.914844;;-18.788035;;-21.417249;;-24.751906;;-27.968333;;-30.750183;;-32.604765;;-34.430063;;-36.556636;;-38.898247;;-41.452957;;-44.403212;;-47.93713;;-52.130961;;-56.943399;;-62.190405;;-67.656191;;-74.00711;;-84.695623;;-100.96793;;-122.53504;;-149.51996;;-181.85932;;-218.81315;;-259.41552;;-301.43099;;-341.04454;;-374.3873;;-400.53599;;-421.15001;;-438.5646;;-454.79278;;-471.13386;;-488.10741;;-505.46964;;-522.22288;;-536.93075;;-548.58202;;-557.46188;;-564.99797;;-572.51369;;-580.30812;;-588.09667;;-595.95381;;-604.42406;;-613.87543;;-624.10051;;-634.55821;;-644.80171;;-654.58375;;-663.65722;;-671.66033;;-678.30026;;-683.63418;;-688.06139;;-691.96335;;-695.48269;;-698.73487;;-701.94368;;-705.15619;;-708.04763;;-710.17384;;-711.28297;;-711.28297
-16.344412;;-16.344412;;-18.143608;;-20.681354;;-23.956798;;-27.186122;;-30.178831;;-32.288072;;-34.164216;;-36.287714;;-38.637291;;-41.192095;;-44.065524;;-47.40188;;-51.28712;;-55.714968;;-60.547384;;-65.655359;;-72.104157;;-83.484911;;-100.22547;;-122.16046;;-149.51195;;-182.21641;;-219.71921;;-261.17166;;-304.47503;;-345.85341;;-381.00589;;-408.32944;;-429.20799;;-446.06678;;-461.20376;;-476.34923;;-492.48934;;-509.59027;;-526.50531;;-541.61312;;-553.94089;;-563.84855;;-572.6318;;-581.34782;;-590.04464;;-598.23352;;-605.88711;;-613.59995;;-621.86348;;-630.61017;;-639.52183;;-648.43847;;-657.2709;;-665.67244;;-673.04985;;-678.98843;;-683.62872;;-687.56134;;-691.30732;;-694.9726;;-698.4448;;-701.69045;;-704.68633;;-707.25961;;-709.15766;;-710.18008;;-710.18008
-15.87135;;-15.87135;;-17.60871;;-20.069203;;-23.290962;;-26.51798;;-29.644388;;-32.016979;;-33.993235;;-36.155998;;-38.557903;;-41.152502;;-43.946139;;-47.005066;;-50.433448;;-54.318952;;-58.644189;;-63.445029;;-70.281464;;-82.275151;;-99.2963;;-121.33017;;-148.67312;;-181.21871;;-218.58218;;-260.01307;;-303.61404;;-345.94796;;-382.87134;;-412.2229;;-434.65133;;-452.19532;;-467.20347;;-481.76409;;-497.23421;;-513.74993;;-530.254;;-545.36907;;-558.38981;;-569.53371;;-579.5109;;-588.88817;;-597.68592;;-605.65727;;-612.97218;;-620.26207;;-627.91583;;-635.7776;;-643.6383;;-651.57714;;-659.61022;;-667.29625;;-673.96508;;-679.30126;;-683.60272;;-687.48123;;-691.33055;;-695.08722;;-698.5039;;-701.50388;;-704.15048;;-706.43095;;-708.19438;;-709.20029;;-709.20029
-15.503726;;-15.503726;;-17.188128;;-19.580912;;-22.741725;;-25.938728;;-29.120536;;-31.704053;;-33.828645;;-36.082744;;-38.57009;;-41.216717;;-43.925889;;-46.680972;;-49.607844;;-52.909426;;-56.716415;;-61.259777;;-68.612293;;-81.041854;;-98.182358;;-120.10989;;-147.14458;;-179.06608;;-215.63936;;-256.17596;;-299.03521;;-341.39973;;-379.85739;;-411.99133;;-437.29087;;-456.88299;;-472.87627;;-487.55586;;-502.53348;;-518.18888;;-533.88114;;-548.79566;;-562.51092;;-574.84591;;-585.67179;;-595.06035;;-603.28175;;-610.65972;;-617.65624;;-624.78249;;-632.14175;;-639.42206;;-646.4989;;-653.62598;;-660.89525;;-667.88444;;-674.04081;;-679.23809;;-683.81403;;-688.14489;;-692.27323;;-695.94851;;-699.00463;;-701.58667;;-703.92414;;-706.03403;;-707.72002;;-708.69877;;-708.69877
-15.036725;;-15.036725;;-16.646908;;-18.940802;;-21.759914;;-25.118574;;-28.31485;;-31.114693;;-33.441885;;-35.79777;;-38.340057;;-40.999342;;-43.62499;;-46.143076;;-48.687853;;-51.547543;;-54.955729;;-59.306321;;-67.109597;;-79.806352;;-96.981155;;-118.7528;;-145.38106;;-176.53269;;-212.0409;;-251.22734;;-292.72208;;-334.48002;;-374.0509;;-409.03595;;-437.81964;;-460.33084;;-478.09985;;-493.37842;;-507.99792;;-522.76483;;-537.6608;;-552.41825;;-566.70247;;-579.83939;;-590.99292;;-599.95137;;-607.37871;;-614.18754;;-621.00364;;-628.0479;;-635.10668;;-641.81551;;-648.18711;;-654.58473;;-661.13006;;-667.48648;;-673.32103;;-678.72709;;-684.01191;;-689.15658;;-693.69375;;-697.18667;;-699.74387;;-701.92498;;-704.12499;;-706.23215;;-707.8878;;-708.80876;;-708.80876
-14.383085;;-14.383085;;-15.886915;;-18.037352;;-20.699497;;-23.934306;;-27.10606;;-30.102559;;-32.624295;;-34.987913;;-37.450317;;-40.02964;;-42.594569;;-45.034215;;-47.450956;;-50.144917;;-53.367164;;-57.596881;;-65.712096;;-78.576893;;-95.801934;;-117.53811;;-143.93627;;-174.67459;;-209.54429;;-247.80969;;-288.22773;;-329.32714;;-369.42841;;-406.38101;;-438.00763;;-463.25345;;-482.87334;;-498.84716;;-513.21486;;-527.32825;;-541.73886;;-556.42596;;-570.91909;;-584.2384;;-595.28926;;-603.8149;;-610.71641;;-617.19374;;-623.8642;;-630.6812;;-637.27105;;-643.3698;;-649.14524;;-654.97936;;-660.93431;;-666.69051;;-672.08692;;-677.49694;;-683.35978;;-689.35208;;-694.43949;;-697.94112;;-700.25735;;-702.34678;;-704.68194;;-706.95662;;-708.65512;;-709.53644;;-709.53644
-13.679783;;-13.679783;;-15.067856;;-17.060687;;-19.545818;;-22.625331;;-25.711076;;-28.767289;;-31.349113;;-33.523199;;-35.704307;;-38.089277;;-40.626178;;-43.172047;;-45.742031;;-48.554301;;-51.79604;;-56.005169;;-64.448671;;-77.524248;;-94.923001;;-116.84912;;-143.42962;;-174.41654;;-209.59059;;-248.13246;;-288.62967;;-329.55912;;-369.57475;;-407.00268;;-439.81893;;-466.58268;;-487.40933;;-503.89831;;-518.19706;;-532.0592;;-546.30515;;-560.83187;;-574.99733;;-587.90243;;-598.67918;;-607.11944;;-613.98233;;-620.32899;;-626.68731;;-632.97929;;-638.95046;;-644.54629;;-650.00486;;-655.57712;;-661.14066;;-666.25298;;-670.7984;;-675.49841;;-681.24288;;-687.73217;;-693.47486;;-697.45248;;-700.14872;;-702.66634;;-705.40046;;-707.90348;;-709.64643;;-710.4952;;-710.4952
-13.098947;;-13.098947;;-14.386988;;-16.240832;;-18.562555;;-21.476229;;-24.411916;;-27.353348;;-29.772914;;-31.549166;;-33.30713;;-35.435002;;-37.957086;;-40.715156;;-43.617744;;-46.731284;;-50.1207;;-54.507374;;-63.52149;;-76.999966;;-94.804504;;-117.236;;-144.4563;;-176.33643;;-212.6967;;-252.64952;;-294.41361;;-335.75845;;-375.15776;;-411.61583;;-443.84665;;-470.62437;;-491.8048;;-508.67427;;-523.26716;;-537.3314;;-551.57741;;-565.7;;-579.07447;;-591.21583;;-601.71356;;-610.36246;;-617.49342;;-623.76618;;-629.62657;;-635.19753;;-640.55411;;-645.88304;;-651.38317;;-657.03551;;-662.42538;;-666.89092;;-670.26275;;-673.60338;;-678.44641;;-684.85741;;-691.1472;;-695.93052;;-699.48134;;-702.71901;;-705.84237;;-708.39021;;-710.01239;;-710.75755;;-710.75755
-12.691117;;-12.691117;;-13.899455;;-15.639015;;-17.818114;;-20.565549;;-23.310781;;-26.021915;;-28.08092;;-29.355345;;-30.693845;;-32.596777;;-35.114675;;-38.081486;;-41.335129;;-44.789412;;-48.379308;;-53.313968;;-63.123753;;-77.204717;;-95.627616;;-118.81497;;-146.96508;;-180.08665;;-218.03601;;-259.8529;;-303.34845;;-345.2783;;-383.60128;;-418.17655;;-448.73563;;-474.59903;;-495.70878;;-513.13329;;-528.51211;;-543.14407;;-557.4089;;-570.94354;;-583.39777;;-594.76902;;-605.00273;;-613.82873;;-621.16861;;-627.31863;;-632.69302;;-637.66555;;-642.61901;;-647.89967;;-653.61743;;-659.48778;;-664.82773;;-668.79593;;-671.16667;;-673.19034;;-676.86548;;-682.698;;-689.09889;;-694.46031;;-698.69931;;-702.38047;;-705.5206;;-707.77804;;-709.08281;;-709.65804;;-709.65804
-12.36472;;-12.36472;;-13.500848;;-15.135114;;-17.178926;;-19.760336;;-22.30354;;-24.75331;;-26.409097;;-27.27042;;-28.336005;;-30.116659;;-32.638286;;-35.727046;;-39.205941;;-42.906617;;-46.704556;;-52.534086;;-63.061738;;-77.727276;;-96.757705;;-120.6765;;-149.70249;;-183.96608;;-223.33739;;-266.77655;;-311.7267;;-353.92618;;-390.82489;;-423.3348;;-452.16608;;-477.17068;;-498.45121;;-516.82776;;-533.33785;;-548.65136;;-562.89611;;-575.91289;;-587.73296;;-598.62993;;-608.64482;;-617.44618;;-624.7779;;-630.77767;;-635.87725;;-640.60757;;-645.46146;;-650.7531;;-656.48052;;-662.26171;;-667.3765;;-671.0023;;-672.92755;;-674.35591;;-677.27721;;-682.38992;;-688.38763;;-693.7107;;-698.01768;;-701.58002;;-704.35127;;-706.16786;;-707.17521;;-707.64201;;-707.64201
-11.999641;;-11.999641;;-13.054669;;-14.572689;;-16.471222;;-18.652808;;-21.242545;;-23.493575;;-24.942896;;-25.637517;;-26.615819;;-28.360184;;-30.852652;;-33.926713;;-37.438549;;-41.22107;;-45.186531;;-51.771483;;-62.693162;;-77.65335;;-96.981302;;-121.26182;;-150.73115;;-185.59895;;-225.7459;;-270.08561;;-315.81954;;-357.89036;;-393.41845;;-424.43911;;-452.4054;;-477.43271;;-499.56574;;-519.22505;;-536.84541;;-552.67222;;-566.88355;;-579.68923;;-591.37565;;-602.19243;;-612.09847;;-620.79371;;-628.06929;;-634.04073;;-639.13301;;-643.91229;;-648.81244;;-653.94989;;-659.18147;;-664.22029;;-668.59774;;-671.72123;;-673.48975;;-674.98528;;-677.87396;;-682.67677;;-688.24159;;-693.19119;;-697.14726;;-700.30468;;-702.6905;;-704.27991;;-705.25699;;-705.77926;;-705.77926
-11.589368;;-11.589368;;-12.550804;;-13.939813;;-15.685488;;-17.712315;;-20.156567;;-22.324737;;-23.883896;;-24.713734;;-25.760559;;-27.465765;;-29.821164;;-32.722752;;-36.09269;;-39.803025;;-43.806034;;-50.597912;;-61.479821;;-76.297772;;-95.427159;;-119.47665;;-148.71337;;-183.38113;;-223.39785;;-267.72017;;-313.5397;;-355.46457;;-390.31637;;-420.96052;;-449.3186;;-475.49722;;-499.19865;;-520.30271;;-538.80725;;-554.91313;;-569.12771;;-582.01431;;-593.90325;;-604.8491;;-614.72845;;-623.39175;;-630.78031;;-636.97457;;-642.27262;;-647.15778;;-651.97243;;-656.65523;;-660.95074;;-664.71329;;-667.75425;;-669.71919;;-670.77565;;-672.27204;;-675.76924;;-681.2804;;-687.23109;;-692.17841;;-695.88027;;-698.73662;;-700.98858;;-702.69179;;-703.91135;;-704.61343;;-704.61343
-11.245911;;-11.245911;;-12.105216;;-13.368791;;-14.978239;;-16.889078;;-19.243995;;-21.420432;;-23.264456;;-24.42961;;-25.585667;;-27.186414;;-29.315048;;-31.968586;;-35.128327;;-38.691895;;-42.564579;;-48.960378;;-59.375156;;-73.626858;;-92.077013;;-115.3268;;-143.69893;;-177.43187;;-216.51934;;-260.0631;;-305.51092;;-347.7279;;-383.05198;;-414.45611;;-444.18548;;-472.27009;;-497.96681;;-520.59501;;-539.884;;-556.214;;-570.48522;;-583.51849;;-595.60687;;-606.63204;;-616.45587;;-625.12372;;-632.73666;;-639.30551;;-644.90322;;-649.8317;;-654.37199;;-658.44491;;-661.77886;;-664.22562;;-665.54234;;-665.38903;;-664.50072;;-665.31032;;-669.87996;;-677.41856;;-685.07118;;-690.80607;;-694.59733;;-697.32565;;-699.59341;;-701.53984;;-703.06706;;-703.95562;;-703.95562
-11.067487;;-11.067487;;-11.824259;;-12.992908;;-14.510612;;-16.354806;;-18.667144;;-20.870793;;-22.909979;;-24.338839;;-25.537245;;-27.018134;;-28.967211;;-31.451282;;-34.463864;;-37.894146;;-41.570805;;-47.059719;;-56.635109;;-69.973843;;-87.371698;;-109.39357;;-136.44958;;-168.73799;;-206.3616;;-248.65431;;-293.53011;;-336.61035;;-373.68208;;-406.81398;;-438.43621;;-468.64472;;-496.4023;;-520.59426;;-540.76399;;-557.45033;;-571.84482;;-584.97595;;-597.15997;;-608.17558;;-617.85528;;-626.38332;;-634.02382;;-640.79281;;-646.59885;;-651.55703;;-655.89003;;-659.58258;;-662.38481;;-663.94112;;-663.56527;;-660.73105;;-657.01413;;-656.54584;;-662.3356;;-672.62594;;-682.75809;;-689.7601;;-693.83611;;-696.48803;;-698.74756;;-700.86499;;-702.62065;;-703.64815;;-703.64815
-11.006815;;-11.006815;;-11.696676;;-12.817075;;-14.290047;;-16.095767;;-18.377489;;-20.567658;;-22.627505;;-24.073192;;-25.216206;;-26.642734;;-28.575724;;-31.054141;;-34.023708;;-37.360224;;-40.872925;;-45.223783;;-53.552399;;-65.672649;;-81.729916;;-102.20449;;-127.61888;;-158.11803;;-193.91591;;-234.63408;;-278.77027;;-322.97695;;-362.89511;;-398.67561;;-432.54464;;-464.86554;;-494.58938;;-520.36114;;-541.56511;;-558.80742;;-573.48927;;-586.84223;;-599.22574;;-610.28258;;-619.73154;;-627.83982;;-635.07524;;-641.59798;;-647.33271;;-652.3324;;-656.75685;;-660.56217;;-663.42774;;-664.7273;;-663.3153;;-658.49186;;-652.52709;;-650.8968;;-657.39521;;-669.59275;;-681.49816;;-689.40435;;-693.66949;;-696.26856;;-698.54893;;-700.83312;;-702.80994;;-703.98424;;-703.98424
-10.974455;;-10.974455;;-11.6007;;-12.67707;;-14.106519;;-15.864193;;-17.862257;;-20.226299;;-22.215999;;-23.557371;;-24.639733;;-26.119872;;-28.182015;;-30.765579;;-33.74434;;-36.983359;;-40.353408;;-43.92828;;-50.43407;;-61.070252;;-75.583136;;-94.299552;;-117.78511;;-146.26578;;-179.97218;;-218.83132;;-261.93068;;-306.96601;;-350.13336;;-389.389;;-425.91154;;-460.41532;;-492.12841;;-519.61873;;-542.09829;;-560.19514;;-575.51961;;-589.4607;;-602.30548;;-613.47529;;-622.57243;;-629.9858;;-636.42871;;-642.27422;;-647.60863;;-652.59324;;-657.35962;;-661.68822;;-665.06192;;-666.72634;;-665.47425;;-660.60647;;-654.41556;;-652.39857;;-658.43745;;-670.24508;;-681.89647;;-689.64258;;-693.81722;;-696.44242;;-698.90688;;-701.50003;;-703.80522;;-705.19234;;-705.19234
-10.938779;;-10.938779;;-11.385968;;-12.34883;;-13.668112;;-15.309553;;-17.201605;;-19.472571;;-21.420888;;-22.815641;;-23.96442;;-25.55253;;-27.729242;;-30.373851;;-33.31922;;-36.46567;;-39.76042;;-43.151215;;-47.774274;;-56.715731;;-69.551197;;-86.435219;;-107.85272;;-134.24859;;-165.76773;;-202.58931;;-244.29197;;-289.42309;;-335.08009;;-377.95861;;-417.39565;;-454.21935;;-488.15835;;-517.82175;;-542.15962;;-561.69204;;-578.16052;;-593.00988;;-606.37435;;-617.52108;;-626.09306;;-632.67694;;-638.19292;;-643.18698;;-647.95215;;-652.85802;;-658.05443;;-663.08765;;-667.20016;;-669.69193;;-669.70859;;-666.71049;;-662.33367;;-660.77449;;-665.27582;;-674.44306;;-683.80352;;-690.3128;;-694.12786;;-696.86083;;-699.64014;;-702.61667;;-705.26845;;-706.86451;;-706.86451
-10.923953;;-10.923953;;-11.08324;;-11.824688;;-12.945567;;-14.387893;;-16.112384;;-18.250624;;-20.187923;;-21.845164;;-23.19159;;-24.761234;;-26.768089;;-29.132625;;-31.859933;;-35.046819;;-38.575096;;-42.262037;;-46.236999;;-53.228743;;-64.389015;;-79.533868;;-99.001225;;-123.35684;;-152.80411;;-187.56912;;-227.57734;;-271.96378;;-318.61645;;-364.15864;;-406.28915;;-445.41596;;-481.8382;;-514.34977;;-541.49544;;-563.29523;;-581.29184;;-596.93433;;-610.42813;;-621.22373;;-629.20808;;-635.11076;;-639.8915;;-644.19061;;-648.51024;;-653.41107;;-659.05171;;-664.79886;;-669.72223;;-673.22649;;-674.89069;;-674.39643;;-672.55684;;-671.85815;;-674.57665;;-680.32481;;-686.56464;;-691.34572;;-694.67204;;-697.53762;;-700.6132;;-703.83902;;-706.63575;;-708.28966;;-708.28966
-10.9197;;-10.9197;;-10.953826;;-11.307557;;-12.174365;;-13.389028;;-14.907911;;-16.666806;;-18.804535;;-20.68925;;-22.280514;;-23.596931;;-24.993317;;-26.647366;;-28.975126;;-32.177663;;-36.143118;;-40.569639;;-45.139378;;-50.897525;;-60.588502;;-74.211556;;-92.015063;;-114.51233;;-142.13803;;-175.00755;;-213.24485;;-256.35076;;-302.77673;;-349.60064;;-393.76624;;-434.88102;;-473.67528;;-509.32899;;-539.92974;;-564.50517;;-583.94167;;-599.7828;;-612.81143;;-623.0879;;-630.78203;;-636.50977;;-641.03921;;-645.07081;;-649.32409;;-654.43863;;-660.49017;;-666.77247;;-672.34813;;-676.69691;;-679.62588;;-680.97473;;-681.03986;;-681.07584;;-682.53252;;-685.63322;;-689.31203;;-692.59204;;-695.46513;;-698.42892;;-701.70402;;-704.99633;;-707.7066;;-709.25001;;-709.25001
-10.917766;;-10.917766;;-10.928393;;-11.011336;;-11.547574;;-12.533144;;-13.852131;;-15.469517;;-17.304103;;-19.470535;;-21.218567;;-22.248017;;-22.824503;;-23.753036;;-25.727377;;-28.817002;;-32.901532;;-37.83825;;-43.300253;;-49.377777;;-58.149872;;-70.666261;;-87.216849;;-108.28235;;-134.45816;;-165.86745;;-202.66728;;-244.59117;;-290.47081;;-337.83171;;-383.3989;;-425.90596;;-466.27255;;-504.24773;;-537.65247;;-564.43118;;-584.65058;;-600.08488;;-612.4269;;-622.48199;;-630.52506;;-636.78126;;-641.68084;;-645.9821;;-650.59726;;-656.11341;;-662.43013;;-668.86807;;-674.67301;;-679.41867;;-682.9172;;-684.99891;;-685.75297;;-685.94272;;-686.70313;;-688.57009;;-691.1197;;-693.73914;;-696.38453;;-699.3748;;-702.75075;;-706.06122;;-708.66064;;-710.07651;;-710.07651
-10.917068;;-10.917068;;-10.919664;;-10.937975;;-11.121321;;-11.872004;;-12.999284;;-14.440335;;-16.135766;;-17.962892;;-19.920106;;-20.859396;;-20.693994;;-20.960943;;-22.703032;;-25.694539;;-29.749142;;-34.808592;;-40.761131;;-47.690932;;-56.651661;;-68.79678;;-84.729944;;-105.04014;;-130.39176;;-161.09202;;-197.25715;;-238.7502;;-284.61392;;-332.59045;;-379.18029;;-422.2524;;-462.73714;;-501.03334;;-535.11727;;-562.43323;;-582.58265;;-597.53747;;-609.61017;;-620.0306;;-629.006;;-636.35872;;-642.18849;;-647.22434;;-652.44469;;-658.33917;;-664.68267;;-670.9082;;-676.52221;;-681.20979;;-684.67624;;-686.56507;;-686.80522;;-686.19157;;-686.27612;;-688.10939;;-691.24248;;-694.48432;;-697.36735;;-700.31496;;-703.63805;;-706.94278;;-709.51081;;-710.87595;;-710.87595
-10.916908;;-10.916908;;-10.917297;;-10.920691;;-10.950743;;-11.328502;;-12.204485;;-13.406214;;-14.872626;;-16.48259;;-18.033638;;-19.183263;;-18.735389;;-18.512313;;-20.228848;;-23.156077;;-27.123729;;-32.154428;;-38.332276;;-45.916449;;-55.592987;;-68.111761;;-84.191375;;-104.55608;;-129.96918;;-160.84951;;-197.37731;;-239.45561;;-286.16554;;-335.172;;-382.46888;;-425.0676;;-463.94968;;-500.19658;;-532.44584;;-558.53654;;-578.13736;;-593.09849;;-605.61291;;-616.85931;;-626.99755;;-635.69712;;-642.81039;;-648.84705;;-654.66674;;-660.74;;-666.93039;;-672.85198;;-678.17009;;-682.58609;;-685.67364;;-686.82932;;-685.73624;;-683.41106;;-682.39514;;-684.72462;;-689.67229;;-694.68881;;-698.3412;;-701.21746;;-704.24782;;-707.35009;;-709.80354;;-711.10629;;-711.10629
-10.91689;;-10.91689;;-10.916919;;-10.917344;;-10.923818;;-10.997648;;-11.507628;;-12.417401;;-13.604371;;-14.956892;;-16.277957;;-17.091716;;-16.856616;;-16.555708;;-18.336043;;-20.958363;;-24.812124;;-29.784058;;-36.352177;;-44.404485;;-54.69536;;-67.838921;;-84.535594;;-105.56842;;-131.68788;;-163.35988;;-200.90516;;-244.23815;;-292.37869;;-342.72598;;-390.46799;;-431.65362;;-467.5487;;-500.05189;;-528.90425;;-552.96172;;-572.14924;;-587.77976;;-601.34743;;-613.69994;;-625.03546;;-635.09148;;-643.55444;;-650.59938;;-656.87942;;-662.96782;;-669.00437;;-674.78516;;-679.95323;;-684.09707;;-686.72114;;-687.10505;;-684.69377;;-680.59906;;-678.28564;;-680.88069;;-687.5356;;-694.39181;;-698.93367;;-701.74202;;-704.29723;;-706.91188;;-709.00665;;-710.12351;;-710.12351
-10.916889;;-10.916889;;-10.91689;;-10.916932;;-10.918561;;-10.935615;;-11.060925;;-11.602289;;-12.474043;;-13.544634;;-14.6264;;-15.310148;;-14.903929;;-14.847874;;-16.634062;;-19.399304;;-23.154032;;-28.089048;;-34.737501;;-43.00283;;-53.617061;;-67.182417;;-84.408652;;-106.07095;;-132.82323;;-165.26002;;-203.79773;;-248.38607;;-298.01197;;-349.83235;;-398.1083;;-437.46544;;-469.69078;;-497.89502;;-523.19615;;-545.49685;;-564.80746;;-581.68789;;-596.79398;;-610.55819;;-623.17014;;-634.47195;;-644.08629;;-651.94461;;-658.55765;;-664.65049;;-670.63878;;-676.42484;;-681.54235;;-685.47117;;-687.78493;;-687.87629;;-685.09585;;-680.37293;;-677.32082;;-679.54699;;-686.44404;;-693.84556;;-698.743;;-701.47217;;-703.56502;;-705.54802;;-707.09713;;-707.92065;;-707.92065
-10.916889;;-10.916889;;-10.916889;;-10.916894;;-10.917205;;-10.921092;;-10.947132;;-11.088305;;-11.592635;;-12.361205;;-13.190695;;-13.721617;;-13.401268;;-13.720313;;-15.476993;;-18.133221;;-21.754794;;-26.554048;;-33.077053;;-41.231522;;-51.747499;;-65.233307;;-82.407516;;-104.01589;;-130.73321;;-163.23301;;-202.01435;;-247.1227;;-297.64898;;-350.77954;;-400.2452;;-438.49574;;-467.54236;;-492.14445;;-514.69393;;-535.90582;;-555.80427;;-574.31719;;-591.33969;;-606.79501;;-620.72007;;-633.05281;;-643.5097;;-651.97492;;-658.89949;;-665.0875;;-671.09139;;-676.86163;;-681.9071;;-685.73722;;-688.08595;;-688.57817;;-686.64342;;-682.85735;;-680.11256;;-681.5926;;-687.15378;;-693.50465;;-697.98853;;-700.56891;;-702.30862;;-703.69804;;-704.69735;;-705.22955;;-705.22955
-10.916889;;-10.916889;;-10.916889;;-10.91689;;-10.91692;;-10.917453;;-10.922271;;-10.947896;;-11.059933;;-11.468486;;-12.041423;;-12.425331;;-12.191702;;-12.780226;;-14.443672;;-16.912579;;-20.28526;;-24.776314;;-30.68537;;-38.631465;;-48.608639;;-61.446309;;-77.852562;;-98.582705;;-124.32431;;-155.795;;-193.57913;;-237.87347;;-288.03117;;-341.66849;;-392.98824;;-432.42332;;-460.42243;;-483.20931;;-504.12354;;-524.59972;;-545.04044;;-565.15247;;-584.16331;;-601.35187;;-616.49164;;-629.64329;;-640.75063;;-649.77919;;-657.12655;;-663.54626;;-669.59409;;-675.28366;;-680.26792;;-684.22634;;-687.0136;;-688.4014;;-687.9797;;-686.03379;;-684.42107;;-685.38581;;-689.15496;;-693.77173;;-697.38746;;-699.68268;;-701.14291;;-702.12619;;-702.78682;;-703.16134;;-703.16134
-10.916889;;-10.916889;;-10.916889;;-10.916889;;-10.91689;;-10.916922;;-10.917481;;-10.921326;;-10.935943;;-10.986964;;-11.223182;;-11.459188;;-11.316272;;-11.950089;;-13.447775;;-15.657682;;-18.686272;;-22.736532;;-28.087845;;-35.334961;;-44.439496;;-56.191628;;-71.260903;;-90.402616;;-114.30534;;-143.69269;;-179.22156;;-221.25393;;-269.48716;;-322.22878;;-374.95047;;-418.23819;;-448.34843;;-471.6427;;-492.07557;;-511.89935;;-532.4487;;-553.69593;;-574.38868;;-593.19164;;-609.58212;;-623.66115;;-635.54169;;-645.2745;;-653.20598;;-659.99738;;-666.16464;;-671.8093;;-676.82871;;-681.13887;;-684.63397;;-687.07355;;-688.18153;;-688.13334;;-687.96434;;-688.97347;;-691.47759;;-694.57468;;-697.23154;;-699.13229;;-700.46255;;-701.43848;;-702.16402;;-702.59906;;-702.59906
-10.916889;;-10.916889;;-10.916889;;-10.916889;;-10.916889;;-10.91689;;-10.916923;;-10.917223;;-10.918463;;-10.921528;;-10.929094;;-10.948993;;-10.936562;;-11.297631;;-12.548825;;-14.450245;;-17.085927;;-20.634386;;-25.344551;;-31.538244;;-39.844309;;-50.294079;;-63.733436;;-80.87662;;-102.41978;;-129.054;;-161.47439;;-200.17754;;-245.17851;;-295.47029;;-347.93844;;-395.44103;;-430.26025;;-456.08648;;-477.36375;;-497.12509;;-517.73224;;-539.67484;;-561.62136;;-581.98703;;-600.00813;;-615.55693;;-628.62249;;-639.25905;;-647.85456;;-655.09403;;-661.50136;;-667.24456;;-672.4268;;-677.18362;;-681.43397;;-684.87473;;-687.30716;;-688.88472;;-690.09853;;-691.49973;;-693.28885;;-695.21319;;-696.9627;;-698.5349;;-700.08181;;-701.5693;;-702.75648;;-703.4131;;-703.4131
-10.916889;;-10.916889;;-10.916889;;-10.916889;;-10.916889;;-10.916889;;-10.91689;;-10.916892;;-10.916902;;-10.916926;;-10.916969;;-10.917035;;-10.917021;;-10.952679;;-11.818933;;-13.372321;;-15.606815;;-18.654547;;-22.725182;;-28.099165;;-35.358085;;-44.482584;;-56.250096;;-71.311177;;-90.359911;;-114.04274;;-143.05376;;-177.97465;;-219.05615;;-265.82966;;-316.34603;;-365.78458;;-405.80973;;-435.35422;;-458.88011;;-479.8723;;-501.15439;;-523.68255;;-546.57499;;-568.53405;;-588.63115;;-606.20033;;-620.7986;;-632.43226;;-641.68075;;-649.41297;;-656.22636;;-662.3111;;-667.84871;;-673.09601;;-678.03541;;-682.38839;;-685.99836;;-688.91226;;-691.18577;;-692.85628;;-694.03571;;-694.93254;;-695.88809;;-697.33401;;-699.43689;;-701.76095;;-703.56715;;-704.46415;;-704.46415
-10.916889;;-10.916889;;-10.916889;;-10.916889;;-10.916889;;-10.916889;;-10.916889;;-10.916889;;-10.916889;;-10.916889;;-10.91689;;-10.91689;;-10.916891;;-10.917679;;-11.242662;;-12.470307;;-14.343553;;-16.942302;;-20.440233;;-25.079514;;-31.398134;;-39.32814;;-49.581446;;-62.743391;;-79.485313;;-100.42833;;-126.23448;;-157.52969;;-194.72191;;-237.72029;;-285.39327;;-334.55013;;-378.48724;;-412.10987;;-438.62732;;-461.68627;;-484.03955;;-507.07945;;-530.78529;;-554.40484;;-576.75259;;-596.43966;;-612.54056;;-625.10365;;-635.00399;;-643.32679;;-650.74488;;-657.45452;;-663.61156;;-669.46756;;-675.08791;;-680.31994;;-684.99738;;-688.90504;;-691.72214;;-693.28046;;-693.79796;;-693.83343;;-694.17843;;-695.61389;;-698.31047;;-701.43605;;-703.79106;;-704.87805;;-704.87805
-10.916889;;-10.916889;;-10.916889;;-10.916889;;-10.916889;;-10.916889;;-10.916889;;-10.916889;;-10.916889;;-10.916889;;-10.916889;;-10.916889;;-10.91689;;-10.91693;;-10.949719;;-11.800796;;-13.345013;;-15.568819;;-18.600698;;-22.646519;;-28.208114;;-35.177828;;-44.215217;;-55.852788;;-70.716925;;-89.443924;;-112.65391;;-140.99531;;-174.9817;;-214.77507;;-259.77901;;-307.87041;;-354.10639;;-391.49148;;-420.5098;;-445.00462;;-467.88598;;-491.20689;;-515.83897;;-541.29901;;-565.8553;;-587.39402;;-604.71898;;-618.0895;;-628.66159;;-637.62371;;-645.68685;;-653.10595;;-660.01313;;-666.58077;;-672.92224;;-679.00492;;-684.57083;;-689.0719;;-691.96435;;-693.20097;;-693.26396;;-692.86756;;-692.91;;-694.33275;;-697.35263;;-700.9108;;-703.51537;;-704.64235;;-704.64235
-10.916889;;-10.916889;;-10.916889;;-10.916889;;-10.916889;;-10.916889;;-10.916889;;-10.916889;;-10.916889;;-10.916889;;-10.916889;;-10.916889;;-10.916889;;-10.916896;;-10.918834;;-11.328035;;-12.615047;;-14.559143;;-17.248288;;-20.862789;;-25.651621;;-32.159969;;-40.331807;;-50.88473;;-64.405906;;-81.549466;;-102.91658;;-129.16071;;-160.86536;;-198.35437;;-241.36827;;-288.44852;;-335.80135;;-376.12424;;-406.50461;;-431.11914;;-453.7899;;-477.40538;;-503.3155;;-530.79876;;-557.40191;;-580.46729;;-598.76928;;-612.83755;;-623.98451;;-633.37928;;-641.78436;;-649.61825;;-657.0671;;-664.2216;;-671.17638;;-677.92476;;-684.06873;;-688.81878;;-691.61622;;-692.70488;;-692.8321;;-692.67095;;-692.90473;;-694.33647;;-697.12085;;-700.13264;;-701.96199;;-702.47957;;-702.47957
-10.916889;;-10.916889;;-10.916889;;-10.916889;;-10.916889;;-10.916889;;-10.916889;;-10.916889;;-10.916889;;-10.916889;;-10.916889;;-10.916889;;-10.916889;;-10.916891;;-10.917193;;-11.049575;;-12.133641;;-13.870519;;-16.32001;;-19.641336;;-24.06316;;-30.111361;;-37.708487;;-47.541506;;-60.165696;;-76.236703;;-96.359612;;-121.18251;;-151.33218;;-187.23182;;-228.8273;;-275.05777;;-322.81983;;-365.25289;;-396.44595;;-420.71228;;-443.26416;;-467.59187;;-494.98751;;-524.2651;;-552.44817;;-576.62577;;-595.63718;;-610.17199;;-621.56474;;-630.94558;;-639.18899;;-646.93484;;-654.47237;;-661.84211;;-669.07724;;-676.11479;;-682.45074;;-687.24027;;-690.05011;;-691.35684;;-692.04249;;-692.66459;;-693.50025;;-694.73672;;-695.97019;;-696.04917;;-694.4425;;-692.58871;;-692.58871
-10.916889;;-10.916889;;-10.916889;;-10.916889;;-10.916889;;-10.916889;;-10.916889;;-10.916889;;-10.916889;;-10.916889;;-10.916889;;-10.916889;;-10.916889;;-10.91689;;-10.916947;;-10.948133;;-11.815516;;-13.392969;;-15.673703;;-18.792968;;-22.96395;;-28.470793;;-35.673772;;-45.018226;;-57.274198;;-72.61596;;-91.892324;;-115.7488;;-144.84371;;-179.66725;;-220.30121;;-265.94815;;-313.99124;;-358.2529;;-390.76934;;-415.31198;;-438.35615;;-463.58902;;-492.02824;;-522.23215;;-551.11507;;-575.75093;;-594.99543;;-609.54266;;-620.70592;;-629.64092;;-637.35106;;-644.63463;;-651.85869;;-659.05129;;-666.18667;;-673.12373;;-679.33494;;-684.08354;;-687.08178;;-688.82672;;-690.13309;;-691.47204;;-692.69632;;-692.82621;;-690.06058;;-683.1553;;-673.71578;;-666.61726;;-666.61726
-10.916889;;-10.916889;;-10.916889;;-10.916889;;-10.916889;;-10.916889;;-10.916889;;-10.916889;;-10.916889;;-10.916889;;-10.916889;;-10.916889;;-10.916889;;-10.916889;;-10.916897;;-10.9251;;-11.601872;;-13.070252;;-15.238881;;-18.225724;;-22.234922;;-27.542135;;-34.498341;;-43.53882;;-55.192771;;-70.323494;;-89.090022;;-112.37344;;-140.86185;;-175.0971;;-215.26109;;-260.75122;;-309.33039;;-355.49573;;-390.2593;;-415.94948;;-439.76371;;-465.40844;;-493.83028;;-523.74779;;-552.31421;;-576.67621;;-595.60069;;-609.69158;;-620.27266;;-628.57222;;-635.65705;;-642.3655;;-649.1008;;-655.90595;;-662.70844;;-669.30753;;-675.2388;;-679.95635;;-683.24468;;-685.3598;;-686.81957;;-688.09747;;-688.86285;;-686.71698;;-677.70609;;-660.38397;;-639.66536;;-625.29181;;-625.29181
-10.916889;;-10.916889;;-10.916889;;-10.916889;;-10.916889;;-10.916889;;-10.916889;;-10.916889;;-10.916889;;-10.916889;;-10.916889;;-10.916889;;-10.916889;;-10.916889;;-10.91689;;-10.919814;;-11.459123;;-12.854844;;-14.948021;;-17.846544;;-21.749551;;-26.927718;;-33.726542;;-42.792175;;-53.998672;;-68.621379;;-87.32081;;-110.27441;;-138.43152;;-172.3781;;-212.37701;;-257.98323;;-307.27332;;-355.34444;;-393.02037;;-420.52995;;-445.11378;;-470.50308;;-497.89904;;-526.56011;;-554.10804;;-577.77138;;-596.12248;;-609.61984;;-619.61227;;-627.36879;;-633.92541;;-640.10488;;-646.3581;;-652.75015;;-659.14969;;-665.32944;;-670.95993;;-675.69529;;-679.28122;;-681.53936;;-682.53768;;-682.87776;;-682.53564;;-678.15684;;-663.63299;;-637.11621;;-606.50096;;-585.75951;;-585.75951
-10.916889;;-10.916889;;-10.916889;;-10.916889;;-10.916889;;-10.916889;;-10.916889;;-10.916889;;-10.916889;;-10.916889;;-10.916889;;-10.916889;;-10.916889;;-10.916889;;-10.91689;;-10.917976;;-11.331378;;-12.656665;;-14.672219;;-17.477135;;-21.26506;;-26.300656;;-33.13777;;-41.771748;;-52.930288;;-67.012664;;-85.351889;;-107.90656;;-135.64205;;-169.18252;;-208.86693;;-254.40187;;-304.16954;;-353.86981;;-394.74305;;-424.59127;;-450.10178;;-475.03856;;-501.0296;;-528.12087;;-554.56081;;-577.65978;;-595.6978;;-608.91453;;-618.63809;;-626.1109;;-632.29085;;-638.01342;;-643.82401;;-649.80889;;-655.77615;;-661.52624;;-666.90782;;-671.72037;;-675.57989;;-677.87;;-678.26168;;-677.55315;;-676.43658;;-671.72335;;-656.38151;;-627.88052;;-594.75768;;-572.21309;;-572.21309
-10.916889;;-10.916889;;-10.916889;;-10.916889;;-10.916889;;-10.916889;;-10.916889;;-10.916889;;-10.916889;;-10.916889;;-10.916889;;-10.916889;;-10.916889;;-10.916889;;-10.916889;;-10.917184;;-11.179821;;-12.408111;;-14.31399;;-16.985295;;-20.606282;;-25.431331;;-32.003279;;-40.305283;;-51.050574;;-64.845682;;-82.370317;;-104.26426;;-131.25692;;-164.00929;;-202.93925;;-247.91335;;-297.63576;;-348.43765;;-392.33872;;-424.63777;;-451.10622;;-475.70437;;-500.5517;;-526.50408;;-552.40968;;-575.59593;;-593.9816;;-607.5035;;-617.39626;;-624.85751;;-630.80097;;-636.0983;;-641.3646;;-646.70725;;-651.99896;;-657.25485;;-662.54689;;-667.65711;;-671.94415;;-674.51496;;-674.90857;;-674.06247;;-673.30363;;-670.60909;;-659.96001;;-638.4106;;-612.4808;;-594.72457;;-594.72457
-10.916889;;-10.916889;;-10.916889;;-10.916889;;-10.916889;;-10.916889;;-10.916889;;-10.916889;;-10.916889;;-10.916889;;-10.916889;;-10.916889;;-10.916889;;-10.916889;;-10.916889;;-10.916945;;-11.029566;;-12.113726;;-13.872695;;-16.371447;;-19.777212;;-24.329051;;-30.339101;;-38.200704;;-48.616329;;-61.729389;;-78.450596;;-99.427641;;-125.36715;;-156.96286;;-194.7083;;-238.6281;;-287.7451;;-339.01425;;-385.42727;;-419.83022;;-446.78255;;-470.99378;;-495.22729;;-520.93192;;-547.25097;;-571.38344;;-590.85939;;-605.26146;;-615.6833;;-623.33804;;-629.17289;;-634.0115;;-638.33702;;-642.24983;;-646.04806;;-650.49765;;-656.07432;;-662.1981;;-667.58318;;-671.12842;;-672.56506;;-672.8899;;-673.56376;;-673.81217;;-669.72439;;-658.6609;;-643.99514;;-633.53432;;-633.53432
-10.916889;;-10.916889;;-10.916889;;-10.916889;;-10.916889;;-10.916889;;-10.916889;;-10.916889;;-10.916889;;-10.916889;;-10.916889;;-10.916889;;-10.916889;;-10.916889;;-10.916889;;-10.916897;;-10.942712;;-11.796238;;-13.377972;;-15.677247;;-18.833325;;-23.066003;;-28.668449;;-36.012947;;-45.777555;;-58.080666;;-73.814895;;-93.651901;;-118.26792;;-148.37641;;-184.537;;-226.92222;;-274.86213;;-325.93357;;-374.23985;;-410.72192;;-437.75791;;-461.48266;;-485.58252;;-511.86535;;-539.43562;;-565.21064;;-586.32453;;-601.98969;;-613.15983;;-621.14978;;-626.97903;;-631.24087;;-633.97523;;-635.20867;;-636.16319;;-639.18146;;-645.52168;;-653.83281;;-661.52968;;-667.05137;;-670.45552;;-672.81862;;-675.3128;;-677.7996;;-678.31848;;-675.19547;;-669.64774;;-665.32418;;-665.32418
-10.916889;;-10.916889;;-10.916889;;-10.916889;;-10.916889;;-10.916889;;-10.916889;;-10.916889;;-10.916889;;-10.916889;;-10.916889;;-10.916889;;-10.916889;;-10.916889;;-10.916889;;-10.91689;;-10.91992;;-11.457911;;-12.844743;;-14.922137;;-17.797091;;-21.668272;;-26.806506;;-33.77633;;-42.569849;;-53.93127;;-68.499278;;-86.963815;;-109.97259;;-138.23838;;-172.37611;;-212.69541;;-258.82806;;-308.98294;;-358.46528;;-397.86051;;-425.69254;;-449.4084;;-473.81163;;-501.02077;;-530.09331;;-557.72851;;-580.70038;;-597.82361;;-609.88416;;-618.29908;;-624.1218;;-627.60909;;-628.25442;;-626.02723;;-623.30789;;-624.40916;;-631.64714;;-642.83551;;-653.77474;;-662.07359;;-667.88744;;-672.3795;;-676.41665;;-679.97759;;-682.2411;;-682.56376;;-681.45497;;-680.32784;;-680.32784
-10.916889;;-10.916889;;-10.916889;;-10.916889;;-10.916889;;-10.916889;;-10.916889;;-10.916889;;-10.916889;;-10.916889;;-10.916889;;-10.916889;;-10.916889;;-10.916889;;-10.916889;;-10.916889;;-10.917111;;-11.13349;;-12.308553;;-14.143425;;-16.716077;;-20.201192;;-24.843274;;-31.176375;;-39.16023;;-49.500797;;-62.793092;;-79.723784;;-100.93276;;-127.10921;;-158.91207;;-196.77503;;-240.61341;;-289.23924;;-339.16952;;-382.50891;;-413.25594;;-438.22367;;-463.3085;;-491.13427;;-521.11081;;-550.09277;;-574.65571;;-593.20001;;-606.24218;;-615.16063;;-620.93486;;-623.58304;;-622.40546;;-617.57492;;-612.23862;;-611.84452;;-619.46653;;-632.64058;;-646.25974;;-657.13019;;-665.06419;;-671.14297;;-676.13428;;-680.03867;;-682.50269;;-683.51454;;-683.60951;;-683.46356;;-683.46356
-10.916889;;-10.916889;;-10.916889;;-10.916889;;-10.916889;;-10.916889;;-10.916889;;-10.916889;;-10.916889;;-10.916889;;-10.916889;;-10.916889;;-10.916889;;-10.916889;;-10.916889;;-10.916889;;-10.916917;;-10.953258;;-11.833583;;-13.413628;;-15.693093;;-18.809613;;-22.978935;;-28.706123;;-35.918443;;-45.284988;;-57.360807;;-72.799672;;-92.274249;;-116.43865;;-145.9847;;-181.4581;;-223.0262;;-270.03617;;-320.13279;;-367.62031;;-403.80766;;-431.40994;;-457.28948;;-484.94478;;-514.58622;;-543.59268;;-568.58476;;-587.77766;;-601.60061;;-611.31072;;-617.51984;;-619.99524;;-618.36476;;-613.37985;;-608.20341;;-607.76325;;-614.97445;;-627.95871;;-642.11963;;-654.05225;;-662.98412;;-669.68966;;-674.9821;;-678.98194;;-681.45731;;-682.54089;;-682.81602;;-682.83634;;-682.83634
-10.916889;;-10.916889;;-10.916889;;-10.916889;;-10.916889;;-10.916889;;-10.916889;;-10.916889;;-10.916889;;-10.916889;;-10.916889;;-10.916889;;-10.916889;;-10.916889;;-10.916889;;-10.916889;;-10.916903;;-10.921569;;-11.448352;;-12.810179;;-14.845671;;-17.657214;;-21.438418;;-26.454405;;-33.259087;;-41.84209;;-52.943322;;-67.187375;;-85.285346;;-107.89075;;-135.71267;;-169.39787;;-209.3251;;-255.26845;;-305.73414;;-356.65407;;-399.44819;;-430.5251;;-457.05126;;-483.84716;;-511.92672;;-539.02818;;-561.94447;;-579.53556;;-593.28321;;-604.64875;;-613.10608;;-617.37538;;-617.40305;;-614.79171;;-612.33751;;-613.33534;;-619.7972;;-630.81306;;-643.29888;;-654.33558;;-662.74503;;-668.97684;;-673.92837;;-677.89337;;-680.61074;;-681.99472;;-682.4391;;-682.49552;;-682.49552
-10.916889;;-10.916889;;-10.916889;;-10.916889;;-10.916889;;-10.916889;;-10.916889;;-10.916889;;-10.916889;;-10.916889;;-10.916889;;-10.916889;;-10.916889;;-10.916889;;-10.916889;;-10.916889;;-10.916897;;-10.918168;;-11.181768;;-12.379622;;-14.232979;;-16.823765;;-20.330848;;-25.004189;;-31.381196;;-39.436397;;-49.890955;;-63.353117;;-80.544055;;-102.17976;;-128.96587;;-161.62655;;-200.69445;;-246.22775;;-297.2618;;-350.69393;;-399.1762;;-434.05474;;-461.27552;;-487.27703;;-513.25153;;-536.49544;;-553.96077;;-566.58519;;-578.93497;;-593.31084;;-606.85333;;-615.64593;;-619.2042;;-620.03567;;-620.91901;;-623.82053;;-629.84263;;-638.73906;;-648.78922;;-657.82906;;-664.69066;;-669.70162;;-673.83967;;-677.55782;;-680.5483;;-682.39104;;-683.13754;;-683.28128;;-683.28128
-10.916889;;-10.916889;;-10.916889;;-10.916889;;-10.916889;;-10.916889;;-10.916889;;-10.916889;;-10.916889;;-10.916889;;-10.916889;;-10.916889;;-10.916889;;-10.916889;;-10.916889;;-10.916889;;-10.916892;;-10.917322;;-11.032467;;-12.088595;;-13.804435;;-16.239212;;-19.557706;;-23.998843;;-30.088785;;-37.794469;;-47.82528;;-60.780573;;-77.377763;;-98.390802;;-124.53012;;-156.56116;;-195.11604;;-240.42991;;-291.86538;;-346.94783;;-399.44356;;-438.40505;;-467.03175;;-493.10562;;-517.36827;;-535.94831;;-545.91889;;-551.44468;;-561.5695;;-579.68153;;-599.89088;;-614.59727;;-622.14551;;-625.86481;;-629.13882;;-633.54988;;-639.64928;;-647.30485;;-655.47896;;-662.65765;;-667.96402;;-671.75892;;-675.03766;;-678.35663;;-681.43458;;-683.63405;;-684.69384;;-684.97357;;-684.97357
-10.916889;;-10.916889;;-10.916889;;-10.916889;;-10.916889;;-10.916889;;-10.916889;;-10.916889;;-10.916889;;-10.916889;;-10.916889;;-10.916889;;-10.916889;;-10.916889;;-10.916891;;-10.916896;;-10.916913;;-10.917064;;-10.959137;;-11.852405;;-13.442187;;-15.73834;;-18.887785;;-23.326085;;-28.941579;;-36.323304;;-45.954122;;-58.420363;;-74.427692;;-94.778168;;-120.19536;;-151.45642;;-189.2591;;-233.96697;;-285.1958;;-340.98137;;-396.07391;;-439.51085;;-470.7335;;-498.13353;;-522.04597;;-537.53736;;-541.85219;;-541.92666;;-550.26725;;-570.90829;;-595.68691;;-614.3271;;-624.18072;;-629.23138;;-633.73292;;-639.34525;;-646.07852;;-653.44453;;-660.66504;;-666.77855;;-671.24196;;-674.41367;;-677.19502;;-680.17895;;-683.1798;;-685.51972;;-686.76481;;-687.14635;;-687.14635
-10.916889;;-10.916889;;-10.916889;;-10.916889;;-10.916889;;-10.916889;;-10.916889;;-10.916889;;-10.916889;;-10.916889;;-10.916889;;-10.916889;;-10.91689;;-10.91691;;-10.917071;;-10.917707;;-10.919217;;-10.921585;;-10.935874;;-11.615017;;-13.064455;;-15.20278;;-18.154016;;-22.337738;;-27.6294;;-34.602342;;-43.717438;;-55.538729;;-70.746026;;-90.137814;;-114.45466;;-144.45873;;-180.88786;;-224.20828;;-274.25873;;-329.54417;;-385.78041;;-433.35911;;-467.97683;;-497.91976;;-523.85938;;-540.40681;;-544.77879;;-544.49894;;-552.46743;;-572.69207;;-596.95265;;-614.89875;;-623.85375;;-628.32286;;-633.37832;;-640.58317;;-648.82316;;-656.76485;;-663.81933;;-669.65367;;-674.01559;;-677.15914;;-679.82827;;-682.61366;;-685.43258;;-687.67245;;-688.87991;;-689.24779;;-689.24779
-10.916889;;-10.916889;;-10.916889;;-10.916889;;-10.916889;;-10.916889;;-10.916889;;-10.916889;;-10.916889;;-10.916889;;-10.916889;;-10.916889;;-10.916902;;-10.917171;;-10.919072;;-10.926173;;-10.942588;;-10.969757;;-11.02126;;-11.410868;;-12.68345;;-14.62565;;-17.333014;;-21.203586;;-26.094551;;-32.55281;;-41.010348;;-51.998205;;-66.159027;;-84.254476;;-107.04055;;-135.2415;;-169.6051;;-210.66878;;-258.45252;;-311.86583;;-367.50225;;-417.46875;;-454.91536;;-488.00035;;-518.84898;;-541.70013;;-552.45083;;-556.73134;;-565.51246;;-582.80479;;-602.48971;;-616.23182;;-621.94497;;-624.51243;;-629.78386;;-639.05313;;-649.57781;;-658.75536;;-666.14172;;-672.1122;;-676.70223;;-680.03782;;-682.70438;;-685.26044;;-687.70393;;-689.5679;;-690.52412;;-690.78875;;-690.78875
-10.916889;;-10.916889;;-10.916889;;-10.916889;;-10.916889;;-10.916889;;-10.916889;;-10.916889;;-10.916889;;-10.916889;;-10.916889;;-10.916891;;-10.917005;;-10.918742;;-10.929732;;-10.968636;;-11.061055;;-11.261784;;-11.568214;;-11.803833;;-12.527514;;-14.145455;;-16.736636;;-20.043278;;-24.481823;;-30.364139;;-38.086622;;-48.13914;;-61.118461;;-77.737379;;-98.751301;;-124.8399;;-156.73088;;-195.00083;;-239.7996;;-290.35096;;-343.9539;;-394.15682;;-432.87159;;-468.75618;;-506.34863;;-539.03684;;-559.72258;;-570.36478;;-579.96906;;-593.72059;;-608.71881;;-618.87247;;-622.15246;;-623.1983;;-628.40657;;-639.05188;;-651.22878;;-661.30606;;-668.87593;;-674.86998;;-679.59432;;-683.07137;;-685.67748;;-687.8481;;-689.66143;;-690.93171;;-691.57862;;-691.78445;;-691.78445
-10.916889;;-10.916889;;-10.916889;;-10.916889;;-10.916889;;-10.916889;;-10.916889;;-10.916889;;-10.916889;;-10.916889;;-10.916897;;-10.916966;;-10.917753;;-10.925285;;-10.966557;;-11.107076;;-11.43961;;-11.96517;;-12.501342;;-12.825159;;-13.12408;;-14.303529;;-16.241703;;-19.111191;;-23.066019;;-28.36939;;-35.376305;;-44.533404;;-56.390369;;-71.608775;;-90.940146;;-115.0365;;-144.58698;;-180.19552;;-222.1155;;-269.82835;;-321.21309;;-370.98086;;-410.50853;;-448.53852;;-492.25578;;-534.28893;;-564.30846;;-580.14343;;-589.76799;;-600.82783;;-613.78617;;-623.87175;;-628.0275;;-629.53485;;-634.47568;;-644.50708;;-656.02647;;-665.42563;;-672.31302;;-677.80546;;-682.36652;;-685.90535;;-688.46619;;-690.23246;;-691.37159;;-692.07439;;-692.53347;;-692.79773;;-692.79773
-10.916889;;-10.916889;;-10.916889;;-10.916889;;-10.916889;;-10.916889;;-10.916889;;-10.916889;;-10.916889;;-10.91689;;-10.916971;;-10.917701;;-10.922203;;-10.948292;;-11.070549;;-11.458954;;-12.127337;;-12.946881;;-13.712664;;-14.340204;;-14.59095;;-15.297089;;-16.649663;;-18.824726;;-22.170142;;-26.875715;;-33.229013;;-41.623309;;-52.561549;;-66.660625;;-84.649446;;-107.2214;;-135.01622;;-168.67951;;-208.58438;;-254.48013;;-304.81665;;-355.41905;;-398.00017;;-438.05377;;-485.0559;;-532.20597;;-567.83528;;-586.84696;;-596.29759;;-605.98786;;-619.02996;;-631.42026;;-638.83197;;-642.47708;;-647.0973;;-654.76766;;-663.43076;;-670.5837;;-675.94539;;-680.48047;;-684.65555;;-688.23378;;-690.86277;;-692.43074;;-693.16453;;-693.52517;;-693.86482;;-694.14865;;-694.14865
-10.916889;;-10.916889;;-10.916889;;-10.916889;;-10.916889;;-10.916889;;-10.916889;;-10.916889;;-10.916889;;-10.916893;;-10.917323;;-10.92119;;-10.940336;;-11.021273;;-11.360754;;-12.076706;;-13.040653;;-14.131614;;-15.314327;;-15.883491;;-16.165458;;-16.820679;;-18.051387;;-19.729838;;-22.045962;;-25.955032;;-31.638303;;-39.366077;;-49.566559;;-62.807511;;-79.786447;;-101.27198;;-127.88984;;-160.33003;;-199.11566;;-244.28767;;-294.8747;;-347.83925;;-396.53465;;-439.36772;;-486.47397;;-533.89924;;-571.24054;;-592.64436;;-603.40754;;-613.23474;;-626.50154;;-640.30573;;-650.18215;;-655.75466;;-660.01808;;-665.07088;;-670.51209;;-675.21839;;-679.07785;;-682.77094;;-686.64384;;-690.293;;-693.04436;;-694.5743;;-695.1021;;-695.12746;;-695.05606;;-695.03053;;-695.03053
-10.916889;;-10.916889;;-10.916889;;-10.916889;;-10.916889;;-10.916889;;-10.916889;;-10.916889;;-10.916889;;-10.916901;;-10.91834;;-10.931378;;-10.991874;;-11.233905;;-11.891791;;-12.871543;;-14.086856;;-15.589979;;-16.794916;;-17.484986;;-17.801673;;-18.422835;;-19.537495;;-20.962217;;-22.56701;;-25.231943;;-30.141768;;-37.180168;;-46.64895;;-59.054573;;-75.055773;;-95.442217;;-120.92411;;-152.18737;;-189.89793;;-234.36798;;-285.15185;;-340.26116;;-394.88182;;-442.29438;;-488.07322;;-533.33914;;-570.97125;;-595.76975;;-610.47324;;-622.32232;;-635.44199;;-648.47482;;-658.3509;;-664.36315;;-668.18441;;-671.54566;;-674.98027;;-678.29664;;-681.51675;;-685.0351;;-688.95822;;-692.69373;;-695.39391;;-696.65033;;-696.64573;;-695.84595;;-694.79445;;-694.06637;;-694.06637
-10.916889;;-10.916889;;-10.916889;;-10.916889;;-10.916889;;-10.916889;;-10.916889;;-10.916889;;-10.91689;;-10.916936;;-10.920501;;-10.952858;;-11.114222;;-11.64921;;-12.552102;;-13.734413;;-15.320174;;-16.796147;;-18.119486;;-18.877723;;-19.220873;;-19.746808;;-20.593102;;-21.589047;;-22.680073;;-24.304903;;-28.287018;;-34.488992;;-43.041351;;-54.361972;;-69.052878;;-87.866066;;-111.59978;;-140.91894;;-176.56503;;-219.05964;;-268.37085;;-323.31623;;-380.44821;;-432.71515;;-478.26096;;-521.70811;;-560.13853;;-589.60718;;-610.64652;;-627.03859;;-641.39373;;-653.57254;;-662.45956;;-668.04878;;-671.53809;;-674.30697;;-677.15617;;-680.28992;;-683.7844;;-687.762;;-691.99678;;-695.68715;;-697.92431;;-698.32823;;-697.15478;;-695.03361;;-692.81851;;-691.41689;;-691.41689
-10.916889;;-10.916889;;-10.916889;;-10.916889;;-10.916889;;-10.916889;;-10.916889;;-10.916889;;-10.916903;;-10.917224;;-10.925377;;-10.999142;;-11.40251;;-12.220433;;-13.33069;;-14.672955;;-16.330908;;-17.786554;;-18.969448;;-19.626153;;-19.965184;;-20.349674;;-20.852085;;-21.378504;;-22.039994;;-23.165472;;-26.048699;;-31.27957;;-38.709958;;-48.652808;;-61.631244;;-78.320038;;-99.516902;;-125.88289;;-158.13355;;-196.90152;;-242.42548;;-294.1086;;-349.68227;;-403.93408;;-450.83802;;-493.55717;;-532.97685;;-567.12912;;-595.73895;;-619.69335;;-639.15906;;-653.6637;;-663.30195;;-669.16869;;-672.85099;;-675.76979;;-678.77959;;-682.19498;;-686.12485;;-690.55343;;-695.0183;;-698.51064;;-700.02732;;-699.27928;;-696.83591;;-693.74731;;-691.11147;;-689.66855;;-689.66855
-10.916889;;-10.916889;;-10.916889;;-10.916889;;-10.916889;;-10.916889;;-10.916889;;-10.91689;;-10.917006;;-10.918839;;-10.940412;;-11.166663;;-11.894287;;-12.951885;;-14.267588;;-15.923789;;-17.398037;;-18.605179;;-19.356435;;-19.760917;;-19.999546;;-20.216394;;-20.41712;;-20.596865;;-20.975299;;-21.899475;;-23.838524;;-27.999497;;-34.19686;;-42.630621;;-53.721955;;-68.046785;;-86.309865;;-109.17554;;-137.2645;;-171.22481;;-211.43382;;-257.67596;;-308.55555;;-360.56358;;-408.00126;;-450.4781;;-490.45808;;-528.4465;;-564.83252;;-598.76056;;-627.51131;;-648.62956;;-662.03487;;-669.77136;;-674.37656;;-677.72047;;-680.75223;;-683.86009;;-687.36625;;-691.53406;;-696.02956;;-699.63178;;-700.97281;;-699.73409;;-696.94237;;-694.11595;;-692.27848;;-691.54021;;-691.54021
-10.916889;;-10.916889;;-10.916889;;-10.916889;;-10.916889;;-10.91689;;-10.916891;;-10.91691;;-10.917492;;-10.924589;;-11.003926;;-11.564668;;-12.538773;;-13.815625;;-15.326599;;-17.119239;;-18.571621;;-19.335509;;-19.507253;;-19.546144;;-19.603089;;-19.669151;;-19.68436;;-19.681855;;-19.922841;;-20.745658;;-22.212584;;-25.070723;;-29.988417;;-36.921783;;-46.156695;;-58.154027;;-73.505318;;-92.842129;;-116.68539;;-145.63923;;-180.14009;;-220.20933;;-265.05074;;-312.41721;;-358.25209;;-400.55813;;-441.40381;;-483.20438;;-527.17964;;-571.4933;;-611.07699;;-641.03331;;-660.15982;;-670.95742;;-676.89789;;-680.40255;;-682.60804;;-684.15942;;-685.96902;;-689.09725;;-693.69972;;-698.29768;;-700.793;;-700.4957;;-698.70532;;-697.22316;;-696.79406;;-696.94638;;-696.94638
-10.916889;;-10.916889;;-10.916889;;-10.916889;;-10.91689;;-10.916917;;-10.917147;;-10.91812;;-10.922115;;-10.946606;;-11.234585;;-12.06797;;-13.24843;;-14.721493;;-16.585314;;-18.310179;;-19.709218;;-19.988641;;-19.626591;;-19.292916;;-19.163992;;-19.152525;;-19.133045;;-19.108741;;-19.296983;;-19.989787;;-21.226102;;-22.981717;;-26.476881;;-31.933146;;-39.42914;;-49.284357;;-61.964156;;-78.038784;;-97.973195;;-122.28574;;-151.44192;;-185.63242;;-224.51855;;-266.86268;;-310.38729;;-353.67825;;-398.0243;;-445.52498;;-496.95282;;-549.63354;;-597.72064;;-635.11223;;-659.5044;;-673.22659;;-680.16199;;-683.15152;;-683.70733;;-683.02216;;-682.78873;;-684.87559;;-689.8738;;-696.05258;;-700.57526;;-702.16936;;-702.01753;;-701.94281;;-702.52614;;-703.16253;;-703.16253
-10.916889;;-10.916889;;-10.91689;;-10.916896;;-10.916944;;-10.917375;;-10.920021;;-10.930038;;-10.963313;;-11.076069;;-11.561501;;-12.530371;;-13.838957;;-15.439098;;-17.40485;;-19.175173;;-20.438937;;-20.406131;;-19.797665;;-19.274466;;-19.060631;;-19.075263;;-19.154709;;-19.230436;;-19.40919;;-19.907464;;-20.849257;;-22.192702;;-24.115201;;-28.074323;;-34.015829;;-42.058207;;-52.530444;;-65.895194;;-82.636862;;-103.18435;;-128.03873;;-157.56371;;-191.8516;;-230.59084;;-273.19098;;-319.75331;;-370.99214;;-426.4039;;-484.27332;;-541.53794;;-593.28949;;-634.02896;;-661.08539;;-676.18984;;-683.11841;;-685.10137;;-684.28989;;-682.45681;;-681.56258;;-683.49393;;-688.80958;;-695.77581;;-701.46638;;-704.34358;;-705.26786;;-705.86509;;-706.71524;;-707.38653;;-707.38653
-10.91689;;-10.91689;;-10.916914;;-10.917187;;-10.918617;;-10.924135;;-10.944218;;-11.042507;;-11.370414;;-11.697196;;-12.066724;;-12.890802;;-14.139641;;-15.701007;;-17.610375;;-19.263417;;-20.3436;;-20.41458;;-19.980531;;-19.57801;;-19.451474;;-19.577908;;-19.80711;;-20.01854;;-20.22356;;-20.571102;;-21.235346;;-22.29947;;-23.696568;;-25.751388;;-30.260721;;-36.882967;;-45.742952;;-57.191656;;-71.724433;;-89.824359;;-112.05261;;-139.06818;;-171.56901;;-210.31422;;-255.99503;;-308.765;;-367.49749;;-429.41906;;-490.63618;;-547.68763;;-597.72152;;-637.10094;;-663.41993;;-677.85862;;-684.03155;;-685.60877;;-685.28363;;-684.8183;;-685.42385;;-688.03226;;-692.82626;;-698.55298;;-703.13994;;-705.50519;;-706.36332;;-707.01813;;-707.90773;;-708.59669;;-708.59669
-10.916891;;-10.916891;;-10.917128;;-10.919629;;-10.931917;;-10.973107;;-11.150602;;-11.660265;;-12.277112;;-12.736612;;-13.047154;;-13.582307;;-14.48509;;-15.921313;;-17.339987;;-18.675278;;-19.6581;;-20.1214;;-20.186464;;-20.137952;;-20.213095;;-20.474595;;-20.838703;;-21.175799;;-21.431871;;-21.698272;;-22.165266;;-22.979973;;-24.10106;;-25.429715;;-29.101646;;-35.244549;;-43.759974;;-54.977682;;-69.454131;;-87.915401;;-111.14078;;-139.87907;;-174.9821;;-217.18179;;-266.88285;;-323.79488;;-386.30568;;-450.58179;;-510.40031;;-562.10828;;-605.84389;;-639.97457;;-662.74603;;-675.42783;;-681.60195;;-684.85427;;-687.50782;;-690.39984;;-693.44571;;-696.50861;;-699.54624;;-702.11772;;-703.51708;;-703.74256;;-703.82082;;-704.71539;;-706.26253;;-707.4538;;-707.4538
-10.916899;;-10.916899;;-10.918013;;-10.929509;;-10.986713;;-11.222749;;-11.829578;;-12.66318;;-13.52238;;-14.100574;;-14.364852;;-14.909307;;-15.303499;;-16.225097;;-17.078096;;-18.053368;;-19.059792;;-19.926866;;-20.510276;;-20.842414;;-21.119422;;-21.482382;;-21.93056;;-22.356631;;-22.661688;;-22.886689;;-23.216326;;-23.800588;;-24.59976;;-26.676499;;-31.710526;;-39.024833;;-48.812869;;-61.547463;;-77.883192;;-98.628458;;-124.57038;;-156.55731;;-195.44056;;-241.86002;;-295.97032;;-356.92643;;-421.9555;;-484.92433;;-537.25887;;-578.56198;;-612.33325;;-638.50014;;-656.6381;;-668.53037;;-677.08649;;-684.44422;;-691.33797;;-697.37762;;-701.78383;;-704.13444;;-704.50458;;-703.14293;;-700.58145;;-698.15376;;-697.61441;;-699.62361;;-702.89846;;-705.26711;;-705.26711
-10.916948;;-10.916948;;-10.920441;;-10.956487;;-11.196837;;-11.870143;;-12.829433;;-13.960269;;-15.065959;;-15.748642;;-16.090835;;-16.236611;;-16.478559;;-16.763307;;-17.215367;;-17.985098;;-19.031418;;-20.12308;;-20.997668;;-21.566959;;-21.952847;;-22.329273;;-22.781375;;-23.245194;;-23.588419;;-23.80446;;-24.056726;;-24.460052;;-25.620184;;-29.904807;;-36.470545;;-45.406773;;-57.117767;;-72.200125;;-91.412537;;-115.56949;;-145.51342;;-182.15188;;-226.26506;;-278.273;;-337.81542;;-402.9872;;-468.83194;;-525.01196;;-564.33665;;-592.67785;;-614.96219;;-632.88573;;-647.83127;;-661.47841;;-674.61451;;-686.70128;;-696.66549;;-703.71974;;-707.52887;;-708.11137;;-705.68779;;-700.79115;;-694.8091;;-690.30155;;-689.84547;;-693.74521;;-699.36327;;-703.21366;;-703.21366
-10.917238;;-10.917238;;-10.926952;;-11.087449;;-11.769883;;-12.793907;;-14.078063;;-15.491954;;-16.831073;;-17.751685;;-17.678636;;-17.410643;;-17.168584;;-17.195997;;-17.627558;;-18.450885;;-19.534434;;-20.654114;;-21.587369;;-22.221392;;-22.601296;;-22.892246;;-23.262886;;-23.725745;;-24.199375;;-24.870266;;-25.780832;;-26.635025;;-29.199091;;-34.872267;;-43.056994;;-53.978922;;-68.151007;;-86.275502;;-109.17717;;-137.64496;;-172.61118;;-214.94304;;-265.25783;;-323.54955;;-388.43536;;-455.9455;;-517.10956;;-559.42565;;-584.97167;;-601.92246;;-615.22557;;-628.23339;;-643.26762;;-660.57389;;-677.94667;;-692.52442;;-702.71051;;-708.48562;;-710.51649;;-709.23288;;-704.71972;;-697.47051;;-689.40258;;-683.93435;;-684.09389;;-689.70942;;-697.10073;;-701.97648;;-701.97648
-10.918464;;-10.918464;;-10.974787;;-11.557913;;-12.564322;;-13.88523;;-15.456878;;-17.144158;;-18.891295;;-19.562274;;-19.010748;;-18.038007;;-17.326118;;-17.343737;;-18.054383;;-19.117509;;-20.262259;;-21.316662;;-22.180179;;-22.776195;;-23.10903;;-23.464536;;-24.193215;;-25.39273;;-27.017366;;-28.76637;;-30.320987;;-31.555714;;-34.563491;;-41.465942;;-51.448334;;-64.734935;;-81.899487;;-103.73524;;-131.03235;;-164.62244;;-205.41454;;-254.08229;;-310.78453;;-374.58601;;-442.31079;;-506.36136;;-553.04886;;-579.82202;;-595.72351;;-606.88111;;-617.49613;;-630.88868;;-648.46791;;-668.43021;;-686.77133;;-700.24307;;-708.14603;;-711.64743;;-712.03526;;-709.67608;;-704.30187;;-696.26919;;-687.71372;;-682.28381;;-682.88001;;-688.93499;;-696.53026;;-701.43647;;-701.43647
-10.92527;;-10.92527;;-11.263407;;-12.170786;;-13.439817;;-15.024033;;-16.842029;;-18.953164;;-20.639315;;-20.907629;;-19.719005;;-18.293806;;-17.349625;;-17.524877;;-18.547721;;-19.839532;;-21.013604;;-21.95249;;-22.697624;;-23.456876;;-24.972124;;-26.581752;;-28.026012;;-29.833541;;-32.196025;;-34.743812;;-36.935813;;-38.605303;;-41.673601;;-49.718172;;-61.687485;;-77.677994;;-98.290438;;-124.38334;;-156.64919;;-195.9379;;-242.99065;;-298.07052;;-360.46847;;-427.47924;;-492.35228;;-541.51735;;-569.632;;-586.83009;;-600.00739;;-612.55246;;-626.55398;;-643.37685;;-662.66847;;-681.77174;;-697.18178;;-707.02035;;-711.88002;;-713.50275;;-713.07994;;-710.63842;;-705.6505;;-698.3302;;-690.59886;;-685.65058;;-685.8847;;-690.73092;;-696.90332;;-700.91157;;-700.91157
-11.007981;;-11.007981;;-11.723522;;-12.861828;;-14.34903;;-16.153976;;-18.169317;;-20.423334;;-22.031758;;-21.622647;;-20.166704;;-18.673235;;-17.802411;;-18.19485;;-19.350905;;-20.674353;;-21.747081;;-22.57221;;-24.15168;;-26.66344;;-29.349107;;-31.773202;;-33.820701;;-36.261006;;-39.413383;;-42.814908;;-45.733109;;-47.937526;;-50.969358;;-59.757787;;-73.763896;;-92.717059;;-117.15537;;-147.95398;;-185.63364;;-230.96156;;-284.33295;;-345.25147;;-411.41046;;-476.75168;;-528.10166;;-557.00893;;-574.3907;;-589.65781;;-606.49141;;-624.85532;;-643.8343;;-662.65357;;-680.20354;;-694.84704;;-705.18768;;-711.08074;;-713.67396;;-714.37971;;-713.89943;;-712.03694;;-708.24874;;-702.57802;;-696.3475;;-691.87935;;-691.0342;;-693.63999;;-697.52298;;-700.18069;;-700.18069
-11.376173;;-11.376173;;-12.306373;;-13.660756;;-15.378459;;-17.40271;;-19.826254;;-22.029958;;-23.438643;;-22.44792;;-20.83141;;-19.439168;;-18.834557;;-19.384124;;-20.517811;;-21.677034;;-22.713712;;-24.93111;;-28.099117;;-31.827967;;-35.616402;;-38.898848;;-41.596506;;-44.759779;;-48.846076;;-53.262425;;-57.057168;;-59.932915;;-63.157058;;-71.93911;;-87.793953;;-109.79258;;-138.25756;;-173.99086;;-217.22854;;-268.47787;;-327.52147;;-392.56072;;-458.53102;;-513.83877;;-546.75199;;-565.23424;;-580.50422;;-599.13024;;-621.61366;;-644.8369;;-665.6739;;-682.5204;;-695.07999;;-703.75463;;-709.2502;;-712.38439;;-713.95602;;-714.55763;;-714.40994;;-713.338;;-710.96842;;-707.17798;;-702.58273;;-698.58658;;-696.61446;;-696.98935;;-698.63858;;-699.98048;;-699.98048
-11.870924;;-11.870924;;-12.930366;;-14.462289;;-16.393868;;-18.645319;;-21.306795;;-23.694774;;-24.969697;;-23.577055;;-21.780843;;-20.479597;;-20.179095;;-20.826956;;-21.853943;;-23.036224;;-25.604026;;-29.306266;;-33.830844;;-38.847416;;-43.874662;;-48.167258;;-51.626061;;-55.645639;;-60.8564;;-66.502918;;-71.370508;;-75.08886;;-78.87566;;-87.169325;;-104.06845;;-128.77432;;-161.0981;;-201.58268;;-250.02609;;-306.35775;;-369.34592;;-435.09527;;-494.44838;;-535.07593;;-559.99696;;-578.11391;;-596.79321;;-619.44057;;-644.43982;;-667.63381;;-685.71512;;-697.67956;;-704.47593;;-708.03341;;-710.18358;;-711.9158;;-713.35522;;-714.28205;;-714.56992;;-714.18588;;-712.9993;;-710.8165;;-707.72462;;-704.40449;;-701.89302;;-700.80524;;-700.85267;;-701.19821;;-701.19821
-12.291729;;-12.291729;;-13.446961;;-15.115892;;-17.21784;;-19.660286;;-22.527408;;-25.092038;;-26.32486;;-24.679387;;-22.720362;;-21.466;;-21.417241;;-22.150944;;-23.342098;;-26.123633;;-30.217564;;-35.37627;;-41.378436;;-47.918929;;-54.430701;;-59.938934;;-64.301523;;-69.309251;;-75.796235;;-82.859717;;-88.992047;;-93.752788;;-98.654296;;-106.97106;;-123.65501;;-149.82096;;-185.08675;;-229.40685;;-281.97126;;-341.58304;;-405.47979;;-466.95398;;-514.96635;;-548.98926;;-575.31861;;-598.645;;-622.03985;;-645.92384;;-668.30788;;-686.61513;;-699.29452;;-706.31869;;-708.99583;;-709.46587;;-709.77285;;-710.87636;;-712.47737;;-713.81046;;-714.4835;;-714.56372;;-714.14662;;-713.10233;;-711.27991;;-708.89864;;-706.60213;;-704.99438;;-704.19672;;-703.93017;;-703.93017
