-7.7556275;;-7.7556275;;-8.0554063;;-8.4792139;;-9.2132124;;-9.6914384;;-10.111825;;-10.486499;;-10.822856;;-11.101817;;-11.316591;;-11.489478;;-11.663822;;-11.856004;;-11.998421;;-12.551371;;-14.066123;;-16.245627;;-19.103639;;-22.729059;;-27.191598;;-32.55032;;-38.858436;;-46.069004;;-53.96184;;-62.032463;;-69.508102;;-75.875706;;-81.193705;;-85.730405;;-89.685134;;-93.222526;;-96.554812;;-99.871684;;-103.24662;;-106.6403;;-109.9367;;-112.98078;;-115.66497;;-118.02975;;-120.2616;;-122.55194;;-124.93396;;-127.28261;;-129.48481;;-131.54653;;-133.51383;;-135.38977;;-137.19217;;-139.03789;;-141.10877;;-143.50804;;-146.09973;;-148.48253;;-150.23366;;-151.23594;;-151.70821;;-151.94884;;-152.15957;;-152.43665;;-152.76953;;-153.0652;;-153.25003;;-153.33305;;-153.33305
-8.0372052;;-8.0372052;;-8.291877;;-8.9304647;;-9.3691;;-9.7817891;;-10.161683;;-10.538045;;-10.892862;;-11.193147;;-11.422859;;-11.608424;;-11.820527;;-12.088916;;-12.302514;;-12.556144;;-13.944028;;-16.030902;;-18.804509;;-22.344009;;-26.732452;;-32.013704;;-38.252768;;-45.41989;;-53.320908;;-61.473918;;-69.033374;;-75.29797;;-80.357735;;-84.631096;;-88.401521;;-91.82256;;-95.058982;;-98.305097;;-101.70942;;-105.29522;;-108.91727;;-112.31534;;-115.27856;;-117.79953;;-120.09036;;-122.43089;;-124.94612;;-127.52158;;-129.95251;;-132.13755;;-134.10717;;-135.94508;;-137.74837;;-139.62973;;-141.70066;;-144.00958;;-146.43263;;-148.61631;;-150.15002;;-150.894;;-151.10937;;-151.23089;;-151.53435;;-151.99986;;-152.43394;;-152.69685;;-152.8031;;-152.8396;;-152.8396
-8.459732;;-8.459732;;-8.6783136;;-9.2713046;;-9.6396057;;-9.9892825;;-10.332994;;-10.67139;;-10.983817;;-11.246566;;-11.448085;;-11.6238;;-11.865117;;-12.196579;;-12.457345;;-12.541759;;-13.79057;;-15.779228;;-18.460743;;-21.900116;;-26.187678;;-31.358746;;-37.485131;;-44.551003;;-52.383177;;-60.519376;;-68.064075;;-74.146291;;-78.920678;;-82.970393;;-86.651557;;-90.09828;;-93.407485;;-96.736644;;-100.26929;;-104.08212;;-108.02458;;-111.76706;;-115.01833;;-117.71953;;-120.0794;;-122.42955;;-124.97437;;-127.64026;;-130.18701;;-132.45189;;-134.46314;;-136.36744;;-138.30821;;-140.36106;;-142.53504;;-144.78609;;-146.97561;;-148.81925;;-149.98915;;-150.38817;;-150.32874;;-150.34802;;-150.7637;;-151.43358;;-151.99227;;-152.26108;;-152.33427;;-152.35591;;-152.35591
-8.9864297;;-8.9864297;;-9.1814217;;-9.7351827;;-10.065248;;-10.41041;;-10.733694;;-10.98693;;-11.176488;;-11.32213;;-11.432961;;-11.553661;;-11.776525;;-12.108145;;-12.362304;;-12.388807;;-13.526966;;-15.414872;;-17.980738;;-21.280307;;-25.406864;;-30.395436;;-36.321167;;-43.183169;;-50.836013;;-58.862633;;-66.403117;;-72.477214;;-77.213693;;-81.293113;;-85.102769;;-88.741287;;-92.24212;;-95.725995;;-99.390934;;-103.34586;;-107.45292;;-111.37422;;-114.79965;;-117.64589;;-120.09863;;-122.48012;;-125.00939;;-127.64776;;-130.18927;;-132.48873;;-134.58525;;-136.64082;;-138.79813;;-141.08377;;-143.41086;;-145.63832;;-147.59726;;-149.08024;;-149.89618;;-150.04268;;-149.85349;;-149.85978;;-150.34995;;-151.10558;;-151.69499;;-151.95281;;-152.02465;;-152.06095;;-152.06095
-9.559475;;-9.8178652;;-9.9937401;;-10.271047;;-10.618849;;-11.015177;;-11.34642;;-11.502239;;-11.507925;;-11.460195;;-11.419978;;-11.443325;;-11.601344;;-11.874278;;-12.083829;;-12.116161;;-13.15637;;-14.923974;;-17.336656;;-20.444018;;-24.341027;;-29.069636;;-34.706656;;-41.272848;;-48.666175;;-56.555252;;-64.220792;;-70.67246;;-75.81227;;-80.272469;;-84.423848;;-88.326288;;-91.982954;;-95.521264;;-99.170876;;-103.06948;;-107.1101;;-111.00243;;-114.4746;;-117.43777;;-120.02609;;-122.48932;;-124.99875;;-127.53996;;-129.99461;;-132.29713;;-134.5066;;-136.7608;;-139.16196;;-141.67413;;-144.12295;;-146.29616;;-148.03258;;-149.23964;;-149.88737;;-150.0525;;-150.00017;;-150.11969;;-150.60769;;-151.25519;;-151.7089;;-151.88118;;-151.93711;;-151.98814;;-151.98814
-10.10155;;-10.36322;;-10.512861;;-10.799109;;-11.228539;;-11.718612;;-12.077632;;-12.135131;;-11.937648;;-11.664487;;-11.443331;;-11.346417;;-11.415951;;-11.60132;;-11.758526;;-11.838495;;-12.763545;;-14.38975;;-16.623588;;-19.509485;;-23.14117;;-27.583591;;-32.909013;;-39.166243;;-46.306363;;-54.10136;;-62.012866;;-69.151269;;-75.078317;;-80.194355;;-84.789322;;-88.894339;;-92.550342;;-95.953751;;-99.38547;;-103.01426;;-106.78547;;-110.49602;;-113.94376;;-117.03111;;-119.80163;;-122.38565;;-124.88294;;-127.30959;;-129.65681;;-131.95707;;-134.28919;;-136.74769;;-139.37247;;-142.05652;;-144.55356;;-146.62432;;-148.17236;;-149.24787;;-149.95404;;-150.38116;;-150.6507;;-150.94575;;-151.35816;;-151.75098;;-151.93916;;-151.95456;;-151.96713;;-152.02419;;-152.02419
-10.46192;;-10.46192;;-10.874321;;-11.227501;;-11.771683;;-12.365081;;-12.758473;;-12.72668;;-12.36093;;-11.89813;;-11.514484;;-11.301232;;-11.275341;;-11.366852;;-11.478055;;-11.638857;;-12.47373;;-13.964008;;-16.023521;;-18.696132;;-22.076907;;-26.26956;;-31.338553;;-37.349418;;-44.296092;;-52.032807;;-60.167817;;-67.974503;;-74.809187;;-80.70261;;-85.757272;;-89.985041;;-93.529817;;-96.691368;;-99.790017;;-103.02145;;-106.40693;;-109.85496;;-113.23972;;-116.44576;;-119.40745;;-122.12585;;-124.63747;;-126.99401;;-129.28143;;-131.61162;;-134.07261;;-136.70303;;-139.47162;;-142.22469;;-144.70403;;-146.69923;;-148.18551;;-149.29589;;-150.17431;;-150.87508;;-151.4062;;-151.80817;;-152.10156;;-152.22021;;-152.1406;;-152.01376;;-152.00887;;-152.09282;;-152.09282
-10.637895;;-10.637895;;-11.065381;;-11.47496;;-12.096428;;-12.755473;;-13.172559;;-13.094821;;-12.646882;;-12.087095;;-11.608187;;-11.309443;;-11.195829;;-11.196098;;-11.26731;;-11.528548;;-12.360465;;-13.747788;;-15.661321;;-18.155358;;-21.326878;;-25.297312;;-30.165324;;-35.981688;;-42.760032;;-50.405127;;-58.627277;;-66.862896;;-74.475407;;-81.151859;;-86.689059;;-91.048378;;-94.501424;;-97.446557;;-100.21722;;-103.03789;;-106.02584;;-109.19931;;-112.49063;;-115.76365;;-118.86577;;-121.70315;;-124.27427;;-126.65697;;-128.98706;;-131.40934;;-133.9968;;-136.72192;;-139.49532;;-142.18546;;-144.62484;;-146.67748;;-148.3176;;-149.61343;;-150.63785;;-151.41863;;-151.97102;;-152.32649;;-152.48573;;-152.41798;;-152.19778;;-152.04553;;-152.10406;;-152.25355;;-152.25355
-10.757328;;-11.01873;;-11.148285;;-11.523395;;-12.122562;;-12.763376;;-13.168831;;-13.111652;;-12.696723;;-12.157202;;-11.676168;;-11.347556;;-11.170356;;-11.095653;;-11.14268;;-11.522979;;-12.414055;;-13.741516;;-15.530659;;-17.866361;;-20.859097;;-24.631133;;-29.311807;;-34.954437;;-41.5614;;-49.068269;;-57.257928;;-65.702833;;-73.858025;;-81.191313;;-87.187636;;-91.718519;;-95.151884;;-97.952901;;-100.46198;;-102.94841;;-105.62772;;-108.59385;;-111.79737;;-115.07877;;-118.24017;;-121.15008;;-123.80606;;-126.3053;;-128.78107;;-131.34395;;-134.01307;;-136.70314;;-139.32125;;-141.8502;;-144.29732;;-146.59654;;-148.60341;;-150.17908;;-151.2709;;-151.9379;;-152.3129;;-152.5082;;-152.54016;;-152.39845;;-152.20078;;-152.16318;;-152.35512;;-152.58468;;-152.58468
-10.832241;;-11.094799;;-11.151093;;-11.427714;;-11.940369;;-12.506312;;-12.863581;;-12.839689;;-12.522251;;-12.092476;;-11.692141;;-11.391741;;-11.192728;;-11.084837;;-11.14807;;-11.650476;;-12.615113;;-13.940427;;-15.637041;;-17.819017;;-20.650632;;-24.267473;;-28.793691;;-34.314667;;-40.801709;;-48.202252;;-56.341382;;-64.867152;;-73.284498;;-80.957578;;-87.202782;;-91.825878;;-95.231627;;-97.918011;;-100.24896;;-102.54635;;-105.08599;;-107.98023;;-111.15523;;-114.42397;;-117.57828;;-120.4981;;-123.21565;;-125.85266;;-128.50655;;-131.19639;;-133.85522;;-136.37327;;-138.73235;;-141.09349;;-143.6454;;-146.33327;;-148.80749;;-150.67706;;-151.79496;;-152.31158;;-152.50387;;-152.55835;;-152.50561;;-152.36327;;-152.27572;;-152.41057;;-152.73964;;-153.0284;;-153.0284
-10.821664;;-11.085132;;-11.080152;;-11.267397;;-11.690978;;-12.16757;;-12.457929;;-12.452589;;-12.241987;;-11.954215;;-11.673247;;-11.440195;;-11.268471;;-11.186118;;-11.307755;;-11.885415;;-12.897914;;-14.24601;;-15.910585;;-17.989658;;-20.731019;;-24.289494;;-28.777769;;-34.291603;;-40.784745;;-48.194578;;-56.343318;;-64.865172;;-73.23007;;-80.781136;;-86.86638;;-91.322907;;-94.558592;;-97.101841;;-99.366932;;-101.68883;;-104.30584;;-107.27514;;-110.4839;;-113.7392;;-116.85379;;-119.74145;;-122.47477;;-125.19702;;-127.96631;;-130.70651;;-133.2738;;-135.57298;;-137.69996;;-139.97723;;-142.70116;;-145.76902;;-148.63875;;-150.74111;;-151.9059;;-152.38885;;-152.55985;;-152.61466;;-152.56758;;-152.45895;;-152.45787;;-152.69642;;-153.08708;;-153.38974;;-153.38974
-10.720392;;-10.984539;;-10.95507;;-11.099338;;-11.464241;;-11.865629;;-12.094635;;-12.10173;;-11.985603;;-11.826909;;-11.658749;;-11.506321;;-11.400814;;-11.391046;;-11.579434;;-12.168403;;-13.179558;;-14.5266;;-16.187325;;-18.276516;;-21.069072;;-24.711747;;-29.311645;;-34.958819;;-41.593758;;-49.137464;;-57.365987;;-65.816627;;-73.84077;;-80.826483;;-86.329144;;-90.300345;;-93.158072;;-95.509216;;-97.852801;;-100.45172;;-103.35524;;-106.48764;;-109.73057;;-112.95391;;-116.02759;;-118.89008;;-121.61637;;-124.3437;;-127.1111;;-129.80876;;-132.27631;;-134.45428;;-136.51049;;-138.82293;;-141.69019;;-144.9564;;-148.00464;;-150.23143;;-151.50101;;-152.12273;;-152.46833;;-152.68415;;-152.74634;;-152.69559;;-152.70778;;-152.91455;;-153.24753;;-153.50666;;-153.50666
-10.565751;;-10.830575;;-10.809916;;-10.954387;;-11.294145;;-11.648021;;-11.839424;;-11.86263;;-11.817612;;-11.750896;;-11.667503;;-11.591628;;-11.568095;;-11.643719;;-11.883626;;-12.434696;;-13.389209;;-14.700765;;-16.384977;;-18.615415;;-21.592878;;-25.436554;;-30.259195;;-36.128502;;-42.983842;;-50.726363;;-59.05962;;-67.374795;;-74.863272;;-81.04026;;-85.752592;;-89.070768;;-91.438946;;-93.592593;;-96.132445;;-99.172077;;-102.45764;;-105.74134;;-108.96019;;-112.12432;;-115.1842;;-118.06932;;-120.79692;;-123.46046;;-126.11213;;-128.70055;;-131.12656;;-133.3594;;-135.53977;;-137.96755;;-140.86638;;-144.07466;;-147.05358;;-149.30434;;-150.74156;;-151.63439;;-152.2639;;-152.70909;;-152.92985;;-152.96169;;-152.95872;;-153.05989;;-153.26438;;-153.44494;;-153.44494
-10.399109;;-10.664555;;-10.672525;;-10.844663;;-11.188482;;-11.528882;;-11.708827;;-11.739751;;-11.72395;;-11.704555;;-11.681629;;-11.675546;;-11.728802;;-11.874129;;-12.14538;;-12.642661;;-13.505862;;-14.786624;;-16.587319;;-19.048873;;-22.27631;;-26.378055;;-31.472499;;-37.58039;;-44.665504;;-52.594084;;-60.984764;;-69.073633;;-75.951474;;-81.350132;;-85.369249;;-88.153741;;-90.156711;;-92.201145;;-94.940653;;-98.338861;;-101.88362;;-105.20808;;-108.34124;;-111.44615;;-114.53895;;-117.50138;;-120.24672;;-122.80357;;-125.26839;;-127.71508;;-130.14912;;-132.54315;;-134.93269;;-137.46745;;-140.28111;;-143.26169;;-146.0411;;-148.28371;;-149.92754;;-151.12174;;-152.01141;;-152.63459;;-152.98656;;-153.11915;;-153.15314;;-153.21042;;-153.33428;;-153.45911;;-153.45911
-10.245106;;-10.511373;;-10.549606;;-10.755569;;-11.122123;;-11.479837;;-11.669744;;-11.692727;;-11.663795;;-11.656285;;-11.680102;;-11.738468;;-11.853532;;-12.046708;;-12.336446;;-12.791077;;-13.582426;;-14.942302;;-16.964302;;-19.685289;;-23.184871;;-27.574024;;-32.932412;;-39.267181;;-46.55024;;-54.597047;;-62.934392;;-70.67831;;-76.981538;;-81.817583;;-85.43071;;-88.001581;;-89.947325;;-92.035516;;-94.858741;;-98.30665;;-101.81009;;-105.01429;;-108.02686;;-111.09468;;-114.25544;;-117.32297;;-120.09588;;-122.54238;;-124.81622;;-127.1158;;-129.53317;;-132.02989;;-134.54397;;-137.10425;;-139.78927;;-142.55552;;-145.18965;;-147.46927;;-149.30429;;-150.71404;;-151.74585;;-152.4456;;-152.87274;;-153.11328;;-153.26535;;-153.40772;;-153.56509;;-153.69147;;-153.69147
-10.107827;;-10.375186;;-10.427028;;-10.645724;;-11.02623;;-11.411833;;-11.633338;;-11.661292;;-11.617625;;-11.613373;;-11.673981;;-11.784383;;-11.944932;;-12.170541;;-12.475053;;-12.910505;;-13.760991;;-15.370587;;-17.66761;;-20.678539;;-24.488534;;-29.18927;;-34.806065;;-41.367519;;-48.804942;;-56.861574;;-64.966918;;-72.219896;;-78.026649;;-82.526116;;-85.994045;;-88.62558;;-90.771247;;-93.020649;;-95.804068;;-99.012961;;-102.21407;;-105.17645;;-108.04747;;-111.07466;;-114.28458;;-117.43557;;-120.23763;;-122.61818;;-124.76897;;-126.94496;;-129.26433;;-131.69182;;-134.15385;;-136.65145;;-139.24924;;-141.94197;;-144.58015;;-146.95309;;-148.9074;;-150.39197;;-151.44401;;-152.15209;;-152.62523;;-152.97634;;-153.2917;;-153.59454;;-153.85062;;-154.00952;;-154.00952
-9.9851822;;-10.253395;;-10.298824;;-10.496457;;-10.860499;;-11.261219;;-11.531248;;-11.609331;;-11.594435;;-11.609861;;-11.695973;;-11.837814;;-12.028729;;-12.278402;;-12.596132;;-13.063308;;-14.239942;;-16.174087;;-18.800074;;-22.166661;;-26.365176;;-31.419457;;-37.368779;;-44.190542;;-51.727133;;-59.602629;;-67.168935;;-73.733888;;-79.0673;;-83.348816;;-86.79236;;-89.571607;;-91.97459;;-94.410309;;-97.131609;;-100.04493;;-102.89654;;-105.59825;;-108.30831;;-111.24044;;-114.4133;;-117.57202;;-120.39075;;-122.77524;;-124.909;;-127.01546;;-129.18231;;-131.40472;;-133.68671;;-136.08199;;-138.65748;;-141.39319;;-144.11881;;-146.57771;;-148.5663;;-150.03075;;-151.05287;;-151.76443;;-152.29598;;-152.76843;;-153.24808;;-153.6983;;-154.03156;;-154.20722;;-154.20722
-9.8799902;;-10.148657;;-10.184677;;-10.347855;;-10.675515;;-11.074765;;-11.397433;;-11.562065;;-11.619266;;-11.671239;;-11.771536;;-11.927323;;-12.139643;;-12.409775;;-12.740114;;-13.427504;;-15.014596;;-17.304931;;-20.309238;;-24.106341;;-28.751928;;-34.267085;;-40.659123;;-47.809874;;-55.391119;;-62.79902;;-69.431441;;-75.110667;;-79.92266;;-84.006962;;-87.460402;;-90.381668;;-92.991758;;-95.580228;;-98.284116;;-101.01455;;-103.63232;;-106.1358;;-108.6777;;-111.44061;;-114.45704;;-117.5156;;-120.31702;;-122.75403;;-124.95227;;-127.05358;;-129.10116;;-131.13163;;-133.24602;;-135.56408;;-138.14347;;-140.91558;;-143.67162;;-146.13719;;-148.10889;;-149.55398;;-150.58239;;-151.34071;;-151.96253;;-152.56235;;-153.17486;;-153.71396;;-154.07111;;-154.23701;;-154.23701
-9.7734167;;-10.041772;;-10.088557;;-10.242427;;-10.545636;;-10.941993;;-11.313078;;-11.567859;;-11.706041;;-11.796906;;-11.906402;;-12.071497;;-12.304169;;-12.592905;;-12.952735;;-14.035453;;-15.948917;;-18.579225;;-21.969265;;-26.213318;;-31.332472;;-37.360699;;-44.250057;;-51.763894;;-59.330457;;-66.013984;;-71.515815;;-76.257451;;-80.526354;;-84.419805;;-87.917427;;-91.002254;;-93.789566;;-96.479992;;-99.171607;;-101.80582;;-104.30435;;-106.69067;;-109.08433;;-111.63142;;-114.39343;;-117.25282;;-119.98553;;-122.46901;;-124.74555;;-126.88655;;-128.92052;;-130.91182;;-132.99878;;-135.31076;;-137.87221;;-140.57794;;-143.23136;;-145.61263;;-147.56321;;-149.05459;;-150.17;;-151.02488;;-151.73535;;-152.41014;;-153.07797;;-153.64629;;-154.00987;;-154.17309;;-154.17309
-9.6063532;;-9.6063532;;-9.9673227;;-10.161;;-10.474418;;-10.881595;;-11.297353;;-11.628174;;-11.836563;;-11.964822;;-12.0888;;-12.26789;;-12.51898;;-12.814799;;-13.241821;;-14.633367;;-16.799667;;-19.706208;;-23.421805;;-28.033761;;-33.557029;;-40.021202;;-47.329429;;-55.135482;;-62.629059;;-68.618984;;-73.224277;;-77.238702;;-81.07538;;-84.827773;;-88.402847;;-91.671601;;-94.615431;;-97.344284;;-99.966252;;-102.49899;;-104.92145;;-107.24427;;-109.51981;;-111.83964;;-114.3001;;-116.90109;;-119.50972;;-121.98634;;-124.30319;;-126.50809;;-128.65146;;-130.79492;;-133.02525;;-135.40265;;-137.90544;;-140.44231;;-142.89883;;-145.15722;;-147.11378;;-148.71954;;-149.98413;;-150.94198;;-151.66569;;-152.284;;-152.89367;;-153.45793;;-153.86645;;-154.07348;;-154.07348
-9.3460438;;-9.3460438;;-9.7816963;;-10.056626;;-10.415732;;-10.850703;;-11.309825;;-11.70555;;-11.97882;;-12.150837;;-12.299616;;-12.493239;;-12.745743;;-13.015908;;-13.477501;;-15.012855;;-17.319413;;-20.383423;;-24.283539;;-29.09591;;-34.84038;;-41.537247;;-49.060956;;-57.004439;;-64.436469;;-70.138714;;-74.415397;;-78.1308;;-81.768384;;-85.45968;;-89.098873;;-92.49491;;-95.529614;;-98.240064;;-100.75308;;-103.1667;;-105.50883;;-107.76101;;-109.90084;;-111.97665;;-114.12946;;-116.46279;;-118.91232;;-121.33136;;-123.66643;;-125.97911;;-128.3413;;-130.77247;;-133.24921;;-135.72538;;-138.1503;;-140.49598;;-142.75848;;-144.91472;;-146.90047;;-148.63828;;-150.05021;;-151.06625;;-151.70678;;-152.15202;;-152.62465;;-153.17661;;-153.67039;;-153.95927;;-153.95927
-9.0495882;;-9.0495882;;-9.5661653;;-9.9352803;;-10.35859;;-10.830413;;-11.329396;;-11.782346;;-12.119949;;-12.34355;;-12.520671;;-12.716026;;-12.936826;;-13.134684;;-13.535119;;-15.083979;;-17.407275;;-20.486967;;-24.399981;;-29.214382;;-34.952248;;-41.631066;;-49.123696;;-57.032826;;-64.485079;;-70.412003;;-74.957361;;-78.825023;;-82.514588;;-86.219256;;-89.87301;;-93.29412;;-96.344982;;-99.03053;;-101.47057;;-103.78454;;-106.00501;;-108.0768;;-109.94696;;-111.70012;;-113.56194;;-115.68823;;-118.01651;;-120.40057;;-122.81124;;-125.32914;;-128.00191;;-130.76918;;-133.49975;;-136.07502;;-138.45326;;-140.6773;;-142.82033;;-144.91199;;-146.9118;;-148.72647;;-150.21957;;-151.25049;;-151.80548;;-152.10018;;-152.4456;;-152.96319;;-153.50503;;-153.85066;;-153.85066
-8.8208922;;-8.8208922;;-9.4058625;;-9.8518039;;-10.334831;;-10.840698;;-11.368833;;-11.863726;;-12.255269;;-12.527239;;-12.728085;;-12.910037;;-13.07216;;-13.170269;;-13.447479;;-14.929093;;-17.182235;;-20.174635;;-23.974946;;-28.645347;;-34.206456;;-40.678458;;-47.951367;;-55.685346;;-63.173681;;-69.565164;;-74.724401;;-79.054292;;-82.991973;;-86.78348;;-90.436063;;-93.838098;;-96.898925;;-99.61732;;-102.06518;;-104.30815;;-106.32091;;-107.99994;;-109.34143;;-110.61775;;-112.22433;;-114.30044;;-116.66544;;-119.14032;;-121.75038;;-124.58693;;-127.6219;;-130.69862;;-133.632;;-136.30432;;-138.70605;;-140.91124;;-143.01177;;-145.05298;;-147.00934;;-148.7968;;-150.28689;;-151.34304;;-151.93127;;-152.22314;;-152.50764;;-152.94145;;-153.43024;;-153.76258;;-153.76258
-8.7126586;;-8.7126586;;-9.0723362;;-9.835318;;-10.360267;;-10.887521;;-11.424588;;-11.9338;;-12.353554;;-12.661084;;-12.885706;;-13.060729;;-13.177217;;-13.204468;;-13.357486;;-14.714163;;-16.848344;;-19.701235;;-23.327;;-27.783627;;-33.083718;;-39.250633;;-46.196399;;-53.64992;;-61.080667;;-67.845103;;-73.627885;;-78.528954;;-82.845929;;-86.823817;;-90.546043;;-94.00018;;-97.161788;;-100.01832;;-102.56574;;-104.77319;;-106.51169;;-107.61238;;-108.19051;;-108.8537;;-110.26042;;-112.47754;;-115.07901;;-117.78117;;-120.66573;;-123.84375;;-127.20528;;-130.51716;;-133.60168;;-136.3891;;-138.88473;;-141.13971;;-143.22632;;-145.1883;;-147.01302;;-148.66396;;-150.09904;;-151.24046;;-152.00705;;-152.4371;;-152.72128;;-153.04565;;-153.42165;;-153.69985;;-153.69985
-8.6655432;;-8.6655432;;-9.0513411;;-9.8463392;;-10.401174;;-10.937093;;-11.459222;;-11.949701;;-12.368787;;-12.70266;;-12.966888;;-13.173023;;-13.30446;;-13.348096;;-13.451844;;-14.578352;;-16.546148;;-19.223862;;-22.639439;;-26.852687;;-31.856649;;-37.672294;;-44.230168;;-51.317824;;-58.544162;;-65.433461;;-71.633916;;-77.046297;;-81.794555;;-86.063658;;-89.988134;;-93.647597;;-97.067795;;-100.20821;;-102.98313;;-105.26198;;-106.80719;;-107.39292;;-107.27251;;-107.39547;;-108.66773;;-111.06873;;-113.91612;;-116.80154;;-119.85349;;-123.22741;;-126.77958;;-130.24459;;-133.47156;;-136.42088;;-139.06819;;-141.40401;;-143.46189;;-145.27417;;-146.85691;;-148.28002;;-149.64632;;-150.9317;;-151.95227;;-152.57617;;-152.90151;;-153.15429;;-153.44475;;-153.67971;;-153.67971
-8.5818339;;-8.5818339;;-8.9870187;;-9.8082636;;-10.39389;;-10.940305;;-11.433104;;-11.884059;;-12.289318;;-12.653146;;-12.982426;;-13.269049;;-13.491837;;-13.651546;;-13.8575;;-14.662788;;-16.383748;;-18.823172;;-21.973416;;-25.888689;;-30.567;;-35.997363;;-42.126829;;-48.791112;;-55.702059;;-62.507127;;-68.890121;;-74.665729;;-79.815753;;-84.435175;;-88.672006;;-92.669932;;-96.487464;;-100.05807;;-103.22786;;-105.77708;;-107.39612;;-107.86173;;-107.52974;;-107.4837;;-108.68099;;-111.0443;;-113.81845;;-116.5852;;-119.52192;;-122.83697;;-126.4102;;-129.97831;;-133.38363;;-136.55541;;-139.40248;;-141.84019;;-143.84697;;-145.43897;;-146.69647;;-147.84665;;-149.14166;;-150.56658;;-151.81043;;-152.60652;;-153.00357;;-153.2534;;-153.51327;;-153.72498;;-153.72498
-8.4467005;;-8.4467005;;-8.8592622;;-9.6939586;;-10.305598;;-10.875153;;-11.344713;;-11.759398;;-12.158755;;-12.563051;;-12.972416;;-13.367688;;-13.72888;;-14.064151;;-14.461092;;-15.176075;;-16.554465;;-18.644563;;-21.432493;;-24.94767;;-29.239596;;-34.262673;;-39.960613;;-46.212946;;-52.807321;;-59.467433;;-65.913875;;-71.934531;;-77.423137;;-82.388793;;-86.958253;;-91.30669;;-95.528009;;-99.56507;;-103.22836;;-106.22629;;-108.22187;;-109.06008;;-109.13478;;-109.38202;;-110.54981;;-112.5547;;-114.82962;;-117.12636;;-119.68298;;-122.74167;;-126.22791;;-129.88416;;-133.49496;;-136.9055;;-139.94908;;-142.4765;;-144.41596;;-145.78529;;-146.75505;;-147.68919;;-148.91436;;-150.3812;;-151.70493;;-152.5824;;-153.05433;;-153.3544;;-153.62363;;-153.82282;;-153.82282
-8.3101737;;-8.3101737;;-8.7188008;;-9.5525926;;-10.177221;;-10.773662;;-11.241747;;-11.638529;;-12.046199;;-12.492268;;-12.97192;;-13.465295;;-13.960408;;-14.470963;;-15.063388;;-15.883243;;-17.097591;;-18.820882;;-21.167365;;-24.221885;;-28.038133;;-32.653838;;-37.9953;;-43.9567;;-50.373048;;-57.0018;;-63.564186;;-69.816809;;-75.595874;;-80.850205;;-85.673031;;-90.246163;;-94.709902;;-99.065266;;-103.13501;;-106.58822;;-109.09021;;-110.56429;;-111.36822;;-112.1333;;-113.29351;;-114.80392;;-116.41727;;-118.13711;;-120.25771;;-123.02627;;-126.39917;;-130.11134;;-133.86914;;-137.42637;;-140.561;;-143.09605;;-144.95304;;-146.19008;;-147.05207;;-147.93217;;-149.10373;;-150.46393;;-151.66392;;-152.48843;;-153.00757;;-153.39354;;-153.71479;;-153.92453;;-153.92453
-8.2185162;;-8.2185162;;-8.6221152;;-9.452841;;-10.084973;;-10.704139;;-11.188521;;-11.581177;;-11.999326;;-12.471078;;-12.988547;;-13.539548;;-14.125838;;-14.768989;;-15.518599;;-16.45776;;-17.660321;;-19.170258;;-21.110547;;-23.720214;;-27.140623;;-31.417345;;-36.56371;;-42.455008;;-48.934893;;-55.763385;;-62.615818;;-69.168677;;-75.194558;;-80.624019;;-85.549697;;-90.159169;;-94.636704;;-99.058516;;-103.29506;;-107.02478;;-109.94092;;-112.00067;;-113.45998;;-114.66428;;-115.8198;;-116.95658;;-118.09545;;-119.41893;;-121.23988;;-123.78831;;-127.02967;;-130.69038;;-134.42672;;-137.94092;;-140.99548;;-143.42939;;-145.20529;;-146.44058;;-147.39859;;-148.38095;;-149.51662;;-150.66522;;-151.60614;;-152.2899;;-152.83407;;-153.32937;;-153.7437;;-153.99474;;-153.99474
-8.1855265;;-8.1855265;;-8.5893778;;-9.4234832;;-10.065337;;-10.704697;;-11.207765;;-11.593478;;-12.008933;;-12.482518;;-13.002945;;-13.568198;;-14.196856;;-14.918136;;-15.769165;;-16.792306;;-18.006796;;-19.405109;;-21.067286;;-23.346833;;-26.543072;;-30.704043;;-35.841263;;-41.900446;;-48.675795;;-55.922904;;-63.243975;;-70.171414;;-76.384934;;-81.842205;;-86.69777;;-91.174968;;-95.49175;;-99.773037;;-103.93988;;-107.72705;;-110.88137;;-113.34158;;-115.21969;;-116.67225;;-117.83457;;-118.83212;;-119.81894;;-121.01949;;-122.71095;;-125.0905;;-128.12611;;-131.56068;;-135.05917;;-138.3331;;-141.1709;;-143.45194;;-145.1835;;-146.5093;;-147.64692;;-148.76147;;-149.85127;;-150.78455;;-151.48856;;-152.05831;;-152.63499;;-153.23237;;-153.73604;;-154.03134;;-154.03134
-8.1816283;;-8.1816283;;-8.5884395;;-9.1556985;;-10.080794;;-10.736706;;-11.253593;;-11.622777;;-12.021693;;-12.482762;;-12.988859;;-13.543872;;-14.181155;;-14.936608;;-15.836566;;-16.895451;;-18.100637;;-19.413387;;-20.89982;;-23.021583;;-26.196863;;-30.433873;;-35.734343;;-42.072975;;-49.234486;;-56.975059;;-64.839391;;-72.203075;;-78.600779;;-84.005913;;-88.670773;;-92.898648;;-96.952868;;-100.98495;;-104.95848;;-108.68672;;-111.97223;;-114.69487;;-116.81729;;-118.40114;;-119.62036;;-120.68966;;-121.78325;;-123.06181;;-124.72188;;-126.92028;;-129.64157;;-132.6845;;-135.77647;;-138.68475;;-141.25037;;-143.39274;;-145.12608;;-146.5534;;-147.80656;;-148.95608;;-149.96385;;-150.75381;;-151.35181;;-151.90599;;-152.53218;;-153.18713;;-153.72446;;-154.03156;;-154.03156
-8.1486354;;-8.1486354;;-8.553217;;-9.1188046;;-10.047667;;-10.714619;;-11.253685;;-11.614419;;-11.996572;;-12.444859;;-12.937511;;-13.478142;;-14.107768;;-14.866537;;-15.772785;;-16.823964;;-17.988581;;-19.216972;;-20.594782;;-22.722082;;-26.003775;;-30.392452;;-35.89624;;-42.498695;;-50.00739;;-58.194708;;-66.58203;;-74.424422;;-81.07598;;-86.461657;;-90.911201;;-94.831234;;-98.559507;;-102.29111;;-106.04716;;-109.71619;;-113.11767;;-116.04182;;-118.33467;;-120.03592;;-121.39492;;-122.68348;;-124.03166;;-125.48662;;-127.14452;;-129.12965;;-131.46815;;-134.0419;;-136.66327;;-139.17065;;-141.46352;;-143.4876;;-145.2224;;-146.68376;;-147.92063;;-148.98402;;-149.88559;;-150.61744;;-151.23221;;-151.84518;;-152.51526;;-153.17035;;-153.67951;;-153.96293;;-153.96293
-8.0566183;;-8.0566183;;-8.4498625;;-9.0018204;;-9.9236216;;-10.596807;;-11.176804;;-11.561743;;-11.939932;;-12.38112;;-12.867589;;-13.399457;;-14.015087;;-14.75367;;-15.631017;;-16.638669;;-17.737821;;-18.88258;;-20.212135;;-22.450675;;-25.85969;;-30.379592;;-36.03714;;-42.819557;;-50.571238;;-59.088693;;-67.902231;;-76.210793;;-83.202208;;-88.682817;;-93.001198;;-96.64798;;-100.04593;;-103.46793;;-107.02296;;-110.65989;;-114.16945;;-117.25034;;-119.69053;;-121.54992;;-123.12797;;-124.70223;;-126.33532;;-127.96741;;-129.61391;;-131.38909;;-133.3701;;-135.51333;;-137.70507;;-139.85139;;-141.90025;;-143.79979;;-145.47425;;-146.86237;;-147.97646;;-148.90061;;-149.71513;;-150.45039;;-151.1309;;-151.80371;;-152.47899;;-153.08921;;-153.54318;;-153.79411;;-153.79411
-7.936866;;-7.936866;;-8.3145761;;-8.847332;;-9.7569112;;-10.432878;;-11.057144;;-11.495651;;-11.8846;;-12.32511;;-12.813362;;-13.345338;;-13.945016;;-14.6424;;-15.455364;;-16.382308;;-17.394308;;-18.463654;;-19.813166;;-22.196104;;-25.70254;;-30.298961;;-36.032992;;-42.891735;;-50.758359;;-59.453912;;-68.537368;;-77.215955;;-84.586824;;-90.313682;;-94.687356;;-98.21727;;-101.38608;;-104.55706;;-107.93717;;-111.51942;;-115.06332;;-118.22873;;-120.81157;;-122.88733;;-124.72768;;-126.55431;;-128.37719;;-130.09356;;-131.69749;;-133.31371;;-135.04543;;-136.87829;;-138.74534;;-140.61285;;-142.46203;;-144.2201;;-145.76275;;-147.00316;;-147.97103;;-148.7907;;-149.57187;;-150.33723;;-151.06336;;-151.7434;;-152.37309;;-152.91703;;-153.32421;;-153.55842;;-153.55842
-7.8375548;;-7.8375548;;-8.2022835;;-8.7188214;;-9.6171996;;-10.293131;;-10.945406;;-11.439083;;-11.849259;;-12.298088;;-12.797549;;-13.338164;;-13.921137;;-14.560662;;-15.277891;;-16.091005;;-16.996186;;-18.000648;;-19.430841;;-21.941601;;-25.50602;;-30.122578;;-35.854472;;-42.679619;;-50.51672;;-59.207466;;-68.352987;;-77.231678;;-84.973842;;-91.126058;;-95.824845;;-99.498503;;-102.64025;;-105.68846;;-108.92805;;-112.38783;;-115.84601;;-119.01359;;-121.74257;;-124.07835;;-126.16976;;-128.13557;;-129.97991;;-131.65079;;-133.18382;;-134.71151;;-136.31536;;-137.96254;;-139.60889;;-141.271;;-142.95219;;-144.55974;;-145.95325;;-147.06666;;-147.96281;;-148.77047;;-149.57282;;-150.35664;;-151.07032;;-151.69814;;-152.25432;;-152.73706;;-153.11698;;-153.3493;;-153.3493
-7.7603786;;-7.7603786;;-8.1139896;;-8.6163132;;-9.502022;;-10.172064;;-10.836182;;-11.37411;;-11.815399;;-12.283865;;-12.801563;;-13.353373;;-13.918796;;-14.49445;;-15.106409;;-15.796934;;-16.593109;;-17.542942;;-19.080666;;-21.681943;;-25.270571;;-29.864301;;-35.531251;;-42.22521;;-49.896259;;-58.399004;;-67.388383;;-76.272989;;-84.336791;;-91.072785;;-96.374134;;-100.47771;;-103.82627;;-106.89954;;-110.03607;;-113.31579;;-116.60419;;-119.73033;;-122.60567;;-125.1919;;-127.46177;;-129.43026;;-131.15389;;-132.70047;;-134.16698;;-135.66066;;-137.20296;;-138.72826;;-140.21021;;-141.7019;;-143.22262;;-144.68369;;-145.9692;;-147.05289;;-148.0061;;-148.90816;;-149.76828;;-150.53415;;-151.17126;;-151.7107;;-152.20151;;-152.64856;;-153.01324;;-153.24144;;-153.24144
-7.6623396;;-7.6623396;;-8.0003698;;-8.4819331;;-9.073757;;-10.000127;;-10.668118;;-11.251596;;-11.735564;;-12.22569;;-12.755415;;-13.31008;;-13.857972;;-14.383731;;-14.915311;;-15.512961;;-16.225247;;-17.133928;;-18.765228;;-21.421604;;-25.016741;;-29.577311;;-35.158767;;-41.691099;;-49.138439;;-57.357411;;-66.059878;;-74.816677;;-83.113821;;-90.448144;;-96.480846;;-101.19722;;-104.91861;;-108.11789;;-111.17972;;-114.27352;;-117.39538;;-120.48913;;-123.48433;;-126.23921;;-128.57811;;-130.45659;;-132.01387;;-133.44137;;-134.87045;;-136.34735;;-137.827;;-139.23267;;-140.56686;;-141.9056;;-143.27434;;-144.60238;;-145.81997;;-146.94699;;-148.04835;;-149.12042;;-150.06542;;-150.79208;;-151.32355;;-151.77793;;-152.23925;;-152.68585;;-153.0452;;-153.26265;;-153.26265
-7.5251192;;-7.5251192;;-7.8408225;;-8.2922694;;-8.8511407;;-9.7514451;;-10.415187;;-11.040627;;-11.56598;;-12.058081;;-12.571202;;-13.109129;;-13.644253;;-14.153493;;-14.657986;;-15.220746;;-15.893552;;-16.776015;;-18.471645;;-21.162363;;-24.767449;;-29.320298;;-34.853418;;-41.298967;;-48.61212;;-56.637344;;-65.11332;;-73.731511;;-82.139797;;-89.887092;;-96.516626;;-101.80714;;-105.91729;;-109.26289;;-112.27237;;-115.22952;;-118.25;;-121.32941;;-124.36873;;-127.16214;;-129.47977;;-131.26773;;-132.71508;;-134.07354;;-135.47264;;-136.90239;;-138.28417;;-139.56231;;-140.7718;;-141.9926;;-143.23751;;-144.43943;;-145.56473;;-146.692;;-147.91381;;-149.16277;;-150.22225;;-150.94965;;-151.42947;;-151.86366;;-152.35275;;-152.83451;;-153.20377;;-153.41399;;-153.41399
-7.3774732;;-7.3774732;;-7.6688751;;-8.0872354;;-8.6089457;;-9.4761461;;-10.122321;;-10.76166;;-11.300258;;-11.753004;;-12.207223;;-12.704402;;-13.233675;;-13.765225;;-14.301929;;-14.889097;;-15.56533;;-16.442535;;-18.20604;;-20.940055;;-24.581148;;-29.173802;;-34.745217;;-41.242893;;-48.619735;;-56.702645;;-65.194858;;-73.77713;;-82.167375;;-90.014514;;-96.893878;;-102.50323;;-106.86701;;-110.32111;;-113.31655;;-116.2214;;-119.20767;;-122.25369;;-125.22441;;-127.93109;;-130.19157;;-131.96209;;-133.40189;;-134.73363;;-136.06788;;-137.38812;;-138.64077;;-139.81411;;-140.95766;;-142.12391;;-143.28694;;-144.35368;;-145.29995;;-146.27745;;-147.4734;;-148.82553;;-150.02122;;-150.84724;;-151.40571;;-151.92895;;-152.50117;;-153.03081;;-153.41009;;-153.61419;;-153.61419
-7.2555368;;-7.2555368;;-7.5259386;;-7.9151212;;-8.4025268;;-9.2345068;;-9.8496836;;-10.465519;;-10.971042;;-11.340679;;-11.706232;;-12.149531;;-12.675862;;-13.252176;;-13.85856;;-14.508537;;-15.214976;;-16.128461;;-18.010707;;-20.82856;;-24.554523;;-29.253262;;-34.959068;;-41.644156;;-49.269849;;-57.648664;;-66.406579;;-75.075939;;-83.336865;;-90.980556;;-97.737223;;-103.34976;;-107.78805;;-111.32236;;-114.37996;;-117.32757;;-120.31411;;-123.27548;;-126.0803;;-128.62692;;-130.82927;;-132.64419;;-134.14097;;-135.45794;;-136.68849;;-137.85825;;-138.98279;;-140.10091;;-141.25397;;-142.43756;;-143.56445;;-144.49544;;-145.19498;;-145.8863;;-146.89197;;-148.2262;;-149.53514;;-150.5288;;-151.26552;;-151.93907;;-152.5925;;-153.13142;;-153.48579;;-153.66866;;-153.66866
-7.1699198;;-7.1699198;;-7.4235896;;-7.7887801;;-8.2462443;;-9.0432156;;-9.6189547;;-10.186525;;-10.616775;;-10.881611;;-11.159373;;-11.555722;;-12.081611;;-12.701749;;-13.38167;;-14.102735;;-14.850485;;-15.877929;;-17.926275;;-20.870035;;-24.725578;;-29.583055;;-35.484136;;-42.429912;;-50.389103;;-59.159021;;-68.280323;;-77.072523;;-85.107678;;-92.35633;;-98.762302;;-104.18307;;-108.60677;;-112.25795;;-115.48085;;-118.54794;;-121.5387;;-124.3767;;-126.98849;;-129.37379;;-131.52122;;-133.374;;-134.91537;;-136.20738;;-137.33684;;-138.382;;-139.42285;;-140.53168;;-141.7312;;-142.96119;;-144.0779;;-144.90451;;-145.39353;;-145.8077;;-146.56694;;-147.77818;;-149.10871;;-150.22212;;-151.10198;;-151.86773;;-152.52417;;-153.00194;;-153.29005;;-153.43785;;-153.43785
-7.1013985;;-7.1013985;;-7.3399089;;-7.6829948;;-8.1120577;;-8.8740733;;-9.4080484;;-9.920462;;-10.265994;;-10.444651;;-10.665696;;-11.036999;;-11.563856;;-12.209618;;-12.936622;;-13.708967;;-14.499642;;-15.714036;;-17.912229;;-20.978189;;-24.961193;;-29.972282;;-36.057492;;-43.24324;;-51.500953;;-60.611321;;-70.038047;;-78.887033;;-86.623423;;-93.438769;;-99.48222;;-104.72286;;-109.18268;;-113.03403;;-116.49469;;-119.70506;;-122.69183;;-125.42125;;-127.9001;;-130.18623;;-132.28829;;-134.13652;;-135.67694;;-136.93829;;-138.01104;;-139.0063;;-140.02717;;-141.13916;;-142.34144;;-143.55328;;-144.62297;;-145.37761;;-145.77278;;-146.06125;;-146.66108;;-147.71965;;-148.96384;;-150.06747;;-150.96016;;-151.69993;;-152.27841;;-152.66353;;-152.88954;;-153.01515;;-153.01515
-7.0247564;;-7.0247564;;-7.2462413;;-7.5649233;;-7.9634875;;-8.4214739;;-9.1853271;;-9.6560423;;-9.9581719;;-10.102036;;-10.305679;;-10.669742;;-11.190733;;-11.833454;;-12.567165;;-13.356247;;-14.181462;;-15.553669;;-17.833822;;-20.961255;;-25.006678;;-30.094043;;-36.272711;;-43.585588;;-52.006242;;-61.305731;;-70.897201;;-79.719437;;-87.168402;;-93.671337;;-99.533327;;-104.77896;;-109.41802;;-113.53889;;-117.23284;;-120.55128;;-123.53119;;-126.21645;;-128.66753;;-130.93722;;-133.01692;;-134.84348;;-136.37287;;-137.62914;;-138.7012;;-139.7076;;-140.73904;;-141.8195;;-142.91827;;-143.97462;;-144.88973;;-145.53879;;-145.90063;;-146.20248;;-146.79447;;-147.78662;;-148.93825;;-149.9618;;-150.77933;;-151.43301;;-151.92999;;-152.26732;;-152.48746;;-152.6251;;-152.6251
-6.9386267;;-6.9386267;;-7.1404635;;-7.432062;;-7.7985363;;-8.2240335;;-8.9570465;;-9.410648;;-9.7361408;;-9.9087987;;-10.126974;;-10.483258;;-10.975602;;-11.582093;;-12.285914;;-13.059524;;-13.892061;;-15.307003;;-17.57829;;-20.675522;;-24.679486;;-29.718809;;-35.849138;;-43.120349;;-51.51388;;-60.810023;;-70.419768;;-79.211686;;-86.518969;;-92.94305;;-98.887422;;-104.37501;;-109.34359;;-113.76799;;-117.64782;;-121.02506;;-124.00588;;-126.70838;;-129.20225;;-131.49934;;-133.57386;;-135.39428;;-136.94806;;-138.25182;;-139.36783;;-140.39721;;-141.41146;;-142.39708;;-143.29984;;-144.08848;;-144.72304;;-145.1288;;-145.34073;;-145.64213;;-146.361;;-147.50062;;-148.7317;;-149.75322;;-150.51596;;-151.10529;;-151.57352;;-151.93474;;-152.20623;;-152.38185;;-152.38185
-6.8665237;;-6.8665237;;-7.0469201;;-7.3121858;;-7.6500615;;-8.0512092;;-8.7649965;;-9.2211668;;-9.6070356;;-9.8503348;;-10.091479;;-10.425782;;-10.870647;;-11.425042;;-12.084602;;-12.827139;;-13.631817;;-14.963064;;-17.135875;;-20.11428;;-23.975969;;-28.847882;;-34.797262;;-41.872638;;-50.071502;;-59.204655;;-68.736815;;-77.590393;;-84.997094;;-91.580846;;-97.813309;;-103.70132;;-109.08904;;-113.83366;;-117.8784;;-121.30297;;-124.29595;;-127.02952;;-129.5655;;-131.87949;;-133.94267;;-135.7645;;-137.36584;;-138.74876;;-139.92828;;-140.96742;;-141.9246;;-142.78264;;-143.48385;;-143.99648;;-144.26902;;-144.22991;;-144.03331;;-144.19002;;-145.13317;;-146.69733;;-148.28442;;-149.4698;;-150.24993;;-150.81126;;-151.28219;;-151.69445;;-152.0309;;-152.24571;;-152.24571
-6.8290668;;-6.8290668;;-6.987938;;-7.2332756;;-7.5518914;;-7.9390479;;-8.6437786;;-9.1065054;;-9.5337385;;-9.8326847;;-10.082709;;-10.391643;;-10.798697;;-11.317508;;-11.946074;;-12.660414;;-13.423622;;-14.564045;;-16.560568;;-19.347522;;-22.98869;;-27.603306;;-33.276952;;-40.049733;;-47.941834;;-56.812915;;-66.225492;;-75.260733;;-83.034584;;-89.981268;;-96.611376;;-102.94554;;-108.7662;;-113.83937;;-118.0693;;-121.56891;;-124.58811;;-127.34252;;-129.89878;;-132.21092;;-134.24404;;-136.03669;;-137.6441;;-139.06936;;-140.29301;;-141.33875;;-142.25276;;-143.03121;;-143.62097;;-143.94679;;-143.86404;;-143.26198;;-142.47141;;-142.35947;;-143.55807;;-145.69896;;-147.80547;;-149.25554;;-150.0941;;-150.63836;;-151.10691;;-151.55505;;-151.93978;;-152.18385;;-152.18385
-6.8163297;;-6.8163297;;-6.9611541;;-7.1963625;;-7.5055875;;-7.8846672;;-8.5832149;;-9.0438718;;-9.4754469;;-9.7779591;;-10.016288;;-10.313753;;-10.717337;;-11.234964;;-11.854504;;-12.549054;;-13.277648;;-14.179131;;-15.913982;;-18.445373;;-21.805517;;-26.095767;;-31.42545;;-37.82338;;-45.332982;;-53.874208;;-63.132106;;-72.404317;;-80.776099;;-88.279152;;-95.381225;;-102.1591;;-108.39283;;-113.79802;;-118.24535;;-121.86197;;-124.94181;;-127.74308;;-130.34137;;-132.66221;;-134.64684;;-136.35134;;-137.87373;;-139.2474;;-140.45613;;-141.51064;;-142.44394;;-143.24614;;-143.84926;;-144.12119;;-143.821;;-142.80139;;-141.5388;;-141.1827;;-142.52962;;-145.07016;;-147.54796;;-149.18673;;-150.06381;;-150.59596;;-151.06826;;-151.5513;;-151.98278;;-152.258;;-152.258
-6.8095364;;-6.8095364;;-6.9410057;;-7.1669709;;-7.4670589;;-7.8360524;;-8.2555113;;-8.973009;;-9.3900791;;-9.6703147;;-9.8958948;;-10.204735;;-10.635629;;-11.175355;;-11.796792;;-12.470768;;-13.169637;;-13.908462;;-15.260685;;-17.480713;;-20.516883;;-24.438699;;-29.364125;;-35.339159;;-42.410627;;-50.562491;;-59.603385;;-69.050132;;-78.10456;;-86.337663;;-93.997147;;-101.23352;;-107.88511;;-113.65143;;-118.36691;;-122.16323;;-125.37825;;-128.30325;;-130.99846;;-133.34288;;-135.25343;;-136.81177;;-138.16753;;-139.39874;;-140.52319;;-141.5743;;-142.57916;;-143.49103;;-144.2007;;-144.5492;;-144.28264;;-143.25388;;-141.94383;;-141.50639;;-142.75669;;-145.21494;;-147.6387;;-149.24301;;-150.10014;;-150.63685;;-151.14718;;-151.69494;;-152.19556;;-152.51562;;-152.51562
-6.8020467;;-6.8020467;;-6.8959263;;-7.0980627;;-7.375023;;-7.7196153;;-8.1168188;;-8.8147581;;-9.2239955;;-9.5152651;;-9.7545737;;-10.086636;;-10.541971;;-11.094623;;-11.708814;;-12.363574;;-13.047155;;-13.747807;;-14.704791;;-16.56886;;-19.253078;;-22.79071;;-27.282775;;-32.821007;;-39.434398;;-47.159567;;-55.908101;;-65.375563;;-74.953299;;-83.947638;;-92.219496;;-99.943223;;-107.06235;;-113.28515;;-118.39111;;-122.48913;;-125.94455;;-129.06037;;-131.86467;;-134.20398;;-136.00385;;-137.38756;;-138.54812;;-139.59997;;-140.60431;;-141.63834;;-142.73294;;-143.79229;;-144.65676;;-145.17883;;-145.17859;;-144.54241;;-143.61337;;-143.27212;;-144.19965;;-146.10357;;-148.04608;;-149.3902;;-150.17115;;-150.72965;;-151.30556;;-151.93361;;-152.50716;;-152.8711;;-152.8711
-6.7989344;;-6.7989344;;-6.8323739;;-6.988028;;-7.2233372;;-7.5261286;;-7.8881556;;-8.5572375;;-8.9654097;;-9.312378;;-9.5933186;;-9.9217225;;-10.342027;;-10.83587;;-11.404193;;-12.067693;;-12.801326;;-13.565051;;-14.385945;;-15.840331;;-18.172641;;-21.345295;;-25.428669;;-30.53953;;-36.719172;;-44.01381;;-52.407605;;-61.719446;;-71.506864;;-81.061208;;-89.899302;;-98.107092;;-105.74788;;-112.56884;;-118.26454;;-122.83885;;-126.61526;;-129.89762;;-132.72893;;-134.99414;;-136.67005;;-137.90996;;-138.91528;;-139.82031;;-140.73018;;-141.76222;;-142.94924;;-144.15779;;-145.19203;;-145.92636;;-146.2719;;-146.16134;;-145.76511;;-145.60488;;-146.1584;;-147.34479;;-148.63237;;-149.61353;;-150.29143;;-150.87734;;-151.515;;-152.19512;;-152.79915;;-153.17532;;-153.17532
-6.7980414;;-6.7980414;;-6.8052057;;-6.8794653;;-7.0614366;;-7.3164341;;-7.6352974;;-8.004547;;-8.6742993;;-9.0706267;;-9.4036553;;-9.6789417;;-9.9709888;;-10.316084;;-10.80071;;-11.468286;;-12.29512;;-13.215533;;-14.161447;;-15.35595;;-17.379034;;-20.231767;;-23.966201;;-28.687925;;-34.486482;;-41.384416;;-49.407501;;-58.451266;;-68.191701;;-78.015956;;-87.282294;;-95.908332;;-104.04773;;-111.52872;;-117.94998;;-123.1072;;-127.18599;;-130.50999;;-133.24336;;-135.39907;;-137.01326;;-138.21546;;-139.16689;;-140.01455;;-140.90921;;-141.98488;;-143.25707;;-144.57708;;-145.74759;;-146.65881;;-147.26967;;-147.54607;;-147.54992;;-147.54432;;-147.8335;;-148.46468;;-149.21514;;-149.88139;;-150.46412;;-151.07057;;-151.74973;;-152.44342;;-153.02932;;-153.38232;;-153.38232
-6.7976355;;-6.7976355;;-6.7998664;;-6.8172789;;-6.9298527;;-7.1367562;;-7.4136546;;-7.7531968;;-8.1383366;;-8.8150372;;-9.1825455;;-9.3976856;;-9.5170058;;-9.7095603;;-10.121336;;-10.766807;;-11.620802;;-12.650478;;-13.783909;;-15.04383;;-16.872474;;-19.49181;;-22.963042;;-27.384907;;-32.880302;;-39.473023;;-47.195363;;-55.991733;;-65.617965;;-75.555647;;-85.117302;;-94.036825;;-102.50735;;-110.47645;;-117.48676;;-123.10668;;-127.34987;;-130.58832;;-133.17714;;-135.28571;;-136.97222;;-138.28421;;-139.31202;;-140.21478;;-141.18392;;-142.34247;;-143.66905;;-145.02064;;-146.23847;;-147.2325;;-147.96269;;-148.39299;;-148.54174;;-148.56887;;-148.71262;;-149.08567;;-149.59987;;-150.12812;;-150.66349;;-151.27559;;-151.9757;;-152.67283;;-153.23538;;-153.5616;;-153.5616
-6.7974888;;-6.7974888;;-6.7980339;;-6.801878;;-6.8403683;;-6.9979613;;-7.2346142;;-7.5371379;;-7.8930643;;-8.2766378;;-8.9104021;;-9.1075237;;-9.0706515;;-9.1243703;;-9.4888549;;-10.116709;;-10.967244;;-12.025768;;-13.262061;;-14.698494;;-16.564433;;-19.10417;;-22.445124;;-26.708556;;-32.03191;;-38.477053;;-46.067241;;-54.773804;;-64.397027;;-74.46439;;-84.24165;;-93.281094;;-101.77777;;-109.8154;;-116.96909;;-122.70216;;-126.93075;;-130.06842;;-132.60027;;-134.78477;;-136.66596;;-138.20686;;-139.42845;;-140.4838;;-141.57829;;-142.81468;;-144.14543;;-145.45125;;-146.6281;;-147.60935;;-148.33256;;-148.72242;;-148.76357;;-148.62265;;-148.62538;;-148.99248;;-149.63029;;-150.29027;;-150.87631;;-151.47978;;-152.16871;;-152.86425;;-153.41994;;-153.73527;;-153.73527
-6.7974553;;-6.7974553;;-6.7975369;;-6.7982494;;-6.8045583;;-6.8838624;;-7.0677598;;-7.320042;;-7.6278899;;-7.965874;;-8.2914898;;-8.7548278;;-8.6595553;;-8.6114382;;-8.9729036;;-9.5899489;;-10.425411;;-11.480909;;-12.7639;;-14.335851;;-16.349681;;-18.965732;;-22.336128;;-26.610761;;-31.947385;;-38.431455;;-46.098929;;-54.929077;;-64.730141;;-75.013849;;-84.940111;;-93.881275;;-102.04282;;-109.65155;;-116.42121;;-121.89783;;-126.01164;;-129.15074;;-131.77509;;-134.13229;;-136.25647;;-138.07866;;-139.56807;;-140.83178;;-142.05035;;-143.32254;;-144.61964;;-145.86041;;-146.97421;;-147.89785;;-148.54126;;-148.77723;;-148.53885;;-148.03932;;-147.81206;;-148.2846;;-149.30481;;-150.33872;;-151.08732;;-151.67631;;-152.30388;;-152.95652;;-153.48763;;-153.78944;;-153.78944
-6.7974515;;-6.7974515;;-6.7974575;;-6.797547;;-6.798906;;-6.8144053;;-6.9214667;;-7.1124579;;-7.3616418;;-7.6455801;;-7.9229149;;-8.0937495;;-8.2633114;;-8.1998517;;-8.5769942;;-8.9054852;;-9.7145157;;-10.758287;;-12.354558;;-14.027607;;-16.169268;;-18.914192;;-22.412432;;-26.826573;;-32.31168;;-38.96255;;-46.844731;;-55.939127;;-66.040767;;-76.605905;;-86.625793;;-95.270985;;-102.80647;;-109.63038;;-115.68804;;-120.7389;;-124.76678;;-128.04692;;-130.89256;;-133.48162;;-135.85614;;-137.96159;;-139.7326;;-141.20616;;-142.51955;;-143.79321;;-145.05646;;-146.26636;;-147.34767;;-148.21357;;-148.75936;;-148.83334;;-148.31866;;-147.44838;;-146.94981;;-147.4796;;-148.85987;;-150.28155;;-151.21817;;-151.79375;;-152.32167;;-152.87149;;-153.32642;;-153.58846;;-153.58846
-6.7974514;;-6.7974514;;-6.7974516;;-6.7974603;;-6.7978024;;-6.8013825;;-6.8276892;;-6.9413391;;-7.1243489;;-7.3491011;;-7.5761991;;-7.7197402;;-7.6344614;;-7.6226937;;-7.997673;;-8.5781878;;-9.366428;;-10.402449;;-12.018747;;-13.741131;;-15.950716;;-18.782417;;-22.38975;;-26.935086;;-32.552926;;-39.364883;;-47.456166;;-56.814959;;-67.228719;;-78.102989;;-88.23487;;-96.496478;;-103.2622;;-109.18438;;-114.49737;;-119.18039;;-123.23514;;-126.7786;;-129.94787;;-132.83338;;-135.47523;;-137.84096;;-139.85203;;-141.49451;;-142.87596;;-144.14881;;-145.40037;;-146.61002;;-147.67967;;-148.49971;;-148.98;;-148.99256;;-148.40072;;-147.39928;;-146.74677;;-147.20064;;-148.63348;;-150.17135;;-151.18413;;-151.74418;;-152.17542;;-152.59193;;-152.93075;;-153.12992;;-153.12992
-6.7974514;;-6.7974514;;-6.7974514;;-6.7974523;;-6.7975178;;-6.7983337;;-6.8038003;;-6.8334373;;-6.9393126;;-7.1006604;;-7.2747976;;-7.3862554;;-7.3190038;;-7.3859818;;-7.7547663;;-8.3123954;;-9.0726821;;-10.080202;;-11.672726;;-13.37582;;-15.565478;;-18.37917;;-21.974034;;-26.506603;;-32.116714;;-38.942237;;-47.08538;;-56.554041;;-67.157159;;-78.306272;;-88.687627;;-96.716793;;-102.81545;;-107.98197;;-112.71796;;-117.17316;;-121.35222;;-125.23934;;-128.81171;;-132.05265;;-134.97;;-137.55138;;-139.73805;;-141.50631;;-142.9514;;-144.24249;;-145.49574;;-146.70072;;-147.75414;;-148.55259;;-149.03977;;-149.13637;;-148.72222;;-147.91812;;-147.33129;;-147.62989;;-148.78394;;-150.10303;;-151.03061;;-151.56071;;-151.91858;;-152.20991;;-152.43067;;-152.56616;;-152.56616
-6.7974514;;-6.7974514;;-6.7974514;;-6.7974515;;-6.7974579;;-6.7975697;;-6.7985812;;-6.8039608;;-6.827481;;-6.9132497;;-7.0335279;;-7.1141226;;-7.0650763;;-7.1886267;;-7.5378384;;-8.0561428;;-8.7641788;;-9.7069981;;-10.947502;;-12.833406;;-14.912917;;-17.589728;;-21.022246;;-25.369395;;-30.773819;;-37.383497;;-45.317869;;-54.616383;;-65.142395;;-76.397538;;-87.167482;;-95.444821;;-101.32347;;-106.10928;;-110.50256;;-114.80399;;-119.09769;;-123.32136;;-127.31176;;-130.91695;;-134.08942;;-136.84242;;-139.16478;;-141.05;;-142.5823;;-143.92041;;-145.18134;;-146.36803;;-147.40741;;-148.2319;;-148.8105;;-149.09475;;-148.99831;;-148.581;;-148.23278;;-148.4245;;-149.20389;;-150.16071;;-150.90752;;-151.37918;;-151.67943;;-151.88498;;-152.03205;;-152.13011;;-152.13011
-6.7974514;;-6.7974514;;-6.7974514;;-6.7974514;;-6.7974515;;-6.7974582;;-6.7975756;;-6.7983828;;-6.8014515;;-6.8121623;;-6.8617523;;-6.9112977;;-6.8812949;;-7.0143538;;-7.3287672;;-7.7926989;;-8.4284991;;-9.2787811;;-10.402197;;-12.143403;;-14.042212;;-16.49155;;-19.642618;;-23.655408;;-28.673354;;-34.845511;;-42.306977;;-51.131288;;-61.253479;;-72.320071;;-83.383486;;-92.468797;;-98.790244;;-103.68271;;-107.97544;;-112.14057;;-116.45781;;-120.92053;;-125.2645;;-129.20896;;-132.64423;;-135.59182;;-138.07591;;-140.10795;;-141.76157;;-143.17627;;-144.46083;;-145.63671;;-146.6823;;-147.57962;;-148.30597;;-148.81048;;-149.03505;;-149.01645;;-148.97188;;-149.17407;;-149.68941;;-150.32851;;-150.87564;;-151.2658;;-151.53955;;-151.7436;;-151.9023;;-152.00915;;-152.00915
-6.7974514;;-6.7974514;;-6.7974514;;-6.7974514;;-6.7974514;;-6.7974515;;-6.7974586;;-6.7975214;;-6.7977817;;-6.7984252;;-6.8000135;;-6.8041911;;-6.8015813;;-6.8773815;;-7.1400481;;-7.5392184;;-8.0925341;;-8.8374719;;-9.8262896;;-11.126548;;-13.07917;;-15.257357;;-18.066408;;-21.659032;;-26.18118;;-31.775386;;-38.584576;;-46.710375;;-56.153931;;-66.705655;;-77.715058;;-87.68433;;-94.993618;;-100.41745;;-104.88785;;-109.04051;;-113.3706;;-117.9799;;-122.58756;;-126.86045;;-130.63831;;-133.89438;;-136.62674;;-138.84766;;-140.63957;;-142.14707;;-143.4807;;-144.67598;;-145.75453;;-146.7445;;-147.62838;;-148.34234;;-148.84461;;-149.16726;;-149.4134;;-149.69867;;-150.06498;;-150.45931;;-150.81732;;-151.13964;;-151.45948;;-151.77104;;-152.0254;;-152.17575;;-152.17575
-6.7974514;;-6.7974514;;-6.7974514;;-6.7974514;;-6.7974514;;-6.7974514;;-6.7974515;;-6.797452;;-6.797454;;-6.7974591;;-6.7974681;;-6.7974819;;-6.7974791;;-6.8049648;;-6.9868199;;-7.3129268;;-7.7820202;;-8.4218388;;-9.2763983;;-10.404573;;-12.137599;;-14.040888;;-16.499493;;-19.654597;;-23.652514;;-28.627084;;-34.720916;;-42.052778;;-50.673165;;-60.485703;;-71.084632;;-81.459623;;-89.861024;;-96.064956;;-101.00757;;-105.41914;;-109.89157;;-114.62433;;-119.4311;;-124.03895;;-128.25284;;-131.93287;;-134.98644;;-137.41591;;-139.34398;;-140.95382;;-142.37148;;-143.63722;;-144.78911;;-145.88077;;-146.90829;;-147.81294;;-148.56173;;-149.16463;;-149.63328;;-149.9754;;-150.21434;;-150.39419;;-150.58688;;-150.88361;;-151.32059;;-151.80752;;-152.1906;;-152.388;;-152.388
-6.7974514;;-6.7974514;;-6.7974514;;-6.7974514;;-6.7974514;;-6.7974514;;-6.7974514;;-6.7974514;;-6.7974514;;-6.7974514;;-6.7974515;;-6.7974515;;-6.7974517;;-6.7976172;;-6.8658417;;-7.1235645;;-7.5168202;;-8.0623826;;-8.7967128;;-9.7706497;;-11.307152;;-12.963148;;-15.104779;;-17.860811;;-21.373502;;-25.772555;;-31.193658;;-37.764055;;-45.567414;;-54.586957;;-64.588425;;-74.903655;;-84.125758;;-91.185245;;-96.755704;;-101.60138;;-106.29915;;-111.13983;;-116.11798;;-121.07486;;-125.76125;;-129.88549;;-133.25391;;-135.87778;;-137.94183;;-139.67468;;-141.21817;;-142.61385;;-143.89446;;-145.11266;;-146.28197;;-147.3702;;-148.34226;;-149.15317;;-149.73563;;-150.05398;;-150.15428;;-150.15406;;-150.21973;;-150.51534;;-151.0773;;-151.7321;;-152.2284;;-152.46177;;-152.46177
-6.7974514;;-6.7974514;;-6.7974514;;-6.7974514;;-6.7974514;;-6.7974514;;-6.7974514;;-6.7974514;;-6.7974514;;-6.7974514;;-6.7974514;;-6.7974514;;-6.7974515;;-6.79746;;-6.8043434;;-6.9830123;;-7.307194;;-7.7740436;;-8.4105342;;-9.2598845;;-10.63885;;-12.096924;;-13.985125;;-16.421421;;-19.538556;;-23.471315;;-28.346845;;-34.296281;;-41.425804;;-49.771992;;-59.212675;;-69.303704;;-79.008055;;-86.857021;;-92.95221;;-98.099462;;-102.90848;;-107.80877;;-112.98186;;-118.32527;;-123.47498;;-127.9873;;-131.61199;;-134.40464;;-136.60889;;-138.47502;;-140.15283;;-141.69618;;-143.13291;;-144.4992;;-145.81868;;-147.08428;;-148.24198;;-149.17674;;-149.77416;;-150.02461;;-150.02938;;-149.93874;;-149.94152;;-150.23543;;-150.86604;;-151.61145;;-152.15795;;-152.39584;;-152.39584
-6.7974514;;-6.7974514;;-6.7974514;;-6.7974514;;-6.7974514;;-6.7974514;;-6.7974514;;-6.7974514;;-6.7974514;;-6.7974514;;-6.7974514;;-6.7974514;;-6.7974514;;-6.7974529;;-6.7978598;;-6.8837643;;-7.1539502;;-7.5620795;;-8.1266192;;-8.8854211;;-9.8907536;;-11.467047;;-13.177945;;-15.38846;;-18.222209;;-21.820436;;-26.307566;;-31.81497;;-38.463959;;-46.325381;;-55.347791;;-65.226376;;-75.165177;;-83.630955;;-90.012119;;-95.184852;;-99.950198;;-104.91285;;-110.35444;;-116.12233;;-121.70103;;-126.533;;-130.36196;;-133.30028;;-135.6244;;-137.58038;;-139.32881;;-140.95789;;-142.50696;;-143.99509;;-145.44196;;-146.84619;;-148.12427;;-149.11034;;-149.68701;;-149.90569;;-149.9235;;-149.88195;;-149.92482;;-150.2211;;-150.80308;;-151.43447;;-151.81678;;-151.92315;;-151.92315
-6.7974514;;-6.7974514;;-6.7974514;;-6.7974514;;-6.7974514;;-6.7974514;;-6.7974514;;-6.7974514;;-6.7974514;;-6.7974514;;-6.7974514;;-6.7974514;;-6.7974514;;-6.7974518;;-6.7975151;;-6.8253065;;-7.0528873;;-7.4175148;;-7.9317433;;-8.6289982;;-9.5572837;;-11.038954;;-12.634226;;-14.697587;;-17.342621;;-20.71293;;-24.936033;;-30.14221;;-36.462627;;-43.989233;;-52.713598;;-62.413999;;-72.439157;;-81.348534;;-87.900797;;-93.000942;;-97.741852;;-102.85433;;-108.60762;;-114.75153;;-120.66088;;-125.72524;;-129.70215;;-132.73749;;-135.11225;;-137.06422;;-138.77742;;-140.38665;;-141.95295;;-143.48489;;-144.98941;;-146.45333;;-147.77074;;-148.76401;;-149.34242;;-149.60609;;-149.74029;;-149.86243;;-150.03092;;-150.28622;;-150.54263;;-150.5589;;-150.21948;;-149.8257;;-149.8257
-6.7974514;;-6.7974514;;-6.7974514;;-6.7974514;;-6.7974514;;-6.7974514;;-6.7974514;;-6.7974514;;-6.7974514;;-6.7974514;;-6.7974514;;-6.7974514;;-6.7974514;;-6.7974515;;-6.7974636;;-6.8040105;;-6.9861025;;-7.3172615;;-7.7960623;;-8.450898;;-9.3265236;;-10.48259;;-11.994731;;-13.956437;;-16.742988;;-19.961015;;-24.002579;;-29.001883;;-35.09869;;-42.39885;;-50.921739;;-60.500323;;-70.585216;;-79.879318;;-86.71012;;-91.868736;;-96.71335;;-102.01582;;-107.98759;;-114.32482;;-120.37965;;-125.53884;;-129.56354;;-132.60046;;-134.92592;;-136.78302;;-138.38293;;-139.89375;;-141.39293;;-142.88651;;-144.36916;;-145.81109;;-147.10129;;-148.08505;;-148.70201;;-149.05666;;-149.32011;;-149.59153;;-149.8408;;-149.86292;;-149.27924;;-147.8293;;-145.84509;;-144.34943;;-144.34943
-6.7974514;;-6.7974514;;-6.7974514;;-6.7974514;;-6.7974514;;-6.7974514;;-6.7974514;;-6.7974514;;-6.7974514;;-6.7974514;;-6.7974514;;-6.7974514;;-6.7974514;;-6.7974514;;-6.797453;;-6.7991752;;-6.9412516;;-7.2495127;;-7.7047788;;-8.3318148;;-9.1734767;;-10.287634;;-11.747969;;-13.645862;;-16.092407;;-19.48508;;-23.417055;;-28.291901;;-34.259878;;-41.436951;;-49.862181;;-59.408892;;-69.607221;;-79.301759;;-86.605044;;-92.005007;;-97.011325;;-102.3997;;-108.36659;;-114.64194;;-120.62852;;-125.72873;;-129.68503;;-132.62498;;-134.82693;;-136.54921;;-138.01646;;-139.40531;;-140.80078;;-142.21218;;-143.62429;;-144.99445;;-146.22498;;-147.20127;;-147.87809;;-148.30914;;-148.60335;;-148.8607;;-149.01244;;-148.55561;;-146.66007;;-143.02286;;-138.67043;;-135.64752;;-135.64752
-6.7974514;;-6.7974514;;-6.7974514;;-6.7974514;;-6.7974514;;-6.7974514;;-6.7974514;;-6.7974514;;-6.7974514;;-6.7974514;;-6.7974514;;-6.7974514;;-6.7974514;;-6.7974514;;-6.7974516;;-6.7980654;;-6.9112839;;-7.2042916;;-7.6437178;;-8.2522125;;-9.0715814;;-10.158648;;-11.585944;;-13.690159;;-15.841727;;-18.911511;;-23.046174;;-27.849231;;-33.746983;;-40.864424;;-49.25624;;-58.828447;;-69.176971;;-79.272371;;-87.187781;;-92.969986;;-98.137372;;-103.47082;;-109.22041;;-115.2298;;-121.00066;;-125.95275;;-129.78744;;-132.60142;;-134.67827;;-136.28508;;-137.64012;;-138.91682;;-140.21041;;-141.53466;;-142.86161;;-144.14304;;-145.30963;;-146.28859;;-147.02652;;-147.48607;;-147.68172;;-147.74082;;-147.65868;;-146.73171;;-143.67784;;-138.10936;;-131.67931;;-127.32031;;-127.32031
-6.7974514;;-6.7974514;;-6.7974514;;-6.7974514;;-6.7974514;;-6.7974514;;-6.7974514;;-6.7974514;;-6.7974514;;-6.7974514;;-6.7974514;;-6.7974514;;-6.7974514;;-6.7974514;;-6.7974515;;-6.7976795;;-6.8844661;;-7.1626873;;-7.5858179;;-8.1746615;;-8.9698709;;-10.027007;;-11.662575;;-13.477288;;-15.821089;;-18.573789;;-22.630847;;-27.348995;;-33.15921;;-40.192895;;-48.52005;;-58.078441;;-68.528178;;-78.966352;;-87.553362;;-93.826305;;-99.187106;;-104.42362;;-109.87585;;-115.55339;;-121.08992;;-125.92218;;-129.68975;;-132.44321;;-134.46192;;-136.00768;;-137.28257;;-138.46271;;-139.66307;;-140.90167;;-142.13731;;-143.32787;;-144.44124;;-145.43516;;-146.22888;;-146.69323;;-146.76008;;-146.59746;;-146.35112;;-145.35264;;-142.126;;-136.14004;;-129.18406;;-124.4477;;-124.4477
-6.7974514;;-6.7974514;;-6.7974514;;-6.7974514;;-6.7974514;;-6.7974514;;-6.7974514;;-6.7974514;;-6.7974514;;-6.7974514;;-6.7974514;;-6.7974514;;-6.7974514;;-6.7974514;;-6.7974514;;-6.7975133;;-6.8526495;;-7.1105077;;-7.510614;;-8.0714082;;-8.8315718;;-9.8445075;;-11.424679;;-13.170042;;-15.426475;;-18.320936;;-21.993682;;-26.578584;;-32.236872;;-39.107264;;-47.277512;;-56.719374;;-67.160495;;-77.830383;;-87.052888;;-93.839549;;-99.399792;;-104.56279;;-109.77232;;-115.20867;;-120.6315;;-125.48068;;-129.31955;;-132.13516;;-134.18768;;-135.72978;;-136.95433;;-138.0451;;-139.13128;;-140.23473;;-141.32812;;-142.41407;;-143.50749;;-144.56229;;-145.44384;;-145.96535;;-146.03088;;-145.8378;;-145.66521;;-145.08936;;-142.84712;;-138.32001;;-132.8747;;-129.14525;;-129.14525
-6.7974514;;-6.7974514;;-6.7974514;;-6.7974514;;-6.7974514;;-6.7974514;;-6.7974514;;-6.7974514;;-6.7974514;;-6.7974514;;-6.7974514;;-6.7974514;;-6.7974514;;-6.7974514;;-6.7974514;;-6.797463;;-6.8211059;;-7.0487066;;-7.4179717;;-7.9425416;;-8.6575229;;-9.6131028;;-10.874809;;-12.525217;;-14.913732;;-17.659922;;-21.162952;;-25.560058;;-31.000128;;-37.629466;;-45.552379;;-54.773889;;-65.088444;;-75.856499;;-85.605879;;-92.833066;;-98.492813;;-103.57187;;-108.65011;;-114.03272;;-119.54091;;-124.58704;;-128.65266;;-131.65102;;-133.81312;;-135.39509;;-136.59679;;-137.59153;;-138.48037;;-139.28336;;-140.06258;;-140.97821;;-142.12997;;-143.39577;;-144.50587;;-145.23038;;-145.51327;;-145.56445;;-145.69154;;-145.73262;;-144.86716;;-142.541;;-139.46101;;-137.26514;;-137.26514
-6.7974514;;-6.7974514;;-6.7974514;;-6.7974514;;-6.7974514;;-6.7974514;;-6.7974514;;-6.7974514;;-6.7974514;;-6.7974514;;-6.7974514;;-6.7974514;;-6.7974514;;-6.7974514;;-6.7974514;;-6.7974531;;-6.8028725;;-6.9820555;;-7.3141131;;-7.7968061;;-8.4593701;;-9.3479477;;-10.524084;;-12.065935;;-14.316977;;-16.891708;;-20.188032;;-24.346626;;-29.510127;;-35.828706;;-43.419955;;-52.319898;;-62.38751;;-73.113944;;-83.260235;;-90.922518;;-96.597504;;-101.57185;;-106.62004;;-112.12251;;-117.89174;;-123.28049;;-127.68758;;-130.94923;;-133.26748;;-134.9197;;-136.12074;;-136.99492;;-137.54959;;-137.78979;;-137.97123;;-138.5853;;-139.89572;;-141.61889;;-143.21286;;-144.35068;;-145.04515;;-145.52308;;-146.03132;;-146.54151;;-146.64244;;-145.98292;;-144.81756;;-143.91204;;-143.91204
-6.7974514;;-6.7974514;;-6.7974514;;-6.7974514;;-6.7974514;;-6.7974514;;-6.7974514;;-6.7974514;;-6.7974514;;-6.7974514;;-6.7974514;;-6.7974514;;-6.7974514;;-6.7974514;;-6.7974514;;-6.7974516;;-6.7980877;;-6.9110296;;-7.202171;;-7.6382838;;-8.2418309;;-9.0545184;;-10.133202;;-11.799452;;-13.641967;;-16.019387;;-19.071107;;-22.942064;;-27.768989;;-33.701875;;-40.869328;;-49.335836;;-59.024025;;-69.557795;;-79.950307;;-88.222619;;-94.062409;;-99.032773;;-104.14301;;-109.83834;;-115.92082;;-121.69746;;-126.49232;;-130.05872;;-132.56359;;-134.30559;;-135.50599;;-136.21791;;-136.33402;;-135.84726;;-135.25665;;-135.46712;;-136.9645;;-139.29017;;-141.56353;;-143.28306;;-144.48222;;-145.40612;;-146.23732;;-146.97209;;-147.43849;;-147.50187;;-147.26899;;-147.03587;;-147.03587
-6.7974514;;-6.7974514;;-6.7974514;;-6.7974514;;-6.7974514;;-6.7974514;;-6.7974514;;-6.7974514;;-6.7974514;;-6.7974514;;-6.7974514;;-6.7974514;;-6.7974514;;-6.7974514;;-6.7974514;;-6.7974514;;-6.797498;;-6.8429229;;-7.0896072;;-7.4748069;;-8.0148906;;-8.7465303;;-9.721055;;-11.253117;;-12.925366;;-15.089105;;-17.873757;;-21.422871;;-25.871843;;-31.366276;;-38.044082;;-45.995301;;-55.201746;;-65.414216;;-75.900006;;-84.998685;;-91.448354;;-96.679813;;-101.93152;;-107.75432;;-114.02392;;-120.08061;;-125.20766;;-129.07177;;-131.78313;;-133.63174;;-134.82274;;-135.35862;;-135.09205;;-134.05833;;-132.91756;;-132.81295;;-134.38975;;-137.13132;;-139.96613;;-142.22446;;-143.86791;;-145.12398;;-146.15448;;-146.96023;;-147.46769;;-147.67514;;-147.69533;;-147.66908;;-147.66908
-6.7974514;;-6.7974514;;-6.7974514;;-6.7974514;;-6.7974514;;-6.7974514;;-6.7974514;;-6.7974514;;-6.7974514;;-6.7974514;;-6.7974514;;-6.7974514;;-6.7974514;;-6.7974514;;-6.7974514;;-6.7974514;;-6.7974573;;-6.8050864;;-6.9898954;;-7.3215985;;-7.8001329;;-8.4543923;;-9.3296693;;-10.734948;;-12.245406;;-14.204676;;-16.733944;;-19.969701;;-24.054331;;-29.126123;;-35.330241;;-42.780181;;-51.510283;;-61.383439;;-71.903318;;-81.871089;;-89.461073;;-95.244;;-100.66066;;-106.44512;;-112.64141;;-118.70089;;-123.91693;;-127.91734;;-130.79357;;-132.80938;;-134.09212;;-134.59209;;-134.23033;;-133.1638;;-132.0558;;-131.9406;;-133.43046;;-136.13153;;-139.07928;;-141.55996;;-143.41213;;-144.7988;;-145.89136;;-146.71585;;-147.22449;;-147.44642;;-147.5043;;-147.5134;;-147.5134
-6.7974514;;-6.7974514;;-6.7974514;;-6.7974514;;-6.7974514;;-6.7974514;;-6.7974514;;-6.7974514;;-6.7974514;;-6.7974514;;-6.7974514;;-6.7974514;;-6.7974514;;-6.7974514;;-6.7974514;;-6.7974514;;-6.7974542;;-6.7984338;;-6.9090229;;-7.1949148;;-7.6222313;;-8.2124662;;-9.0062644;;-10.059284;;-11.687108;;-13.482536;;-15.807171;;-18.791843;;-22.586965;;-27.331026;;-33.17307;;-40.247764;;-48.633832;;-58.283151;;-68.879647;;-79.566324;;-88.541715;;-95.052323;;-100.60235;;-106.20334;;-112.06886;;-117.72671;;-122.50671;;-126.17172;;-129.03337;;-131.39762;;-133.15275;;-134.02961;;-134.01582;;-133.44698;;-132.90988;;-133.09616;;-134.42853;;-136.71593;;-139.31155;;-141.60373;;-143.34538;;-144.63149;;-145.65125;;-146.46712;;-147.02537;;-147.30947;;-147.40253;;-147.41924;;-147.41924
-6.7974514;;-6.7974514;;-6.7974514;;-6.7974514;;-6.7974514;;-6.7974514;;-6.7974514;;-6.7974514;;-6.7974514;;-6.7974514;;-6.7974514;;-6.7974514;;-6.7974514;;-6.7974514;;-6.7974514;;-6.7974514;;-6.797453;;-6.7977199;;-6.853058;;-7.1045268;;-7.4936071;;-8.0374979;;-8.7737494;;-9.7548365;;-11.292592;;-12.977742;;-15.166583;;-17.986982;;-21.591219;;-26.131231;;-31.755582;;-38.615236;;-46.821249;;-56.384408;;-67.099355;;-78.312137;;-88.480139;;-95.786702;;-101.47956;;-106.91049;;-112.33167;;-117.17879;;-120.81503;;-123.4388;;-126.00832;;-129.00518;;-131.8284;;-133.65498;;-134.3822;;-134.53575;;-134.69904;;-135.28514;;-136.52512;;-138.36729;;-140.45151;;-142.3239;;-143.73975;;-144.76853;;-145.61632;;-146.37905;;-146.99374;;-147.37292;;-147.52885;;-147.5632;;-147.5632
-6.7974514;;-6.7974514;;-6.7974514;;-6.7974514;;-6.7974514;;-6.7974514;;-6.7974514;;-6.7974514;;-6.7974514;;-6.7974514;;-6.7974514;;-6.7974514;;-6.7974514;;-6.7974514;;-6.7974514;;-6.7974514;;-6.797452;;-6.7975423;;-6.821715;;-7.0434307;;-7.4036418;;-7.914781;;-8.6114416;;-9.5437814;;-11.020392;;-12.632512;;-14.73267;;-17.446732;;-20.926179;;-25.3351;;-30.823346;;-37.550805;;-45.649191;;-55.165885;;-65.96415;;-77.522386;;-88.531431;;-96.692456;;-102.67694;;-108.11995;;-113.18001;;-117.04799;;-119.11215;;-120.24738;;-122.35101;;-126.13289;;-130.35621;;-133.42437;;-134.98896;;-135.74885;;-136.41436;;-137.31772;;-138.57388;;-140.15553;;-141.84578;;-143.32687;;-144.4155;;-145.18814;;-145.85449;;-146.53238;;-147.16432;;-147.61719;;-147.83816;;-147.89985;;-147.89985
-6.7974514;;-6.7974514;;-6.7974514;;-6.7974514;;-6.7974514;;-6.7974514;;-6.7974514;;-6.7974514;;-6.7974514;;-6.7974514;;-6.7974514;;-6.7974514;;-6.7974514;;-6.7974515;;-6.7974517;;-6.7974529;;-6.7974565;;-6.7974881;;-6.8063206;;-6.9938468;;-7.327594;;-7.8096316;;-8.4708032;;-9.5975654;;-10.776181;;-12.322035;;-14.33923;;-16.95092;;-20.306581;;-24.576248;;-29.912771;;-36.478609;;-44.418945;;-53.807838;;-64.561786;;-76.266604;;-87.818764;;-96.915963;;-103.44176;;-109.16054;;-114.14613;;-117.36644;;-118.245;;-118.23749;;-119.96753;;-124.28118;;-129.46418;;-133.35842;;-135.4072;;-136.44701;;-137.3711;;-138.52687;;-139.91614;;-141.43732;;-142.92713;;-144.18416;;-145.09533;;-145.73643;;-146.29739;;-146.90411;;-147.51867;;-147.99987;;-148.25877;;-148.34016;;-148.34016
-6.7974514;;-6.7974514;;-6.7974514;;-6.7974514;;-6.7974514;;-6.7974514;;-6.7974514;;-6.7974514;;-6.7974514;;-6.7974514;;-6.7974514;;-6.7974514;;-6.7974515;;-6.7974557;;-6.7974895;;-6.797623;;-6.7979401;;-6.7984372;;-6.8014369;;-6.9440112;;-7.2482956;;-7.6972001;;-8.316761;;-9.3889997;;-10.498759;;-11.959728;;-13.869221;;-16.345764;;-19.533386;;-23.601677;;-28.707208;;-35.009386;;-42.661242;;-51.758287;;-62.264033;;-73.86257;;-85.65198;;-95.61477;;-102.84994;;-109.1006;;-114.51158;;-117.95491;;-118.84726;;-118.76673;;-120.41964;;-124.64675;;-129.72156;;-133.47051;;-135.33143;;-136.25022;;-137.29138;;-138.78173;;-140.48771;;-142.13002;;-143.58491;;-144.7832;;-145.67275;;-146.30737;;-146.84403;;-147.40803;;-147.98319;;-148.44241;;-148.6921;;-148.76897;;-148.76897
-6.7974514;;-6.7974514;;-6.7974514;;-6.7974514;;-6.7974514;;-6.7974514;;-6.7974514;;-6.7974514;;-6.7974514;;-6.7974514;;-6.7974514;;-6.7974514;;-6.7974542;;-6.7975105;;-6.7979097;;-6.7994005;;-6.8028465;;-6.8085501;;-6.8193623;;-6.9011538;;-7.1683103;;-7.5760415;;-8.1444059;;-9.1499787;;-10.175958;;-11.529214;;-13.300869;;-15.602633;;-18.570347;;-22.366202;;-27.150343;;-33.074238;;-40.292577;;-48.915395;;-58.944355;;-70.147848;;-81.808058;;-92.268328;;-100.09449;;-107.00357;;-113.44565;;-118.2139;;-120.44695;;-121.32479;;-123.14937;;-126.76177;;-130.87683;;-133.7441;;-134.92569;;-135.44686;;-136.53395;;-138.45817;;-140.64455;;-142.54658;;-144.07126;;-145.29829;;-146.23549;;-146.9098;;-147.44539;;-147.96029;;-148.45551;;-148.83464;;-149.02994;;-149.08392;;-149.08392
-6.7974514;;-6.7974514;;-6.7974514;;-6.7974514;;-6.7974514;;-6.7974514;;-6.7974514;;-6.7974514;;-6.7974514;;-6.7974514;;-6.7974514;;-6.7974517;;-6.7974756;;-6.7978403;;-6.8001474;;-6.8083147;;-6.8277165;;-6.869856;;-6.9341858;;-6.9836499;;-7.1355743;;-7.475233;;-8.2055266;;-8.9032581;;-9.8357712;;-11.06921;;-12.687373;;-14.792948;;-17.512364;;-20.998005;;-25.410031;;-30.890632;;-37.589989;;-45.625975;;-55.027278;;-65.627216;;-76.856768;;-87.363209;;-95.453347;;-102.9497;;-110.80867;;-117.64366;;-121.96363;;-124.17801;;-126.17642;;-129.04649;;-132.17861;;-134.29388;;-134.96649;;-135.16965;;-136.24426;;-138.45828;;-140.99234;;-143.08382;;-144.64751;;-145.87968;;-146.8449;;-147.54858;;-148.0708;;-148.5038;;-148.86571;;-149.11884;;-149.24727;;-149.28745;;-149.28745
-6.7974514;;-6.7974514;;-6.7974514;;-6.7974514;;-6.7974514;;-6.7974514;;-6.7974514;;-6.7974514;;-6.7974514;;-6.7974514;;-6.797453;;-6.7974674;;-6.7976327;;-6.799214;;-6.8078783;;-6.8373778;;-6.9071876;;-7.0175197;;-7.1300798;;-7.1980597;;-7.2608128;;-7.6878025;;-8.0993016;;-8.7051361;;-9.5370282;;-10.649905;;-12.118773;;-14.036767;;-16.520531;;-19.711999;;-23.770785;;-28.833165;;-35.041009;;-42.517701;;-51.313225;;-61.314265;;-72.074124;;-82.485967;;-90.745221;;-98.692322;;-107.83858;;-116.63698;;-122.91743;;-126.22301;;-128.22667;;-130.53274;;-133.2377;;-135.34032;;-136.19912;;-136.5004;;-137.52002;;-139.60658;;-142.00355;;-143.95347;;-145.37467;;-146.50185;;-147.43267;;-148.14914;;-148.66117;;-149.0083;;-149.22751;;-149.35994;;-149.44735;;-149.49842;;-149.49842
-6.7974514;;-6.7974514;;-6.7974514;;-6.7974514;;-6.7974514;;-6.7974514;;-6.7974514;;-6.7974514;;-6.7974514;;-6.7974516;;-6.7974686;;-6.7976217;;-6.7985669;;-6.8040439;;-6.8297096;;-6.9112486;;-7.051564;;-7.2236132;;-7.384376;;-7.6936404;;-7.7473058;;-7.8978879;;-8.1845847;;-8.6439682;;-9.3477971;;-10.335788;;-11.668304;;-13.426939;;-15.718346;;-18.675009;;-22.451983;;-27.194137;;-33.033048;;-40.100439;;-48.470456;;-58.086344;;-68.62224;;-79.206526;;-88.106026;;-96.478941;;-106.31648;;-116.19053;;-123.6497;;-127.62318;;-129.59137;;-131.61092;;-134.33491;;-136.92351;;-138.46793;;-139.21948;;-140.17342;;-141.76599;;-143.56466;;-145.04423;;-146.14604;;-147.07264;;-147.92255;;-148.64703;;-149.17267;;-149.47739;;-149.61017;;-149.6692;;-149.73009;;-149.78423;;-149.78423
-6.7974514;;-6.7974514;;-6.7974514;;-6.7974514;;-6.7974514;;-6.7974514;;-6.7974514;;-6.7974514;;-6.7974514;;-6.7974521;;-6.7975425;;-6.7983542;;-6.8023736;;-6.819365;;-6.890633;;-7.0409349;;-7.2432988;;-7.4723273;;-7.90018;;-8.0210549;;-8.0809733;;-8.2198597;;-8.4802929;;-8.8343805;;-9.321021;;-10.142121;;-11.334926;;-12.954778;;-15.092305;;-17.869399;;-21.434486;;-25.948274;;-31.539478;;-38.348606;;-46.480275;;-55.939592;;-66.524298;;-77.602528;;-87.785694;;-96.743462;;-106.60454;;-116.5376;;-124.35726;;-128.83379;;-131.0786;;-133.1279;;-135.90075;;-138.78899;;-140.85254;;-142.01046;;-142.8917;;-143.93651;;-145.06043;;-146.0279;;-146.81544;;-147.56585;;-148.35256;;-149.09168;;-149.64233;;-149.93824;;-150.02659;;-150.01408;;-149.98739;;-149.97624;;-149.97624
-6.7974514;;-6.7974514;;-6.7974514;;-6.7974514;;-6.7974514;;-6.7974514;;-6.7974514;;-6.7974514;;-6.7974514;;-6.7974539;;-6.797756;;-6.8004931;;-6.8131931;;-6.8640035;;-7.0021152;;-7.2077972;;-7.4629312;;-7.9580424;;-8.2135389;;-8.3595251;;-8.4266878;;-8.5582971;;-8.7937152;;-9.0934091;;-9.4300814;;-9.9900053;;-11.021472;;-12.498212;;-14.483594;;-17.086206;;-20.446292;;-24.728916;;-30.080268;;-36.639731;;-44.541711;;-53.849234;;-64.472064;;-75.999436;;-87.427062;;-97.347651;;-106.93158;;-116.41256;;-124.29422;;-129.48416;;-132.55697;;-135.03195;;-137.77603;;-140.50505;;-142.57044;;-143.82275;;-144.61352;;-145.30526;;-146.00991;;-146.68736;;-147.34192;;-148.05645;;-148.85407;;-149.61101;;-150.15045;;-150.38803;;-150.36344;;-150.17681;;-149.94346;;-149.7856;;-149.7856
-6.7974514;;-6.7974514;;-6.7974514;;-6.7974514;;-6.7974514;;-6.7974514;;-6.7974514;;-6.7974514;;-6.7974515;;-6.7974611;;-6.7982097;;-6.8050025;;-6.838878;;-6.9511895;;-7.140736;;-7.3889418;;-7.9004979;;-8.2134149;;-8.4933035;;-8.6536713;;-8.7263671;;-8.8374527;;-9.0154939;;-9.2243671;;-9.4532024;;-9.7948997;;-10.632554;;-11.935461;;-13.730353;;-16.106437;;-19.191609;;-23.143189;;-28.125635;;-34.273719;;-41.738122;;-50.627245;;-60.938738;;-72.431291;;-84.386971;;-95.328033;;-104.86429;;-113.96462;;-122.01462;;-128.18582;;-132.58921;;-136.01927;;-139.02567;;-141.57734;;-143.43706;;-144.60308;;-145.32648;;-145.89614;;-146.48008;;-147.12115;;-147.83476;;-148.64678;;-149.51028;;-150.25752;;-150.69934;;-150.75704;;-150.48626;;-150.02113;;-149.54281;;-149.24428;;-149.24428
-6.7974514;;-6.7974514;;-6.7974514;;-6.7974514;;-6.7974514;;-6.7974514;;-6.7974514;;-6.7974514;;-6.7974543;;-6.7975218;;-6.7992332;;-6.8147189;;-6.8993992;;-7.0711078;;-7.3041872;;-7.5859725;;-8.1149767;;-8.4230051;;-8.6728029;;-8.8116131;;-8.8829899;;-8.9635416;;-9.0685239;;-9.1786646;;-9.3176391;;-9.5547364;;-10.162242;;-11.262624;;-12.823889;;-14.912182;;-17.637999;;-21.142524;;-25.590461;;-31.115708;;-37.863864;;-45.967806;;-55.482835;;-66.290505;;-77.919909;;-89.278967;;-99.101403;;-108.0499;;-116.30833;;-123.46342;;-129.45677;;-134.47591;;-138.55768;;-141.59949;;-143.61903;;-144.84594;;-145.61229;;-146.21593;;-146.83595;;-147.53824;;-148.34496;;-149.2529;;-150.16522;;-150.87105;;-151.16113;;-150.97614;;-150.43796;;-149.76866;;-149.20148;;-148.89459;;-148.89459
-6.7974514;;-6.7974514;;-6.7974514;;-6.7974514;;-6.7974514;;-6.7974514;;-6.7974514;;-6.7974516;;-6.797476;;-6.7978608;;-6.8023896;;-6.8498872;;-7.0026391;;-7.2246637;;-7.5008728;;-8.0282202;;-8.3409087;;-8.5960963;;-8.7545008;;-8.8395043;;-8.8890226;;-8.933809;;-8.9753632;;-9.0129262;;-9.0926522;;-9.2876702;;-9.6969131;;-10.573263;;-11.87691;;-13.649717;;-15.979758;;-18.987196;;-22.817799;;-27.606;;-33.477895;;-40.570536;;-48.968837;;-58.634415;;-69.279228;;-80.1684;;-90.104171;;-99.002919;;-107.37998;;-115.34054;;-122.96726;;-130.08222;;-136.11467;;-140.54654;;-143.35935;;-144.98129;;-145.94399;;-146.63941;;-147.26661;;-147.90649;;-148.62623;;-149.48083;;-150.40026;;-151.12945;;-151.38228;;-151.09363;;-150.48152;;-149.86628;;-149.46625;;-149.30706;;-149.30706
-6.7974514;;-6.7974514;;-6.7974514;;-6.7974514;;-6.7974514;;-6.7974515;;-6.7974519;;-6.7974558;;-6.7975779;;-6.7990678;;-6.8157233;;-6.9334414;;-7.1379379;;-7.4059908;;-7.7231936;;-8.2815886;;-8.5890368;;-8.750229;;-8.7861225;;-8.7933907;;-8.804389;;-8.8175776;;-8.8203859;;-8.8198103;;-8.8706771;;-9.0444459;;-9.3543321;;-9.9569546;;-10.992396;;-12.451047;;-14.391904;;-16.910572;;-20.128934;;-24.17447;;-29.152954;;-35.193028;;-42.392293;;-50.76219;;-60.1404;;-70.056295;;-79.656957;;-88.520997;;-97.080775;;-105.84203;;-115.06307;;-124.36017;;-132.66791;;-138.95687;;-142.97318;;-145.2402;;-146.48589;;-147.21769;;-147.67406;;-147.98947;;-148.35513;;-148.99302;;-149.93592;;-150.87445;;-151.36934;;-151.27793;;-150.87503;;-150.54103;;-150.43643;;-150.464;;-150.464
-6.7974514;;-6.7974514;;-6.7974514;;-6.7974514;;-6.7974515;;-6.7974573;;-6.7975056;;-6.7977097;;-6.7985485;;-6.8036898;;-6.8641462;;-7.0391009;;-7.286918;;-7.5961623;;-8.1679139;;-8.5334859;;-8.8292823;;-8.8879965;;-8.810872;;-8.7395354;;-8.7116932;;-8.7090563;;-8.7048303;;-8.6995706;;-8.7391351;;-8.885433;;-9.1466094;;-9.5171937;;-10.253879;;-11.402929;;-12.979201;;-15.048242;;-17.70493;;-21.063901;;-25.219919;;-30.284187;;-36.360868;;-43.496857;;-51.626007;;-60.488962;;-69.606011;;-78.678363;;-87.973768;;-97.932452;;-108.71945;;-119.77442;;-129.86844;;-137.72006;;-142.84404;;-145.72757;;-147.18464;;-147.81099;;-147.92371;;-147.77221;;-147.71109;;-148.13199;;-149.15917;;-150.43002;;-151.35031;;-151.65562;;-151.59583;;-151.55666;;-151.66387;;-151.79276;;-151.79276
-6.7974514;;-6.7974514;;-6.7974515;;-6.7974527;;-6.7974628;;-6.7975533;;-6.7981088;;-6.8002117;;-6.8071972;;-6.8308683;;-6.9327765;;-7.1361739;;-7.4108891;;-7.7468109;;-8.3415642;;-8.7163688;;-8.9833581;;-8.9760691;;-8.8468074;;-8.7355701;;-8.6903399;;-8.6936709;;-8.7106558;;-8.7266491;;-8.7640677;;-8.8689768;;-9.0678514;;-9.3514039;;-9.7570247;;-10.59184;;-11.842162;;-13.530655;;-15.722935;;-18.511111;;-21.994682;;-26.266914;;-31.439993;;-37.597287;;-44.762373;;-52.870331;;-61.794856;;-71.555622;;-82.298891;;-93.919606;;-106.06074;;-118.07895;;-128.9436;;-137.49997;;-143.18547;;-146.36165;;-147.81974;;-148.23762;;-148.06589;;-147.67589;;-147.47823;;-147.86826;;-148.96346;;-150.40025;;-151.56592;;-152.13991;;-152.30511;;-152.40644;;-152.56901;;-152.705;;-152.705
-6.7974515;;-6.7974515;;-6.7974565;;-6.797514;;-6.7978142;;-6.7989726;;-6.8031885;;-6.8238226;;-6.8926611;;-6.9612633;;-7.0388393;;-7.2118403;;-7.4740125;;-7.8017943;;-8.3851879;;-8.7352938;;-8.963576;;-8.977897;;-8.885336;;-8.7999246;;-8.7735435;;-8.8008099;;-8.849559;;-8.8942811;;-8.937325;;-9.0104919;;-9.1508465;;-9.3751295;;-9.6694796;;-10.103368;;-11.053033;;-12.443068;;-14.295282;;-16.67849;;-19.695492;;-23.452102;;-28.073619;;-33.705318;;-40.497299;;-48.608637;;-58.181875;;-69.247476;;-81.565235;;-94.554277;;-107.4;;-119.37469;;-129.88036;;-138.15314;;-143.68596;;-146.72473;;-148.02664;;-148.36206;;-148.2951;;-148.19467;;-148.31399;;-148.84808;;-149.83517;;-151.01257;;-151.94699;;-152.41303;;-152.56347;;-152.67593;;-152.84579;;-152.98536;;-152.98536
-6.7974518;;-6.7974518;;-6.7975015;;-6.7980266;;-6.8006061;;-6.8092533;;-6.8465153;;-6.9535102;;-7.0830067;;-7.1794707;;-7.2446637;;-7.3570099;;-7.5465335;;-8.0265709;;-8.3279563;;-8.6113912;;-8.8191431;;-8.9162112;;-8.9290933;;-8.9186464;;-8.9350265;;-8.9908404;;-9.0679914;;-9.1392099;;-9.1933436;;-9.2496398;;-9.3481959;;-9.5196356;;-9.755574;;-10.036199;;-10.80903;;-12.096611;;-13.873167;;-16.203792;;-19.20566;;-23.036833;;-27.868618;;-33.864376;;-41.205395;;-50.044261;;-60.463942;;-72.400532;;-85.513063;;-98.998936;;-111.55275;;-122.40734;;-131.59278;;-138.76566;;-143.55573;;-146.22764;;-147.53237;;-148.22197;;-148.78277;;-149.38945;;-150.02325;;-150.65495;;-151.2749;;-151.79098;;-152.05675;;-152.07337;;-152.05966;;-152.22115;;-152.52776;;-152.7719;;-152.7719
-6.7974535;;-6.7974535;;-6.7976874;;-6.8001007;;-6.8121098;;-6.8616614;;-6.9890546;;-7.1640551;;-7.3444291;;-7.465811;;-7.5212917;;-7.8101959;;-7.7183443;;-8.0910623;;-8.2728772;;-8.4802614;;-8.6931278;;-8.8756927;;-8.9981356;;-9.0681;;-9.1270329;;-9.2040762;;-9.2988157;;-9.3885341;;-9.4528125;;-9.5003385;;-9.5696816;;-9.6926148;;-9.8612692;;-10.298787;;-11.355542;;-12.884825;;-14.922891;;-17.56659;;-20.955594;;-25.266005;;-30.670312;;-37.351664;;-45.490186;;-55.218105;;-66.566179;;-79.35344;;-92.996452;;-106.21048;;-117.19505;;-125.8673;;-132.96305;;-138.46598;;-142.28517;;-144.79332;;-146.60048;;-148.15418;;-149.60732;;-150.87696;;-151.79855;;-152.28277;;-152.34472;;-152.03684;;-151.47194;;-150.93163;;-150.78789;;-151.18226;;-151.85063;;-152.34055;;-152.34055
-6.7974637;;-6.7974637;;-6.798197;;-6.8057643;;-6.8562216;;-6.9975706;;-7.1989569;;-7.4363565;;-7.668477;;-7.8117945;;-8.0605829;;-8.0918503;;-8.1435454;;-8.2051102;;-8.3022394;;-8.4661628;;-8.6876397;;-8.9178934;;-9.1019283;;-9.2219286;;-9.3035591;;-9.3831964;;-9.4786494;;-9.576119;;-9.6481016;;-9.6934353;;-9.7462798;;-9.8311522;;-10.075963;;-10.976209;;-12.350481;;-14.21406;;-16.6489;;-19.780138;;-23.771073;;-28.79932;;-35.047872;;-42.71074;;-51.951568;;-62.85605;;-75.346987;;-89.020745;;-102.83697;;-114.62822;;-122.88375;;-128.83707;;-133.52341;;-137.29756;;-140.44829;;-143.32666;;-146.09734;;-148.64575;;-150.74532;;-152.22992;;-153.02843;;-153.14366;;-152.62119;;-151.57339;;-150.29196;;-149.31607;;-149.1897;;-149.97997;;-151.13926;;-151.93912;;-151.93912
-6.7975246;;-6.7975246;;-6.7995639;;-6.8332576;;-6.9765227;;-7.1914988;;-7.4610851;;-7.7579071;;-8.039032;;-8.4118265;;-8.3970934;;-8.3406534;;-8.2899528;;-8.296942;;-8.3895421;;-8.5647359;;-8.7942294;;-9.030617;;-9.2272258;;-9.3608059;;-9.4408448;;-9.5022205;;-9.5803983;;-9.6775563;;-9.776994;;-9.9177962;;-10.108918;;-10.288318;;-10.827056;;-12.015471;;-13.723768;;-15.996904;;-18.941629;;-22.707523;;-27.472936;;-33.409581;;-40.717865;;-49.581628;;-60.12866;;-72.355771;;-85.970285;;-100.13635;;-112.97238;;-121.85516;;-127.22033;;-130.78481;;-133.58759;;-136.33139;;-139.50221;;-143.15045;;-146.81214;;-149.88477;;-152.0324;;-153.25013;;-153.67746;;-153.40316;;-152.44468;;-150.90565;;-149.18857;;-148.01273;;-148.01613;;-149.16632;;-150.69746;;-151.71143;;-151.71143
-6.797782;;-6.797782;;-6.8096061;;-6.9320232;;-7.1433014;;-7.4206032;;-7.7505436;;-8.1047588;;-8.6523378;;-8.7948839;;-8.6791795;;-8.4737626;;-8.3236413;;-8.3283019;;-8.4797476;;-8.7055316;;-8.9479894;;-9.1707177;;-9.3527339;;-9.4783786;;-9.5483093;;-9.623064;;-9.7763684;;-10.028358;;-10.369425;;-10.736237;;-11.061997;;-11.320528;;-11.9498;;-13.391115;;-15.469767;;-18.231978;;-21.799467;;-26.34269;;-32.033067;;-39.050146;;-47.587729;;-57.787076;;-69.679026;;-83.065628;;-97.277488;;-110.7188;;-120.51812;;-126.14003;;-129.4827;;-131.83318;;-134.07337;;-136.89938;;-140.60569;;-144.81284;;-148.67872;;-151.52001;;-153.18933;;-153.93112;;-154.01524;;-153.51748;;-152.38132;;-150.68097;;-148.86454;;-147.69942;;-147.79592;;-149.03907;;-150.61243;;-151.63257;;-151.63257
-6.7992107;;-6.7992107;;-6.8701968;;-7.0606854;;-7.3270964;;-7.6596752;;-8.041332;;-8.6653701;;-9.0219869;;-9.0795289;;-8.8293087;;-8.5284015;;-8.329222;;-8.3670481;;-8.5842648;;-8.8580918;;-9.1065639;;-9.304824;;-9.4618928;;-9.6217232;;-9.9403673;;-10.278704;;-10.581951;;-10.960967;;-11.455695;;-11.988703;;-12.446628;;-12.794378;;-13.432667;;-15.107797;;-17.596636;;-20.920485;;-25.208761;;-30.646662;;-37.384596;;-45.604356;;-55.462621;;-67.012988;;-80.103947;;-94.166102;;-107.78036;;-118.09856;;-124.00122;;-127.61506;;-130.38795;;-133.03165;;-135.98438;;-139.53174;;-143.59839;;-147.62574;;-150.87641;;-152.95512;;-153.98601;;-154.33448;;-154.24987;;-153.73719;;-152.68544;;-151.13841;;-149.49895;;-148.4381;;-148.46091;;-149.45185;;-150.72654;;-151.55775;;-151.55775
-6.8165746;;-6.8165746;;-6.96679;;-7.2057576;;-7.5179701;;-7.8968871;;-8.3199732;;-8.9762591;;-9.3165676;;-9.2309525;;-8.9243087;;-8.6093799;;-8.4259625;;-8.5095053;;-8.7543073;;-9.0344298;;-9.2613381;;-9.4354681;;-9.7678811;;-10.295721;;-10.859395;;-11.367653;;-11.796335;;-12.306706;;-12.965283;;-13.674978;;-14.282447;;-14.738897;;-15.364843;;-17.190459;;-20.101686;;-24.044359;;-29.136134;;-35.565831;;-43.446537;;-52.940889;;-64.131357;;-76.911344;;-90.794564;;-104.50744;;-115.28392;;-121.35129;;-125.00274;;-128.21321;;-131.75571;;-135.62279;;-139.6218;;-143.58901;;-147.29029;;-150.38112;;-152.56705;;-153.81695;;-154.37179;;-154.52824;;-154.43287;;-154.04427;;-153.24796;;-152.05135;;-150.73167;;-149.77571;;-149.57504;;-150.09775;;-150.89218;;-151.4396;;-151.4396
-6.8938701;;-6.8938701;;-7.0891496;;-7.3734788;;-7.7340807;;-8.1590373;;-8.8499593;;-9.3162177;;-9.6139827;;-9.4055222;;-9.0650228;;-8.7717655;;-8.6447985;;-8.7614259;;-9.0011507;;-9.2461137;;-9.4650775;;-9.9317493;;-10.597167;;-11.379301;;-12.172735;;-12.859061;;-13.421832;;-14.081096;;-14.932486;;-15.851676;;-16.63928;;-17.232165;;-17.893552;;-19.713474;;-23.010587;;-27.593346;;-33.534401;;-41.006387;;-50.060969;;-60.80482;;-73.190826;;-86.838671;;-100.68359;;-112.29113;;-119.19851;;-123.07941;;-126.28941;;-130.20711;;-134.93764;;-139.82641;;-144.21644;;-147.76952;;-150.42259;;-152.25917;;-153.4266;;-154.0962;;-154.43586;;-154.57056;;-154.54617;;-154.32609;;-153.83128;;-153.03397;;-152.06292;;-151.21093;;-150.7781;;-150.83473;;-151.16097;;-151.43166;;-151.43166
-6.9977345;;-6.9977345;;-7.220146;;-7.5417467;;-7.9472483;;-8.4199016;;-9.1627622;;-9.6683811;;-9.9374178;;-9.6442954;;-9.2661227;;-8.9922923;;-8.9295014;;-9.0666567;;-9.2835808;;-9.5329779;;-10.073392;;-10.850997;;-11.799283;;-12.849042;;-13.899378;;-14.794364;;-15.513383;;-16.348642;;-17.432176;;-18.605576;;-19.614112;;-20.37942;;-21.155059;;-22.870693;;-26.38829;;-31.543796;;-38.301601;;-46.778431;;-56.932606;;-68.748607;;-81.965901;;-95.764293;;-108.22119;;-116.748;;-121.97916;;-125.78557;;-129.71332;;-134.47718;;-139.73758;;-144.62143;;-148.43325;;-150.96064;;-152.40237;;-153.16274;;-153.62579;;-153.99923;;-154.31001;;-154.5128;;-154.58088;;-154.50783;;-154.2649;;-153.81014;;-153.16022;;-152.45579;;-151.91493;;-151.66762;;-151.65875;;-151.71952;;-151.71952
-7.0860752;;-7.0860752;;-7.3285963;;-7.6789595;;-8.1202271;;-8.6329764;;-9.4204986;;-9.9636619;;-10.223732;;-9.8775324;;-9.4654399;;-9.2017866;;-9.1921507;;-9.3471299;;-9.5981234;;-10.183221;;-11.042887;;-12.123978;;-13.378939;;-14.744339;;-16.102049;;-17.247948;;-18.152411;;-19.190906;;-20.53834;;-22.005498;;-23.276149;;-24.257401;;-25.265576;;-26.987444;;-30.464201;;-35.932807;;-43.315704;;-52.604586;;-63.629305;;-76.137459;;-89.547547;;-102.44971;;-112.52667;;-119.66814;;-125.19701;;-130.09917;;-135.01894;;-140.04419;;-144.75691;;-148.61533;;-151.29245;;-152.78118;;-153.35592;;-153.4656;;-153.53913;;-153.77828;;-154.12204;;-154.40972;;-154.55949;;-154.58617;;-154.50844;;-154.2976;;-153.91974;;-153.41841;;-152.92862;;-152.57601;;-152.39159;;-152.32306;;-152.32306
-7.1552528;;-7.1552528;;-7.4119031;;-7.7823786;;-8.2483617;;-8.7881797;;-9.6041422;;-10.166957;;-10.397019;;-10.024274;;-9.6036202;;-9.3616858;;-9.3914935;;-9.6239995;;-10.245993;;-11.166148;;-12.347996;;-13.766116;;-15.384593;;-17.133088;;-18.856513;;-20.288111;;-21.39839;;-22.660568;;-24.309462;;-26.120695;;-27.706274;;-28.958924;;-30.265502;;-32.277292;;-35.755162;;-41.148283;;-48.644169;;-58.231819;;-69.610898;;-82.109857;;-94.770968;;-105.92276;;-114.77376;;-122.10335;;-128.67549;;-134.82409;;-140.40426;;-145.05063;;-148.56711;;-151.04743;;-152.66753;;-153.5224;;-153.73042;;-153.585;;-153.47351;;-153.62213;;-153.97065;;-154.31251;;-154.5205;;-154.60539;;-154.61558;;-154.55213;;-154.3792;;-154.09361;;-153.75571;;-153.4454;;-153.21659;;-153.0919;;-153.0919
-7.2194915;;-7.2194915;;-7.4872866;;-7.8731141;;-8.3568296;;-8.9133321;;-9.7422864;;-10.300324;;-10.44556;;-10.072424;;-9.6842471;;-9.4953684;;-9.630797;;-10.257729;;-11.215177;;-12.466778;;-14.010788;;-15.822599;;-17.868425;;-20.064375;;-22.213331;;-23.976868;;-25.321528;;-26.829927;;-28.810852;;-31.008035;;-32.960097;;-34.549755;;-36.243019;;-38.763179;;-42.600161;;-48.033862;;-55.175623;;-64.158809;;-74.729514;;-85.929691;;-96.933574;;-107.08856;;-115.9876;;-123.78441;;-131.09928;;-138.07492;;-144.02636;;-148.21951;;-150.69385;;-152.13396;;-153.11344;;-153.73335;;-153.90487;;-153.73633;;-153.55154;;-153.61076;;-153.90837;;-154.25286;;-154.49131;;-154.60904;;-154.65855;;-154.6671;;-154.61964;;-154.50271;;-154.32847;;-154.12718;;-153.94057;;-153.81923;;-153.81923
-7.2799831;;-7.2799831;;-7.5572073;;-7.9556152;;-8.4528801;;-9.0194548;;-9.8508332;;-10.387868;;-10.434778;;-10.084763;;-9.7638661;;-9.6888993;;-10.23967;;-11.194656;;-12.48135;;-14.104478;;-16.052631;;-18.316982;;-20.868035;;-23.594739;;-26.240732;;-28.379348;;-29.976299;;-31.732637;;-34.048036;;-36.647307;;-39.007668;;-41.013437;;-43.205592;;-46.363867;;-50.911069;;-56.780691;;-63.71465;;-71.443971;;-79.611665;;-88.451338;;-98.246619;;-108.13163;;-116.81971;;-124.12802;;-131.23853;;-138.62304;;-145.13914;;-149.48524;;-151.64367;;-152.6386;;-153.32543;;-153.85823;;-154.06676;;-153.9502;;-153.75465;;-153.73375;;-153.93892;;-154.2357;;-154.47543;;-154.61099;;-154.67725;;-154.71192;;-154.72179;;-154.70032;;-154.64102;;-154.54538;;-154.43406;;-154.35064;;-154.35064
-7.3399786;;-7.3399786;;-7.6267578;;-8.0380109;;-8.5492777;;-9.1266036;;-9.9607514;;-10.475313;;-10.455427;;-10.135314;;-9.8848225;;-10.215675;;-11.11775;;-12.397267;;-14.045059;;-16.076505;;-18.487172;;-21.286983;;-24.429734;;-27.767414;;-30.969313;;-33.506556;;-35.348748;;-37.314005;;-39.906837;;-42.865701;;-45.651715;;-48.179065;;-51.030801;;-54.973285;;-60.337618;;-66.839493;;-73.696245;;-79.963146;;-85.800874;;-92.996646;;-102.02286;;-111.18559;;-118.38106;;-123.6806;;-129.54096;;-137.00209;;-144.4136;;-149.6179;;-152.15166;;-153.13524;;-153.66856;;-154.07319;;-154.25174;;-154.17704;;-154.00339;;-153.92578;;-154.02772;;-154.24784;;-154.46547;;-154.60795;;-154.68216;;-154.72396;;-154.75245;;-154.77014;;-154.76823;;-154.73994;;-154.69144;;-154.64752;;-154.64752
-7.4378872;;-7.4378872;;-7.7414996;;-8.175997;;-8.7140595;;-9.5433945;;-10.167252;;-10.66144;;-10.570827;;-10.247002;;-10.20348;;-10.995558;;-12.223522;;-13.847996;;-15.89592;;-18.384316;;-21.332731;;-24.745076;;-28.554642;;-32.563982;;-36.347264;;-39.262975;;-41.294188;;-43.349961;;-46.041587;;-49.195775;;-52.38414;;-55.605172;;-59.373307;;-64.288562;;-70.526521;;-77.56344;;-84.161859;;-89.247003;;-93.806785;;-100.29841;;-108.89203;;-117.02388;;-122.04458;;-124.64005;;-128.60048;;-135.58539;;-143.55952;;-149.56708;;-152.60022;;-153.68629;;-154.089;;-154.32063;;-154.41286;;-154.35072;;-154.20737;;-154.10359;;-154.12826;;-154.27724;;-154.46291;;-154.60154;;-154.67857;;-154.72233;;-154.75603;;-154.78608;;-154.80569;;-154.80763;;-154.79238;;-154.77068;;-154.77068
-7.6019717;;-7.6019717;;-7.9342289;;-8.4084533;;-9.2177948;;-9.8684136;;-10.519606;;-10.970753;;-10.763677;;-10.404471;;-10.869769;;-11.973257;;-13.52194;;-15.519438;;-18.012508;;-21.013711;;-24.559341;;-28.640845;;-33.15922;;-37.848578;;-42.158905;;-45.344906;;-47.419609;;-49.313599;;-51.71751;;-54.724807;;-58.301957;;-62.541776;;-67.62046;;-73.750021;;-80.888033;;-88.263033;;-94.430382;;-98.570884;;-102.42303;;-108.70227;;-117.20431;;-124.72091;;-128.31043;;-129.01738;;-131.16986;;-136.87065;;-144.20406;;-150.03153;;-153.06586;;-154.11631;;-154.39766;;-154.48975;;-154.50255;;-154.43652;;-154.32025;;-154.22292;;-154.21888;;-154.32499;;-154.47771;;-154.60031;;-154.67253;;-154.71578;;-154.75176;;-154.78632;;-154.8133;;-154.82547;;-154.82129;;-154.80742;;-154.80742
-7.8098453;;-7.8098453;;-8.1776383;;-8.7007251;;-9.567507;;-10.269182;;-10.93957;;-11.270523;;-10.937281;;-10.751693;;-11.662871;;-13.085831;;-14.97663;;-17.380197;;-20.341266;;-23.888614;;-28.055813;;-32.811395;;-38.003767;;-43.262678;;-47.883953;;-51.080532;;-52.941945;;-54.36825;;-56.24381;;-59.123673;;-63.279319;;-68.718523;;-75.269481;;-82.755537;;-90.834308;;-98.529499;;-104.34768;;-107.76826;;-111.0316;;-117.03643;;-125.45281;;-132.83227;;-136.16757;;-136.35296;;-137.31674;;-141.19901;;-146.66328;;-151.15902;;-153.54348;;-154.35986;;-154.53837;;-154.55791;;-154.52772;;-154.45552;;-154.3616;;-154.29333;;-154.29983;;-154.38822;;-154.50842;;-154.60511;;-154.66524;;-154.70574;;-154.74361;;-154.78156;;-154.81251;;-154.82851;;-154.82812;;-154.81677;;-154.81677
-8.0101745;;-8.0101745;;-8.4104205;;-8.9770314;;-9.8899741;;-10.62594;;-11.284296;;-11.396885;;-10.99322;;-11.364485;;-12.564174;;-14.285733;;-16.524908;;-19.343122;;-22.768247;;-26.846419;;-31.589735;;-36.922267;;-42.600883;;-48.098452;;-52.593845;;-55.535859;;-57.159761;;-58.304874;;-59.993439;;-63.003331;;-67.678581;;-73.988062;;-81.712172;;-90.520695;;-99.761901;;-108.22321;;-114.34628;;-117.73958;;-120.67057;;-125.97332;;-133.5487;;-140.34428;;-143.69634;;-144.14628;;-144.56428;;-146.69052;;-149.87193;;-152.55204;;-153.99143;;-154.48445;;-154.58188;;-154.57516;;-154.53062;;-154.45597;;-154.37637;;-154.33325;;-154.35529;;-154.43341;;-154.52634;;-154.60028;;-154.65046;;-154.68983;;-154.73094;;-154.77361;;-154.8091;;-154.82949;;-154.83349;;-154.82617;;-154.82617
-8.1436382;;-8.1436382;;-8.5631174;;-9.1541744;;-10.086246;;-10.824152;;-11.430326;;-11.330693;;-11.053272;;-11.991457;;-13.498268;;-15.518669;;-18.100332;;-21.302487;;-25.149038;;-29.680863;;-34.867835;;-40.552828;;-46.351438;;-51.599994;;-55.738375;;-58.581008;;-60.306229;;-61.635784;;-63.546548;;-66.68766;;-71.279358;;-77.520618;;-85.685697;;-95.654941;;-106.54491;;-116.67401;;-124.18988;;-128.51466;;-131.53473;;-135.74963;;-141.43624;;-146.56795;;-149.32149;;-149.97123;;-150.19397;;-151.09347;;-152.4884;;-153.68431;;-154.33374;;-154.55777;;-154.5995;;-154.58704;;-154.54363;;-154.47113;;-154.39318;;-154.34813;;-154.36024;;-154.4202;;-154.4973;;-154.56732;;-154.62296;;-154.6697;;-154.71709;;-154.7647;;-154.80497;;-154.83127;;-154.84299;;-154.84302;;-154.84302
-8.1632983;;-8.1632983;;-8.5818889;;-9.1696339;;-10.089349;;-10.79913;;-11.330987;;-11.132029;;-11.473634;;-12.702321;;-14.477076;;-16.789467;;-19.703835;;-23.251104;;-27.471672;;-32.368622;;-37.841874;;-43.603069;;-49.079556;;-53.794051;;-57.745968;;-60.798388;;-62.990684;;-64.944392;;-67.409294;;-70.56062;;-74.272396;;-79.238411;;-87.013212;;-97.873454;;-110.67466;;-123.09672;;-132.70043;;-138.38914;;-141.65144;;-144.62623;;-147.99415;;-150.92858;;-152.57847;;-153.08512;;-153.21764;;-153.50146;;-153.94044;;-154.32135;;-154.53068;;-154.60424;;-154.6173;;-154.60716;;-154.57331;;-154.50909;;-154.42605;;-154.35583;;-154.33059;;-154.35936;;-154.4278;;-154.51251;;-154.59116;;-154.65512;;-154.7096;;-154.7584;;-154.79898;;-154.82908;;-154.84877;;-154.85739;;-154.85739
-8.0726753;;-8.0726753;;-8.4710244;;-9.029097;;-9.9083745;;-10.568805;;-11.033595;;-10.997629;;-11.96818;;-13.493555;;-15.53605;;-18.143886;;-21.380287;;-25.267214;;-29.838683;;-35.042046;;-40.670013;;-46.229965;;-51.011946;;-55.272643;;-59.34208;;-62.955814;;-66.017291;;-69.000186;;-72.303845;;-75.55901;;-78.278823;;-81.597735;;-88.58174;;-99.889195;;-113.92345;;-127.95516;;-139.02827;;-145.51725;;-148.7203;;-150.58266;;-152.10672;;-153.3213;;-154.01593;;-154.26132;;-154.32568;;-154.39293;;-154.48797;;-154.57023;;-154.61666;;-154.63428;;-154.6382;;-154.63339;;-154.61239;;-154.56307;;-154.4834;;-154.39355;;-154.33004;;-154.32245;;-154.37744;;-154.47469;;-154.5764;;-154.65586;;-154.71088;;-154.74964;;-154.77804;;-154.80116;;-154.82212;;-154.83661;;-154.83661
-7.9123228;;-7.9123228;;-8.277984;;-8.7894056;;-9.6101836;;-10.210179;;-10.639902;;-11.285627;;-12.565659;;-14.349784;;-16.66165;;-19.572277;;-23.118852;;-27.343979;;-32.245063;;-37.700789;;-43.35219;;-48.407328;;-52.43817;;-56.566836;;-61.160634;;-65.824185;;-70.266518;;-74.651282;;-79.006341;;-82.709139;;-85.258491;;-87.99491;;-94.180419;;-105.03045;;-118.9286;;-132.83024;;-143.5544;;-149.58073;;-152.23713;;-153.32598;;-153.89344;;-154.26851;;-154.48169;;-154.56525;;-154.59087;;-154.60777;;-154.62657;;-154.64254;;-154.65273;;-154.65825;;-154.66102;;-154.66079;;-154.65129;;-154.62103;;-154.5606;;-154.47762;;-154.40136;;-154.36843;;-154.40134;;-154.48855;;-154.58803;;-154.66174;;-154.69865;;-154.70551;;-154.69448;;-154.68328;;-154.6841;;-154.69279;;-154.69279
-7.7195005;;-7.7195005;;-8.0479015;;-8.5070873;;-9.2670142;;-9.8283776;;-10.508973;;-11.634583;;-13.187199;;-15.210788;;-17.779732;;-20.961591;;-24.800149;;-29.333627;;-34.517182;;-40.14086;;-45.652838;;-49.936818;;-53.469587;;-57.922058;;-63.58442;;-69.927148;;-76.26809;;-82.273944;;-87.728595;;-92.145181;;-95.278717;;-98.431865;;-104.26961;;-114.03963;;-126.3998;;-138.29877;;-146.95102;;-151.57453;;-153.45739;;-154.09771;;-154.34447;;-154.48531;;-154.56634;;-154.60122;;-154.61742;;-154.63403;;-154.65242;;-154.66732;;-154.67613;;-154.67961;;-154.67983;;-154.67868;;-154.67558;;-154.66325;;-154.62994;;-154.57263;;-154.50802;;-154.46628;;-154.47219;;-154.52186;;-154.5801;;-154.60892;;-154.58986;;-154.52327;;-154.42426;;-154.32591;;-154.25931;;-154.23351;;-154.23351
-7.5229816;;-7.5229816;;-7.816864;;-8.2321992;;-8.9754739;;-9.6895092;;-10.692681;;-12.032268;;-13.774825;;-15.998275;;-18.787119;;-22.1966;;-26.289465;;-31.083062;;-36.489459;;-42.195834;;-47.416683;;-50.895068;;-54.337021;;-59.697285;;-66.999073;;-75.476941;;-83.957307;;-91.580063;;-97.991128;;-103.10237;;-107.08758;;-111.02028;;-116.72435;;-125.01178;;-134.67961;;-143.3739;;-149.33593;;-152.41207;;-153.63768;;-154.07372;;-154.28125;;-154.41888;;-154.49746;;-154.53289;;-154.56074;;-154.59981;;-154.64285;;-154.67555;;-154.69143;;-154.69033;;-154.67547;;-154.65678;;-154.64775;;-154.64841;;-154.63856;;-154.60087;;-154.54299;;-154.48848;;-154.45398;;-154.43387;;-154.40075;;-154.32082;;-154.17389;;-153.96063;;-153.70478;;-153.45288;;-153.25746;;-153.15665;;-153.15665
-7.3592737;;-7.3592737;;-7.6486036;;-8.1003655;;-8.9568415;;-9.8229742;;-10.963368;;-12.439897;;-14.33373;;-16.731609;;-19.705698;;-23.32631;;-27.653762;;-32.689343;;-38.306608;;-44.09564;;-49.027354;;-52.032252;;-55.989259;;-62.777562;;-71.885547;;-82.407786;;-92.828347;;-101.76027;;-108.70792;;-114.14658;;-118.68256;;-123.10806;;-128.382;;-134.77196;;-141.38416;;-146.89998;;-150.53403;;-152.43265;;-153.28722;;-153.70684;;-153.97727;;-154.15652;;-154.25177;;-154.30645;;-154.37261;;-154.4637;;-154.55783;;-154.62911;;-154.66275;;-154.65016;;-154.59188;;-154.51722;;-154.47645;;-154.48498;;-154.49451;;-154.45165;;-154.35732;;-154.24153;;-154.11348;;-153.95791;;-153.74797;;-153.45387;;-153.06385;;-152.6034;;-152.12233;;-151.67636;;-151.32344;;-151.1282;;-151.1282
-7.3137855;;-7.3137855;;-7.6563416;;-8.1809163;;-9.1208332;;-10.082492;;-11.330786;;-12.936917;;-14.987708;;-17.570779;;-20.756631;;-24.624663;;-29.230392;;-34.562701;;-40.464035;;-46.447008;;-51.312023;;-54.516432;;-59.565612;;-67.760413;;-78.383879;;-90.387541;;-102.08391;;-111.66401;;-118.60594;;-123.87038;;-128.32645;;-132.52873;;-136.85678;;-141.29555;;-145.34715;;-148.44702;;-150.43908;;-151.61896;;-152.37153;;-152.91476;;-153.30361;;-153.54089;;-153.66961;;-153.77521;;-153.91658;;-154.09167;;-154.26644;;-154.40656;;-154.47931;;-154.4479;;-154.30065;;-154.10591;;-153.99049;;-154.00236;;-154.03697;;-153.96271;;-153.7617;;-153.4855;;-153.14901;;-152.72983;;-152.20737;;-151.56467;;-150.81257;;-150.02068;;-149.28297;;-148.65841;;-148.18464;;-147.92171;;-147.92171
-7.4035156;;-7.4035156;;-7.7870523;;-8.3711909;;-9.38921;;-10.448946;;-11.818741;;-13.577879;;-15.819;;-18.627234;;-22.081937;;-26.265603;;-31.230584;;-36.953744;;-43.249372;;-49.577602;;-54.709806;;-58.754881;;-64.982879;;-74.264959;;-85.933507;;-98.714356;;-110.78103;;-120.16598;;-126.63445;;-131.37879;;-135.25458;;-138.68261;;-141.87605;;-144.74914;;-146.96379;;-148.35837;;-149.21963;;-149.97468;;-150.77787;;-151.52092;;-152.07224;;-152.41195;;-152.62887;;-152.8351;;-153.07928;;-153.34939;;-153.62045;;-153.85853;;-153.99628;;-153.94043;;-153.65433;;-153.26805;;-153.02784;;-153.03559;;-153.10653;;-152.98657;;-152.61261;;-152.06065;;-151.36991;;-150.53493;;-149.56708;;-148.48632;;-147.33103;;-146.20508;;-145.23668;;-144.48557;;-143.9525;;-143.66404;;-143.66404
-7.5350643;;-7.5350643;;-7.9570518;;-8.5994153;;-9.6969141;;-10.856039;;-12.352254;;-14.271533;;-16.712163;;-19.759518;;-23.501473;;-28.022525;;-33.372343;;-39.516986;;-46.244163;;-52.985047;;-58.629456;;-63.784134;;-71.043303;;-81.063818;;-93.25893;;-106.1444;;-117.77542;;-126.42078;;-132.28534;;-136.49603;;-139.74237;;-142.39582;;-144.66538;;-146.41321;;-147.3127;;-147.4487;;-147.47046;;-147.94189;;-148.83549;;-149.7762;;-150.4972;;-150.97712;;-151.33286;;-151.66917;;-152.01068;;-152.35348;;-152.70747;;-153.04736;;-153.25955;;-153.17707;;-152.73151;;-152.12386;;-151.73527;;-151.72942;;-151.83893;;-151.67487;;-151.11008;;-150.23408;;-149.12208;;-147.81307;;-146.38022;;-144.89533;;-143.4153;;-142.04541;;-140.91913;;-140.08808;;-139.51397;;-139.19273;;-139.19273
-7.6354162;;-7.6354162;;-8.084629;;-8.7682141;;-9.9210694;;-11.149138;;-12.734112;;-14.765528;;-17.343537;;-20.556501;;-24.49828;;-29.255516;;-34.874113;;-41.310205;;-48.335005;;-55.370096;;-61.461943;;-67.481797;;-75.458188;;-85.876838;;-98.17955;;-110.79492;;-121.80435;;-129.82799;;-135.29524;;-139.18934;;-142.06547;;-144.27886;;-146.04372;;-147.16766;;-147.30228;;-146.68417;;-146.19989;;-146.50681;;-147.46047;;-148.52189;;-149.35295;;-149.93887;;-150.40519;;-150.83542;;-151.23315;;-151.60902;;-152.00738;;-152.41168;;-152.67338;;-152.5708;;-152.01242;;-151.24867;;-150.75335;;-150.73283;;-150.86616;;-150.67421;;-149.98116;;-148.87872;;-147.46927;;-145.83398;;-144.09845;;-142.37466;;-140.72438;;-139.23776;;-138.03617;;-137.16123;;-136.541;;-136.08102;;-136.08102
-7.6356477;;-7.6356477;;-8.084629;;-8.7682141;;-9.9210694;;-11.149138;;-12.734112;;-14.765528;;-17.343537;;-20.556501;;-24.49828;;-29.255516;;-34.874113;;-41.310205;;-48.335005;;-55.370096;;-61.461943;;-67.481797;;-75.458188;;-85.876838;;-98.17955;;-110.79492;;-121.80435;;-129.82799;;-135.29524;;-139.18934;;-142.06547;;-144.27886;;-146.04372;;-147.16766;;-147.30228;;-146.68417;;-146.19989;;-146.50681;;-147.46047;;-148.52189;;-149.35295;;-149.93887;;-150.40519;;-150.83542;;-151.23315;;-151.60902;;-152.00738;;-152.41168;;-152.67338;;-152.5708;;-152.01242;;-151.24867;;-150.75335;;-150.73283;;-150.86616;;-150.67421;;-149.98116;;-148.87872;;-147.46927;;-145.83398;;-144.09845;;-142.37466;;-140.72438;;-139.23776;;-138.03617;;-137.16123;;-136.541;;-136.0345;;-135.86946
