-5.6635951;;-5.6635951;;-5.6713089;;-5.7670669;;-5.9243024;;-6.1390578;;-6.4173497;;-6.7692246;;-7.2011091;;-7.7201803;;-8.5892365;;-9.2824061;;-10.024815;;-10.743127;;-11.349285;;-12.189418;;-13.440653;;-15.102328;;-17.187616;;-19.718675;;-22.667167;;-25.974043;;-29.546799;;-33.281519;;-37.137168;;-41.093311;;-45.07218;;-48.960687;;-52.615262;;-55.882143;;-58.725508;;-61.30162;;-63.801599;;-66.265373;;-68.625249;;-70.843789;;-72.909869;;-74.759676;;-76.299121;;-77.486201;;-78.353826;;-78.986303;;-79.49166;;-79.95996;;-80.438282;;-80.962589;;-81.585023;;-82.332015;;-83.156117;;-83.959514;;-84.65513;;-85.197327;;-85.576907;;-85.814378;;-85.965774;;-86.111185;;-86.305829;;-86.537451;;-86.746478;;-86.872982;;-86.862324;;-86.675271;;-86.367367;;-86.129551;;-86.129551
-5.663594;;-5.663594;;-5.6704421;;-5.7640886;;-5.9197438;;-6.1328192;;-6.4091455;;-6.7587273;;-7.188335;;-7.705363;;-8.5747052;;-9.2698991;;-10.024257;;-10.784064;;-11.534735;;-12.611622;;-14.093479;;-15.989373;;-18.31413;;-21.044305;;-24.135267;;-27.507457;;-31.032092;;-34.602874;;-38.207751;;-41.836049;;-45.43471;;-48.955345;;-52.321798;;-55.409163;;-58.173033;;-60.742923;;-63.275162;;-65.779535;;-68.18281;;-70.464615;;-72.620592;;-74.560614;;-76.148066;;-77.316403;;-78.110863;;-78.657125;;-79.107174;;-79.572979;;-80.098113;;-80.704126;;-81.427944;;-82.276314;;-83.172545;;-83.985978;;-84.61343;;-85.033715;;-85.300643;;-85.494197;;-85.683864;;-85.919696;;-86.217794;;-86.541263;;-86.81377;;-86.948452;;-86.850657;;-86.457474;;-85.872173;;-85.426144;;-85.426144
-5.6635907;;-5.6635907;;-5.6674743;;-5.7512297;;-5.8999948;;-6.1057362;;-6.3732853;;-6.7121936;;-7.1296811;;-7.6331179;;-8.489556;;-9.1749966;;-9.9349197;;-10.754024;;-11.735185;;-13.059109;;-14.768587;;-16.891813;;-19.424055;;-22.314323;;-25.50127;;-28.860117;;-32.235119;;-35.562084;;-38.878783;;-42.185613;;-45.448828;;-48.662753;;-51.801051;;-54.777408;;-57.547144;;-60.183882;;-62.772167;;-65.290751;;-67.681037;;-69.949727;;-72.108593;;-74.066074;;-75.669549;;-76.839385;;-77.628365;;-78.183526;;-78.672752;;-79.212703;;-79.84223;;-80.564619;;-81.387296;;-82.293539;;-83.199384;;-83.976064;;-84.529372;;-84.865654;;-85.077732;;-85.264343;;-85.481642;;-85.758941;;-86.103677;;-86.474734;;-86.782946;;-86.912827;;-86.721528;;-86.104971;;-85.206709;;-84.519685;;-84.519685
-5.6635899;;-5.6635899;;-5.6658214;;-5.7394519;;-5.8815467;;-6.0801049;;-6.3390076;;-6.6674229;;-7.0732728;;-7.8226084;;-8.4092813;;-9.0909971;;-9.8734327;;-10.797981;;-11.974972;;-13.479235;;-15.35879;;-17.643834;;-20.297737;;-23.273685;;-26.469712;;-29.717814;;-32.874287;;-35.956478;;-39.050979;;-42.167528;;-45.2684;;-48.337647;;-51.363588;;-54.304234;;-57.127391;;-59.842385;;-62.449775;;-64.909347;;-67.200537;;-69.365313;;-71.435001;;-73.33879;;-74.936284;;-76.140637;;-76.993582;;-77.638146;;-78.237628;;-78.903192;;-79.669314;;-80.519982;;-81.422204;;-82.329728;;-83.172526;;-83.868779;;-84.370789;;-84.707719;;-84.961894;;-85.195309;;-85.432057;;-85.70191;;-86.035318;;-86.404556;;-86.711045;;-86.812052;;-86.524287;;-85.713958;;-84.561435;;-83.684354;;-83.684354
-5.6635943;;-5.6635943;;-5.6656954;;-5.735755;;-5.8747004;;-6.0693391;;-6.3231918;;-6.6452482;;-7.0440385;;-7.7873954;;-8.3686275;;-9.0545337;;-9.8691535;;-10.875063;;-12.14259;;-13.730165;;-15.685978;;-18.016821;;-20.689833;;-23.645074;;-26.755687;;-29.85126;;-32.846339;;-35.817806;;-38.866933;;-42.000263;;-45.150197;;-48.249315;;-51.266536;;-54.197232;;-57.038869;;-59.763516;;-62.311271;;-64.636072;;-66.759927;;-68.759365;;-70.686777;;-72.504764;;-74.099834;;-75.372801;;-76.330621;;-77.094783;;-77.823313;;-78.625194;;-79.528548;;-80.49397;;-81.446256;;-82.313691;;-83.056606;;-83.667932;;-84.165584;;-84.587653;;-84.965326;;-85.292041;;-85.555825;;-85.795589;;-86.071116;;-86.377485;;-86.623673;;-86.662212;;-86.305723;;-85.431358;;-84.238394;;-83.347265;;-83.347265
-5.6636176;;-5.6636176;;-5.6670665;;-5.7411683;;-5.879857;;-6.0723077;;-6.3220423;;-6.6375836;;-7.2827424;;-7.7553638;;-8.3210367;;-8.9904748;;-9.7955976;;-10.79685;;-12.055441;;-13.623655;;-15.545352;;-17.817341;;-20.41153;;-23.268097;;-26.271549;;-29.289351;;-32.283099;;-35.334427;;-38.527809;;-41.853544;;-45.20352;;-48.439744;;-51.484366;;-54.356633;;-57.110047;;-59.736479;;-62.160289;;-64.330619;;-66.289364;;-68.134834;;-69.938233;;-71.690026;;-73.296348;;-74.641288;;-75.69296;;-76.550103;;-77.372039;;-78.273787;;-79.277937;;-80.322467;;-81.303819;;-82.145232;;-82.841741;;-83.443341;;-84.007749;;-84.562312;;-85.082227;;-85.50461;;-85.794962;;-85.997327;;-86.18794;;-86.386171;;-86.527806;;-86.49098;;-86.130355;;-85.376886;;-84.416768;;-83.726444;;-83.726444
-5.6637131;;-5.6637131;;-5.6737018;;-5.7615099;;-5.9037505;;-6.0950768;;-6.3391081;;-6.6426193;;-7.2663927;;-7.704627;;-8.2203065;;-8.819666;;-9.5273067;;-10.419163;;-11.572415;;-13.035771;;-14.847097;;-17.010088;;-19.497344;;-22.265022;;-25.226122;;-28.281599;;-31.40447;;-34.65743;;-38.10078;;-41.700543;;-45.301804;;-48.690703;;-51.73087;;-54.461877;;-57.024382;;-59.486441;;-61.789815;;-63.863658;;-65.733501;;-67.500697;;-69.248906;;-70.977774;;-72.592831;;-73.965918;;-75.048567;;-75.930287;;-76.772995;;-77.700404;;-78.737057;;-79.812139;;-80.820356;;-81.704945;;-82.484988;;-83.213157;;-83.927287;;-84.623785;;-85.247773;;-85.72241;;-86.0159;;-86.17697;;-86.288769;;-86.390067;;-86.444054;;-86.364197;;-86.067838;;-85.551679;;-84.961372;;-84.566693;;-84.566693
-5.664254;;-5.664254;;-5.7011655;;-5.8097258;;-5.9647055;;-6.1636149;;-6.4080511;;-6.6963113;;-7.2877228;;-7.6727098;;-8.1104187;;-8.598173;;-9.140257;;-9.8544038;;-10.857908;;-12.175676;;-13.835488;;-15.860321;;-18.230705;;-20.929586;;-23.903725;;-27.069543;;-30.376979;;-33.86398;;-37.574078;;-41.442002;;-45.258419;;-48.739965;;-51.706454;;-54.235401;;-56.574978;;-58.890468;;-61.148677;;-63.237874;;-65.131194;;-66.908843;;-68.658576;;-70.380608;;-71.972118;;-73.303837;;-74.336486;;-75.164879;;-75.950704;;-76.824826;;-77.825719;;-78.894614;;-79.944335;;-80.944185;;-81.918015;;-82.87824;;-83.799515;;-84.633832;;-85.320656;;-85.805653;;-86.081911;;-86.211514;;-86.287521;;-86.360307;;-86.402059;;-86.345645;;-86.155945;;-85.871597;;-85.593189;;-85.432492;;-85.432492
-5.6723444;;-5.6723444;;-5.7538159;;-5.886713;;-6.0625408;;-6.2803679;;-6.5340323;;-7.0722177;;-7.3735078;;-7.6799379;;-8.0173204;;-8.3839727;;-8.7534001;;-9.2737968;;-10.135757;;-11.313963;;-12.824582;;-14.701864;;-16.945833;;-19.561182;;-22.531203;;-25.800308;;-29.300619;;-33.023776;;-36.978077;;-41.05455;;-44.989858;;-48.454371;;-51.267554;;-53.572397;;-55.718586;;-57.956399;;-60.271514;;-62.497748;;-64.524945;;-66.378736;;-68.139619;;-69.822103;;-71.337525;;-72.57407;;-73.510882;;-74.246151;;-74.93386;;-75.711354;;-76.644373;;-77.702839;;-78.815068;;-79.9528;;-81.127523;;-82.316921;;-83.443471;;-84.416564;;-85.168597;;-85.669797;;-85.943437;;-86.073934;;-86.170537;;-86.288637;;-86.394029;;-86.421333;;-86.352881;;-86.233632;;-86.129378;;-86.083807;;-86.083807
-5.7176994;;-5.7176994;;-5.8260202;;-5.9843723;;-6.1862875;;-6.4274604;;-6.6996203;;-7.2437237;;-7.5053766;;-7.7008915;;-7.9283635;;-8.1950385;;-8.4390467;;-8.7814293;;-9.5278002;;-10.588698;;-11.971018;;-13.710906;;-15.829756;;-18.345086;;-21.272537;;-24.595017;;-28.261359;;-32.209762;;-36.366185;;-40.560946;;-44.489712;;-47.816397;;-50.410801;;-52.494959;;-54.494763;;-56.718987;;-59.165305;;-61.610844;;-63.844477;;-65.808952;;-67.564941;;-69.160926;;-70.560257;;-71.694458;;-72.558004;;-73.230721;;-73.841418;;-74.532702;;-75.408168;;-76.472392;;-77.652197;;-78.890787;;-80.182532;;-81.510416;;-82.793203;;-83.912034;;-84.771698;;-85.339566;;-85.65624;;-85.828171;;-85.979521;;-86.169002;;-86.361336;;-86.49341;;-86.543628;;-86.535675;;-86.509785;;-86.500782;;-86.500782
-5.7858502;;-5.7858502;;-5.9104753;;-6.0906947;;-6.3180318;;-6.5836945;;-6.8770088;;-7.4278692;;-7.6352172;;-7.7163767;;-7.8545066;;-8.0566086;;-8.2332935;;-8.4186052;;-9.0714668;;-10.03788;;-11.316403;;-12.943415;;-14.957355;;-17.382514;;-20.257558;;-23.593813;;-27.36139;;-31.471077;;-35.760012;;-39.973941;;-43.7779;;-46.879943;;-49.236535;;-51.135033;;-53.041564;;-55.29324;;-57.888745;;-60.554454;;-62.988399;;-65.055732;;-66.795946;;-68.295568;;-69.587755;;-70.664233;;-71.528649;;-72.217865;;-72.816746;;-73.468964;;-74.315012;;-75.387751;;-76.603332;;-77.872008;;-79.182728;;-80.555211;;-81.940151;;-83.205269;;-84.214401;;-84.905699;;-85.315782;;-85.558874;;-85.76453;;-85.999689;;-86.249158;;-86.467601;;-86.623537;;-86.705971;;-86.729618;;-86.735361;;-86.735361
-5.8508402;;-5.8508402;;-5.9883184;;-6.186409;;-6.4348187;;-6.7211295;;-7.0312565;;-7.5836882;;-7.723739;;-7.7233763;;-7.8040104;;-7.9732191;;-8.1297627;;-8.2060493;;-8.775484;;-9.6674319;;-10.869313;;-12.414383;;-14.353051;;-16.712;;-19.539012;;-22.859445;;-26.65504;;-30.82975;;-35.169137;;-39.328062;;-42.943902;;-45.814364;;-47.99107;;-49.792344;;-51.679238;;-53.97983;;-56.679831;;-59.471806;;-62.007075;;-64.117668;;-65.837963;;-67.279352;;-68.52578;;-69.616465;;-70.554094;;-71.3262;;-71.973306;;-72.634276;;-73.468693;;-74.524873;;-75.720048;;-76.958105;;-78.236244;;-79.606579;;-81.050204;;-82.434443;;-83.596216;;-84.441844;;-84.98274;;-85.31476;;-85.55986;;-85.800084;;-86.059062;;-86.325919;;-86.566874;;-86.735267;;-86.813404;;-86.839487;;-86.839487
-5.9030041;;-5.9030041;;-6.0495605;;-6.2601044;;-6.5227395;;-6.8218697;;-7.1397083;;-7.6840747;;-7.765097;;-7.7287464;;-7.7792385;;-7.9311633;;-8.0912634;;-8.1385875;;-8.6089825;;-9.4388946;;-10.584645;;-12.071473;;-13.950469;;-16.255667;;-19.032335;;-22.312982;;-26.085687;;-30.2562;;-34.591085;;-38.683038;;-42.150992;;-44.892148;;-47.029985;;-48.870683;;-50.819164;;-53.158387;;-55.860027;;-58.621188;;-61.109248;;-63.17666;;-64.870514;;-66.306542;;-67.579044;;-68.738043;;-69.774695;;-70.645865;;-71.367117;;-72.063587;;-72.887605;;-73.896407;;-75.034762;;-76.229175;;-77.478936;;-78.833668;;-80.286072;;-81.724049;;-82.99478;;-83.988375;;-84.674978;;-85.107228;;-85.387244;;-85.610754;;-85.84277;;-86.117724;;-86.416039;;-86.662867;;-86.801343;;-86.854697;;-86.854697
-5.9472332;;-5.9472332;;-6.1001138;;-6.3190025;;-6.5903585;;-6.895307;;-7.4684643;;-7.7327772;;-7.784946;;-7.7544229;;-7.7947717;;-7.9308524;;-8.0946395;;-8.1677908;;-8.5087988;;-9.2798854;;-10.374785;;-11.807833;;-13.62769;;-15.875314;;-18.590344;;-21.810143;;-25.528844;;-29.660515;;-33.977529;;-38.059242;;-41.518151;;-44.31045;;-46.587844;;-48.604503;;-50.66792;;-52.996211;;-55.571282;;-58.151083;;-60.4733;;-62.437567;;-64.101154;;-65.562779;;-66.893215;;-68.1239;;-69.236878;;-70.189375;;-70.99091;;-71.738489;;-72.55647;;-73.515075;;-74.606493;;-75.785335;;-77.03022;;-78.357023;;-79.763379;;-81.183204;;-82.504242;;-83.610897;;-84.42686;;-84.956795;;-85.278683;;-85.488409;;-85.676684;;-85.924257;;-86.242928;;-86.544317;;-86.734144;;-86.81374;;-86.81374
-5.993788;;-5.993788;;-6.1518067;;-6.3770158;;-6.6538334;;-6.9596124;;-7.5239193;;-7.7539112;;-7.8156437;;-7.8231117;;-7.8710595;;-7.9881963;;-8.1375532;;-8.231509;;-8.4319877;;-9.1412129;;-10.179745;;-11.552017;;-13.303804;;-15.483566;;-18.123238;;-21.264553;;-24.90962;;-28.98731;;-33.29507;;-37.442477;;-41.041647;;-44.043806;;-46.5849;;-48.846308;;-51.025597;;-53.28399;;-55.645086;;-57.97272;;-60.098595;;-61.960146;;-63.602449;;-65.09007;;-66.459358;;-67.72371;;-68.876072;;-69.898101;;-70.795584;;-71.621841;;-72.46463;;-73.408358;;-74.486729;;-75.66735;;-76.899347;;-78.17087;;-79.499618;;-80.875693;;-82.223038;;-83.40963;;-84.316152;;-84.918312;;-85.28125;;-85.488486;;-85.632585;;-85.82707;;-86.121425;;-86.433717;;-86.648554;;-86.745458;;-86.745458
-6.0481432;;-6.0481432;;-6.2108286;;-6.4409927;;-6.7196543;;-7.2755988;;-7.5641527;;-7.7672915;;-7.8693713;;-7.9320144;;-8.0009999;;-8.100462;;-8.2194098;;-8.309793;;-8.398946;;-9.0264557;;-9.9983626;;-11.305304;;-12.985768;;-15.09424;;-17.656499;;-20.716336;;-24.285302;;-28.309795;;-32.619588;;-36.871789;;-40.678178;;-43.935227;;-46.736596;;-49.20413;;-51.45492;;-53.610152;;-55.748443;;-57.847028;;-59.823548;;-61.629539;;-63.275068;;-64.781405;;-66.157468;;-67.418881;;-68.592535;;-69.69436;;-70.720041;;-71.671001;;-72.594225;;-73.573996;;-74.658522;;-75.814743;;-76.983425;;-78.163582;;-79.413663;;-80.768808;;-82.160436;;-83.418053;;-84.380118;;-85.013634;;-85.392931;;-85.59711;;-85.708056;;-85.845846;;-86.083231;;-86.359394;;-86.563579;;-86.662617;;-86.662617
-6.1125074;;-6.1125074;;-6.279671;;-6.5138232;;-7.0443;;-7.3296392;;-7.5879421;;-7.7846818;;-7.9337207;;-8.0493238;;-8.1443675;;-8.235019;;-8.3291621;;-8.414051;;-8.4676406;;-8.9557184;;-9.8556764;;-11.103898;;-12.72379;;-14.768234;;-17.267181;;-20.260525;;-23.769362;;-27.755596;;-32.077497;;-36.432731;;-40.423585;;-43.864883;;-46.807951;;-49.360014;;-51.608716;;-53.653732;;-55.610524;;-57.542198;;-59.433579;;-61.242291;;-62.936516;;-64.488283;;-65.880706;;-67.140829;;-68.338165;;-69.528931;;-70.705923;;-71.824275;;-72.880801;;-73.932242;;-75.018159;;-76.111361;;-77.177156;;-78.252786;;-79.435154;;-80.783103;;-82.220385;;-83.535773;;-84.524976;;-85.145323;;-85.494386;;-85.676905;;-85.776174;;-85.890565;;-86.078411;;-86.295391;;-86.458757;;-86.542263;;-86.542263
-6.1905484;;-6.1905484;;-6.3554156;;-6.588494;;-7.1106458;;-7.3717365;;-7.6008046;;-7.8046341;;-7.9874459;;-8.1388733;;-8.255315;;-8.3489092;;-8.4435409;;-8.5480445;;-8.625125;;-8.9280255;;-9.7600785;;-10.957752;;-12.528519;;-14.521332;;-16.97445;;-19.920169;;-23.387998;;-27.352207;;-31.691695;;-36.129061;;-40.239303;;-43.740331;;-46.664292;;-49.158703;;-51.333073;;-53.277837;;-55.109667;;-56.932992;;-58.788247;;-60.653839;;-62.465888;;-64.139167;;-65.614605;;-66.914526;;-68.141407;;-69.400399;;-70.709564;;-72.000042;;-73.209549;;-74.341354;;-75.420872;;-76.449876;;-77.438291;;-78.450506;;-79.586651;;-80.903639;;-82.326843;;-83.635742;;-84.59804;;-85.149404;;-85.410302;;-85.544901;;-85.664078;;-85.820582;;-86.00858;;-86.177622;;-86.287733;;-86.343297;;-86.343297
-6.3454057;;-6.3454057;;-6.4854657;;-6.9553938;;-7.1955158;;-7.4203809;;-7.6270385;;-7.8319091;;-8.0251137;;-8.188492;;-8.3132907;;-8.4139827;;-8.5294373;;-8.6759218;;-8.7923162;;-8.9305821;;-9.6927874;;-10.839421;;-12.363666;;-14.309143;;-16.721486;;-19.624604;;-23.054464;;-26.994761;;-31.33875;;-35.821398;;-39.97766;;-43.421976;;-46.203918;;-48.553538;;-50.626599;;-52.507351;;-54.286456;;-56.070843;;-57.942323;;-59.913612;;-61.904834;;-63.772892;;-65.401961;;-66.787947;;-68.047356;;-69.333945;;-70.716273;;-72.13134;;-73.466459;;-74.665885;;-75.746478;;-76.754383;;-77.743115;;-78.774781;;-79.91081;;-81.177999;;-82.508378;;-83.707651;;-84.550201;;-84.959288;;-85.078652;;-85.147524;;-85.317578;;-85.577701;;-85.821208;;-85.971883;;-86.038515;;-86.068482;;-86.068482
-6.5777797;;-6.5777797;;-6.6979914;;-7.1437075;;-7.3439541;;-7.5339388;;-7.7208019;;-7.9048594;;-8.0747908;;-8.2176496;;-8.3270215;;-8.4222867;;-8.5537245;;-8.7348891;;-8.8773106;;-8.9225349;;-9.6081847;;-10.70069;;-12.174232;;-14.064635;;-16.421542;;-19.264083;;-22.631977;;-26.51659;;-30.822712;;-35.296063;;-39.444143;;-42.788115;;-45.413128;;-47.639789;;-49.663758;;-51.558603;;-53.377704;;-55.207814;;-57.149917;;-59.246108;;-61.413621;;-63.471219;;-65.258879;;-66.744077;;-68.041462;;-69.333246;;-70.731712;;-72.196329;;-73.594977;;-74.838159;;-75.941481;;-76.985736;;-78.049924;;-79.175775;;-80.368389;;-81.603656;;-82.805489;;-83.817636;;-84.459878;;-84.678973;;-84.646908;;-84.659265;;-84.890826;;-85.263294;;-85.575309;;-85.72899;;-85.777158;;-85.798924;;-85.798924
-6.8674438;;-6.8674438;;-6.9746822;;-7.399424;;-7.578393;;-7.7658284;;-7.9416013;;-8.0789126;;-8.1812346;;-8.2595935;;-8.3189764;;-8.3838284;;-8.5049119;;-8.6860192;;-8.8246939;;-8.8380297;;-9.4628331;;-10.499936;;-11.909822;;-13.723392;;-15.991857;;-18.734116;;-21.99165;;-25.76412;;-29.971638;;-34.384703;;-38.530406;;-41.869856;;-44.474018;;-46.717005;;-48.811581;;-50.811834;;-52.736317;;-54.651571;;-56.666521;;-58.840954;;-61.099111;;-63.255237;;-65.138784;;-66.703776;;-68.052139;;-69.360986;;-70.750737;;-72.200048;;-73.595666;;-74.85772;;-76.007794;;-77.135103;;-78.318259;;-79.572033;;-80.848759;;-82.070945;;-83.145807;;-83.959399;;-84.406768;;-84.486757;;-84.383036;;-84.387936;;-84.660166;;-85.079651;;-85.4086;;-85.556128;;-85.603278;;-85.633105;;-85.633105
-7.1825974;;-7.4464085;;-7.542275;;-7.6936423;;-7.8829739;;-8.0990407;;-8.2794993;;-8.3632715;;-8.3643947;;-8.3362666;;-8.3123589;;-8.3233802;;-8.4085269;;-8.5571319;;-8.6711573;;-8.687632;;-9.2585595;;-10.229508;;-11.555136;;-13.263065;;-15.40539;;-18.004838;;-21.103609;;-24.713434;;-28.778243;;-33.115637;;-37.330043;;-40.877096;;-43.703032;;-46.155385;;-48.437817;;-50.583187;;-52.593427;;-54.53872;;-56.545322;;-58.688892;;-60.91065;;-63.050984;;-64.960285;;-66.589514;;-68.012271;;-69.365884;;-70.744544;;-72.140266;;-73.487948;;-74.751548;;-75.9636;;-77.200032;;-78.517196;;-79.89546;;-81.239025;;-82.431228;;-83.383533;;-84.045188;;-84.399862;;-84.489904;;-84.461216;;-84.52808;;-84.798791;;-85.158573;;-85.412861;;-85.51331;;-85.551545;;-85.589489;;-85.589489
-7.4807187;;-7.747624;;-7.8284093;;-7.9839887;;-8.2186156;;-8.4867172;;-8.68254;;-8.7121406;;-8.6014158;;-8.4491253;;-8.325449;;-8.2701262;;-8.3065231;;-8.4068723;;-8.4919535;;-8.5345068;;-9.0420008;;-9.9351396;;-11.162445;;-12.74867;;-14.745219;;-17.18746;;-20.114916;;-23.554868;;-27.48044;;-31.766091;;-36.115746;;-40.040399;;-43.299186;;-46.11214;;-48.638462;;-50.89529;;-52.905256;;-54.776427;;-56.663269;;-58.658604;;-60.732376;;-62.772837;;-64.668684;;-66.366049;;-67.888791;;-69.308623;;-70.680404;;-72.012939;;-73.301367;;-74.563584;;-75.842968;;-77.191648;;-78.631693;;-80.104396;;-81.474387;;-82.610113;;-83.458639;;-84.047772;;-84.434439;;-84.668424;;-84.8166;;-84.97976;;-85.208574;;-85.427967;;-85.536089;;-85.550225;;-85.564497;;-85.605815;;-85.605815
-7.6789084;;-7.6789084;;-8.027711;;-8.220202;;-8.517979;;-8.8429253;;-9.0575178;;-9.0377958;;-8.8343;;-8.5776471;;-8.3645768;;-8.2452082;;-8.229047;;-8.27769;;-8.33733;;-8.4242668;;-8.8820609;;-9.700377;;-10.831892;;-12.300892;;-14.159624;;-16.464669;;-19.251188;;-22.555687;;-26.374905;;-30.62856;;-35.101142;;-39.393269;;-43.151079;;-46.391471;;-49.170598;;-51.494986;;-53.443836;;-55.182072;;-56.885887;;-58.662869;;-60.524626;;-62.420741;;-64.281826;;-66.044234;;-67.67187;;-69.165361;;-70.544788;;-71.838576;;-73.09395;;-74.372465;;-75.722602;;-77.165731;;-78.6848;;-80.195406;;-81.555576;;-82.649611;;-83.464008;;-84.072194;;-84.553522;;-84.937942;;-85.22989;;-85.451673;;-85.614748;;-85.682988;;-85.643568;;-85.579367;;-85.583961;;-85.64012;;-85.640121
-7.7756886;;-7.7756886;;-8.1330871;;-8.3568415;;-8.6970659;;-9.0579004;;-9.2852159;;-9.2401258;;-8.9914692;;-8.6814856;;-8.4159895;;-8.2495381;;-8.1850337;;-8.183391;;-8.2208861;;-8.3630122;;-8.819201;;-9.5809302;;-10.632271;;-12.003117;;-13.746856;;-15.929798;;-18.605931;;-21.803484;;-25.530175;;-29.733498;;-34.254099;;-38.782118;;-42.967597;;-46.638534;;-49.682989;;-52.079718;;-53.978177;;-55.59755;;-57.121174;;-58.672379;;-60.315559;;-62.060591;;-63.870065;;-65.669044;;-67.373647;;-68.932321;;-70.344233;;-71.652196;;-72.93085;;-74.259848;;-75.679431;;-77.174583;;-78.696255;;-80.172189;;-81.51029;;-82.635811;;-83.534731;;-84.244861;;-84.80647;;-85.23488;;-85.53848;;-85.734558;;-85.823597;;-85.788954;;-85.671882;;-85.593523;;-85.632876;;-85.725088;;-85.725088
-7.8413722;;-8.1077767;;-8.178416;;-8.3835401;;-8.7115663;;-9.0622103;;-9.2830236;;-9.2492371;;-9.0187843;;-8.7199403;;-8.4532118;;-8.2702448;;-8.170625;;-8.1276024;;-8.1517413;;-8.3594007;;-8.8481831;;-9.5770884;;-10.560128;;-11.84395;;-13.489456;;-15.563352;;-18.136487;;-21.238529;;-24.871051;;-28.998501;;-33.501342;;-38.144472;;-42.628312;;-46.660354;;-49.957216;;-52.448291;;-54.336051;;-55.876344;;-57.256233;;-58.623658;;-60.097035;;-61.727852;;-63.488779;;-65.292076;;-67.029005;;-68.627312;;-70.085641;;-71.457481;;-72.816068;;-74.222246;;-75.686649;;-77.162474;;-78.598715;;-79.985961;;-81.328285;;-82.589373;;-83.689974;;-84.554023;;-85.152736;;-85.518576;;-85.72456;;-85.832443;;-85.851286;;-85.775656;;-85.670606;;-85.655019;;-85.767602;;-85.903831;;-85.903831
-7.8825715;;-8.1501314;;-8.179928;;-8.3308288;;-8.6114176;;-8.9208287;;-9.1150928;;-9.0995908;;-8.9227821;;-8.6842658;;-8.4617899;;-8.2942307;;-8.1825328;;-8.121156;;-8.1541864;;-8.4290789;;-8.9584059;;-9.6862602;;-10.618525;;-11.817882;;-13.374738;;-15.363247;;-17.85146;;-20.886669;;-24.453327;;-28.522381;;-32.997572;;-37.685256;;-42.313252;;-46.532015;;-49.965656;;-52.507466;;-54.380152;;-55.857525;;-57.139481;;-58.402879;;-59.799292;;-61.390335;;-63.135286;;-64.931324;;-66.664073;;-68.267577;;-69.759534;;-71.206915;;-72.663289;;-74.139157;;-75.59782;;-76.979017;;-78.272803;;-79.567767;;-80.967714;;-82.442577;;-83.800262;;-84.826003;;-85.439094;;-85.722243;;-85.827703;;-85.858049;;-85.830168;;-85.753924;;-85.709073;;-85.787994;;-85.975816;;-86.144593;;-86.144593
-7.8767545;;-8.1452448;;-8.1412601;;-8.242781;;-8.4743716;;-8.734663;;-8.8921431;;-8.8868071;;-8.7686707;;-8.608127;;-8.45121;;-8.3206419;;-8.2239003;;-8.1765267;;-8.2416686;;-8.5579798;;-9.1137546;;-9.8542554;;-10.768962;;-11.911764;;-13.418904;;-15.375219;;-17.842586;;-20.873967;;-24.444041;;-28.518289;;-32.998855;;-37.684465;;-42.283626;;-46.435229;;-49.780891;;-52.231125;;-54.010293;;-55.408949;;-56.654616;;-57.931333;;-59.370073;;-61.002122;;-62.765343;;-64.553704;;-66.264348;;-67.849913;;-69.350329;;-70.844379;;-72.364044;;-73.867496;;-75.275766;;-76.536594;;-77.702756;;-78.951628;;-80.446232;;-82.130153;;-83.705457;;-84.859309;;-85.498237;;-85.762894;;-85.856632;;-85.887089;;-85.862189;;-85.804266;;-85.806612;;-85.942215;;-86.16371;;-86.340095;;-86.340095
-7.8210584;;-8.0902724;;-8.0728867;;-8.150646;;-8.3499283;;-8.5689399;;-8.6927879;;-8.6941194;;-8.6278023;;-8.5381135;;-8.4431334;;-8.3568461;;-8.2965021;;-8.2890471;;-8.3909499;;-8.7135592;;-9.2685963;;-10.008513;;-10.921142;;-12.069573;;-13.604835;;-15.607355;;-18.136134;;-21.240888;;-24.88894;;-29.036785;;-33.561264;;-38.207784;;-42.619602;;-46.460324;;-49.485608;;-51.668883;;-53.24012;;-54.533051;;-55.82178;;-57.250654;;-58.846691;;-60.568136;;-62.349865;;-64.120404;;-65.808327;;-67.379818;;-68.876142;;-70.372793;;-71.891261;;-73.371231;;-74.724613;;-75.918784;;-77.046064;;-78.314345;;-79.88786;;-81.680996;;-83.354617;;-84.577025;;-85.273668;;-85.614661;;-85.80442;;-85.923385;;-85.958482;;-85.932192;;-85.941478;;-86.059249;;-86.248814;;-86.401191;;-86.401191
-7.7360117;;-8.0059647;;-7.9935424;;-8.0714482;;-8.2568684;;-8.4498732;;-8.5530644;;-8.5631165;;-8.5357288;;-8.4964092;;-8.4479007;;-8.4036325;;-8.3883808;;-8.4279395;;-8.5581472;;-8.8598929;;-9.3837913;;-10.104241;;-11.029838;;-12.256017;;-13.89296;;-16.005961;;-18.657226;;-21.884144;;-25.653361;;-29.910501;;-34.49254;;-39.064552;;-43.181781;;-46.577774;;-49.168416;;-50.992459;;-52.294374;;-53.47857;;-54.87506;;-56.546079;;-58.351934;;-60.156301;;-61.924555;;-63.662349;;-65.34249;;-66.926202;;-68.423026;;-69.884427;;-71.339105;;-72.758912;;-74.089428;;-75.313798;;-76.509416;;-77.841222;;-79.432234;;-81.193696;;-82.829393;;-84.065126;;-84.854042;;-85.344169;;-85.690084;;-85.93518;;-86.057409;;-86.076352;;-86.076951;;-86.136274;;-86.25495;;-86.36403;;-86.36403
-7.6443646;;-7.9150083;;-7.9185581;;-8.0118808;;-8.1994326;;-8.3850818;;-8.4819075;;-8.4961145;;-8.4845132;;-8.4710303;;-8.4556618;;-8.449652;;-8.4766421;;-8.5545403;;-8.7019917;;-8.9740524;;-9.4477186;;-10.151343;;-11.1412;;-12.494546;;-14.268894;;-16.52375;;-19.324465;;-22.682568;;-26.578046;;-30.937415;;-35.550961;;-39.998458;;-43.779827;;-46.747733;;-48.957028;;-50.487513;;-51.588558;;-52.712529;;-54.218556;;-56.086498;;-58.034622;;-59.861167;;-61.58213;;-63.287204;;-64.98525;;-66.611257;;-68.117628;;-69.520183;;-70.871986;;-72.213801;;-73.548727;;-74.861787;;-76.172525;;-77.563297;;-79.107664;;-80.744115;;-82.270298;;-83.501716;;-84.40436;;-85.060281;;-85.549288;;-85.892275;;-86.0866;;-86.160781;;-86.181387;;-86.216184;;-86.290253;;-86.368565;;-86.368565
-7.5596691;;-7.8312068;;-7.8516466;;-7.9636509;;-8.1637016;;-8.358828;;-8.4610186;;-8.4707279;;-8.4516204;;-8.4444621;;-8.4546916;;-8.4841151;;-8.5450129;;-8.6492391;;-8.8068733;;-9.0554375;;-9.4897249;;-10.237101;;-11.348734;;-12.844698;;-14.768616;;-17.181485;;-20.127322;;-23.610121;;-27.614393;;-32.038664;;-36.622716;;-40.880353;;-44.345634;;-47.003973;;-48.989937;;-50.40292;;-51.472432;;-52.620264;;-54.172061;;-56.067041;;-57.992202;;-59.752432;;-61.40692;;-63.091421;;-64.826598;;-66.510165;;-68.031495;;-69.37321;;-70.61991;;-71.880801;;-73.206599;;-74.576215;;-75.955575;;-77.360561;;-78.834391;;-80.353196;;-81.79972;;-83.051681;;-84.059596;;-84.83413;;-85.401326;;-85.7864;;-86.022014;;-86.155411;;-86.240657;;-86.321863;;-86.414062;;-86.493054;;-86.493054
-7.4841708;;-7.7568762;;-7.7849631;;-7.9040078;;-8.1117302;;-8.3220341;;-8.4414823;;-8.4537716;;-8.4263539;;-8.4207615;;-8.4511425;;-8.5091761;;-8.5950259;;-8.7170969;;-8.8828877;;-9.1210616;;-9.5880578;;-10.472927;;-11.735793;;-13.391079;;-15.485597;;-18.069779;;-21.157677;;-24.765028;;-28.854069;;-33.283609;;-37.7399;;-41.727368;;-44.919489;;-47.392716;;-49.298786;;-50.745106;;-51.924413;;-53.160683;;-54.690345;;-56.453651;;-58.212339;;-59.839371;;-61.415806;;-63.07768;;-64.839582;;-66.568787;;-68.105969;;-69.411302;;-70.590298;;-71.783247;;-73.055231;;-74.386905;;-75.737809;;-77.108516;;-78.534607;;-80.013229;;-81.462214;;-82.765712;;-83.839378;;-84.655132;;-85.233454;;-85.623065;;-85.883912;;-86.077976;;-86.252773;;-86.421859;;-86.568001;;-86.664721;;-86.664721
-7.4167205;;-7.69035;;-7.7152431;;-7.8226404;;-8.02126;;-8.2396914;;-8.3857064;;-8.4254708;;-8.413755;;-8.4187557;;-8.4630526;;-8.5383432;;-8.6409244;;-8.7762524;;-8.9493815;;-9.2051781;;-9.8517715;;-10.915164;;-12.358844;;-14.20961;;-16.517687;;-19.296213;;-22.566879;;-26.317263;;-30.460743;;-34.790501;;-38.950142;;-42.559089;;-45.490815;;-47.844189;;-49.736901;;-51.26443;;-52.585013;;-53.923512;;-55.418804;;-57.019403;;-58.585629;;-60.069139;;-61.5567;;-63.165921;;-64.9071;;-66.640318;;-68.18652;;-69.493945;;-70.663582;;-71.818368;;-73.006592;;-74.225643;;-75.477724;;-76.792378;;-78.206457;;-79.708969;;-81.206277;;-82.557261;;-83.649912;;-84.454647;;-85.016503;;-85.407968;;-85.700854;;-85.961556;;-86.226512;;-86.4763;;-86.664479;;-86.770202;;-86.770202
-7.3588689;;-7.6330086;;-7.6531936;;-7.7415049;;-7.9200437;;-8.1376736;;-8.3125633;;-8.3998083;;-8.4276141;;-8.452569;;-8.5044911;;-8.5874434;;-8.7018477;;-8.8483735;;-9.0285325;;-9.405744;;-10.278303;;-11.537476;;-13.189068;;-15.276501;;-17.830297;;-20.862117;;-24.376076;;-28.307259;;-32.475137;;-36.5476;;-40.193528;;-43.3153;;-45.960269;;-48.205216;;-50.103385;;-51.709009;;-53.143401;;-54.565739;;-56.051254;;-57.551009;;-58.988397;;-60.362477;;-61.757121;;-63.272882;;-64.92774;;-66.605691;;-68.14227;;-69.478539;;-70.683663;;-71.835723;;-72.958504;;-74.072173;;-75.232295;;-76.504711;;-77.921178;;-79.443966;;-80.958226;;-82.313048;;-83.396526;;-84.190651;;-84.755936;;-85.173056;;-85.515518;;-85.846195;;-86.184078;;-86.482405;;-86.683239;;-86.783256;;-86.783256
-7.3002574;;-7.5741309;;-7.6002943;;-7.6837667;;-7.8491329;;-8.0652974;;-8.2667104;;-8.4033907;;-8.475604;;-8.5218456;;-8.578687;;-8.6667264;;-8.7923131;;-8.9491337;;-9.1455899;;-9.7405164;;-10.792678;;-12.238723;;-14.102289;;-16.435357;;-19.24939;;-22.563152;;-26.350419;;-30.481106;;-34.64076;;-38.314749;;-41.338885;;-43.945056;;-46.2914;;-48.431412;;-50.353838;;-52.049341;;-53.58117;;-55.059482;;-56.53803;;-57.9846;;-59.355955;;-60.665126;;-61.977785;;-63.374542;;-64.889285;;-66.457573;;-67.956288;;-69.318106;;-70.566344;;-71.740347;;-72.855826;;-73.948141;;-75.093374;;-76.362681;;-77.769515;;-79.256029;;-80.714055;;-82.022663;;-83.094617;;-83.91422;;-84.527327;;-84.997517;;-85.388652;;-85.760461;;-86.128647;;-86.442713;;-86.646565;;-86.744771;;-86.744772
-7.2083787;;-7.2083787;;-7.5335452;;-7.6395597;;-7.8107198;;-8.032814;;-8.2586192;;-8.4369623;;-8.5476901;;-8.6144338;;-8.6791696;;-8.774756;;-8.9105147;;-9.0713666;;-9.304908;;-10.069909;;-11.26111;;-12.858936;;-14.901368;;-17.436551;;-20.472601;;-24.025892;;-28.043348;;-32.334565;;-36.453943;;-39.746433;;-42.277546;;-44.483863;;-46.592574;;-48.655014;;-50.61994;;-52.416444;;-54.034209;;-55.533484;;-56.973503;;-58.363844;;-59.692931;;-60.966707;;-62.214121;;-63.485686;;-64.834468;;-66.260556;;-67.690986;;-69.049064;;-70.319555;;-71.528851;;-72.704649;;-73.880825;;-75.105102;;-76.410611;;-77.785398;;-79.179246;;-80.529167;;-81.770311;;-82.845622;;-83.72817;;-84.423312;;-84.950081;;-85.348426;;-85.689055;;-86.025105;;-86.336624;;-86.564688;;-86.686638;;-86.686638
-7.0652182;;-7.0652182;;-7.4317388;;-7.5827936;;-7.779215;;-8.0164526;;-8.2659832;;-8.4798842;;-8.6262518;;-8.7170472;;-8.7954488;;-8.8989071;;-9.0354604;;-9.1823353;;-9.4351179;;-10.279164;;-11.547398;;-13.231725;;-15.37546;;-18.020648;;-21.178149;;-24.859236;;-28.995036;;-33.361681;;-37.447104;;-40.581357;;-42.931792;;-44.973709;;-46.972936;;-49.001744;;-51.00183;;-52.868182;;-54.535695;;-56.024559;;-57.404224;;-58.728592;;-60.013047;;-61.247698;;-62.420321;;-63.557596;;-64.737102;;-66.01595;;-67.358898;;-68.685378;;-69.966014;;-71.2347;;-72.530971;;-73.865553;;-75.225547;;-76.585578;;-77.917757;;-79.206616;;-80.449962;;-81.635001;;-82.726424;;-83.68163;;-84.457817;;-85.016544;;-85.369059;;-85.614395;;-85.874916;;-86.179357;;-86.45381;;-86.620401;;-86.620401
-6.9021787;;-6.9021787;;-7.3133257;;-7.5163611;;-7.7482339;;-8.0054954;;-8.2770124;;-8.522521;;-8.7042268;;-8.8234288;;-8.9174583;;-9.0219008;;-9.1410483;;-9.2482045;;-9.4673638;;-10.318714;;-11.596031;;-13.288892;;-15.439601;;-18.085732;;-21.239475;;-24.910514;;-29.029068;;-33.376694;;-37.473166;;-40.73098;;-43.229173;;-45.354789;;-47.382544;;-49.418631;;-51.426647;;-53.306644;;-54.98276;;-56.457451;;-57.796467;;-59.065517;;-60.282767;;-61.418024;;-62.442272;;-63.40203;;-64.421457;;-65.586471;;-66.862831;;-68.170161;;-69.492472;;-70.874113;;-72.341324;;-73.860915;;-75.360711;;-76.775436;;-78.08211;;-79.304199;;-80.481906;;-81.631498;;-82.730682;;-83.728182;;-84.548983;;-85.115841;;-85.421249;;-85.583704;;-85.774113;;-86.059314;;-86.359717;;-86.557208;;-86.557208
-6.7764044;;-6.7764044;;-7.2251212;;-7.4704306;;-7.735001;;-8.0111594;;-8.2989113;;-8.567686;;-8.7790962;;-8.9249042;;-9.032076;;-9.1292702;;-9.2160552;;-9.2683104;;-9.4196547;;-10.233917;;-11.472462;;-13.117226;;-15.205894;;-17.772741;;-20.829189;;-24.386385;;-28.383982;;-32.635191;;-36.751457;;-40.264731;;-43.100499;;-45.480264;;-47.644375;;-49.728097;;-51.735333;;-53.604569;;-55.285703;;-56.777908;;-58.12072;;-59.350405;;-60.453221;;-61.372368;;-62.105777;;-62.803217;;-63.682291;;-64.819815;;-66.116484;;-67.473848;;-68.905892;;-70.4629;;-72.129445;;-73.819392;;-75.430915;;-76.899179;;-78.218876;;-79.430677;;-80.585055;;-81.706924;;-82.782216;;-83.764703;;-84.5838;;-85.164499;;-85.48812;;-85.648906;;-85.805659;;-86.044527;;-86.315338;;-86.50527;;-86.50527
-6.7168799;;-6.7168799;;-6.9146892;;-7.4613777;;-7.7488709;;-8.036983;;-8.3297729;;-8.6065747;;-8.8336086;;-8.9990411;;-9.119364;;-9.2128094;;-9.2745229;;-9.2876768;;-9.3706359;;-10.116028;;-11.288957;;-12.856919;;-14.849568;;-17.298829;;-20.21164;;-23.600953;;-27.41854;;-31.515448;;-35.600004;;-39.318347;;-42.497;;-45.190823;;-47.563377;;-49.749362;;-51.794583;;-53.692021;;-55.428062;;-56.995758;;-58.39299;;-59.602924;;-60.554778;;-61.155749;;-61.469237;;-61.829445;;-62.598679;;-63.813856;;-65.240677;;-66.72315;;-68.306287;;-70.05123;;-71.897535;;-73.716978;;-75.411771;;-76.943453;;-78.31486;;-79.554076;;-80.700787;;-81.779025;;-82.781846;;-83.689197;;-84.477987;;-85.105518;;-85.527113;;-85.763801;;-85.92029;;-86.098804;;-86.307211;;-86.467146;;-86.467146
-6.6909682;;-6.6909682;;-6.9031427;;-7.4676901;;-7.7714168;;-8.0641667;;-8.348983;;-8.6155404;;-8.8423596;;-9.0223813;;-9.1645331;;-9.2752168;;-9.3452185;;-9.3672974;;-9.4230326;;-10.041644;;-11.122933;;-12.594423;;-14.47144;;-16.786841;;-19.536735;;-22.732773;;-26.336945;;-30.232598;;-34.204699;;-37.991667;;-41.399947;;-44.374836;;-46.984335;;-49.330123;;-51.486114;;-53.495964;;-55.373746;;-57.097206;;-58.619287;;-59.8683;;-60.713695;;-61.031335;;-60.960604;;-61.023742;;-61.719126;;-63.035532;;-64.597716;;-66.181126;;-67.856495;;-69.709369;;-71.660718;;-73.564534;;-75.337784;;-76.95858;;-78.413427;;-79.69706;;-80.827869;;-81.823665;;-82.693293;;-83.475245;;-84.226104;;-84.93267;;-85.493868;;-85.837103;;-86.016176;;-86.155231;;-86.316342;;-86.452318;;-86.452318
-6.6449312;;-6.6449312;;-6.8677678;;-7.4468855;;-7.7674448;;-8.0658226;;-8.3346562;;-8.5794767;;-8.7988122;;-8.9955317;;-9.1735736;;-9.3286675;;-9.4489714;;-9.5348762;;-9.6466931;;-10.088444;;-11.033822;;-12.374131;;-14.105167;;-16.256683;;-18.827449;;-21.811484;;-25.179954;;-28.84272;;-32.641341;;-36.38192;;-39.89045;;-43.064862;;-45.895003;;-48.433051;;-50.760347;;-52.95585;;-55.051737;;-57.011459;;-58.750445;;-60.14793;;-61.033755;;-61.285241;;-61.098129;;-61.068385;;-61.722646;;-63.01846;;-64.54052;;-66.058869;;-67.671108;;-69.49183;;-71.454949;;-73.415617;;-75.287027;;-77.030179;;-78.59484;;-79.934388;;-81.036953;;-81.911441;;-82.602033;;-83.233699;;-83.945196;;-84.728386;;-85.412307;;-85.850171;;-86.06864;;-86.206082;;-86.350287;;-86.473406;;-86.473406
-6.5706129;;-6.5706129;;-6.7975064;;-7.3840434;;-7.7189519;;-8.0301184;;-8.2858818;;-8.5108416;;-8.727106;;-8.9463547;;-9.1686483;;-9.3835288;;-9.5799967;;-9.7624931;;-9.9792391;;-10.371115;;-11.127911;;-12.275988;;-13.807702;;-15.739176;;-18.097399;;-20.857346;;-23.988374;;-27.42451;;-31.048967;;-34.709684;;-38.252895;;-41.561771;;-44.577753;;-47.305795;;-49.815582;;-52.203424;;-54.520985;;-56.736883;;-58.746984;;-60.39104;;-61.483831;;-61.940197;;-61.976763;;-62.108409;;-62.746623;;-63.845519;;-65.093249;;-66.353365;;-67.756819;;-69.43677;;-71.352213;;-73.361439;;-75.345879;;-77.22028;;-78.8929;;-80.281634;;-81.346975;;-82.098766;;-82.630848;;-83.143492;;-83.816412;;-84.622536;;-85.350263;;-85.83282;;-86.092443;;-86.25763;;-86.407098;;-86.523423;;-86.523423
-6.4955282;;-6.4955282;;-6.7202579;;-7.3064562;;-7.6486726;;-7.9744395;;-8.2291935;;-8.4444044;;-8.6654842;;-8.9079076;;-9.1689998;;-9.4378471;;-9.7079687;;-9.9868508;;-10.311007;;-10.760342;;-11.426757;;-12.373032;;-13.661965;;-15.340046;;-17.436579;;-19.972391;;-22.907238;;-26.183212;;-29.709617;;-33.352887;;-36.959567;;-40.395667;;-43.570999;;-46.457381;;-49.106079;;-51.617091;;-54.067612;;-56.458265;;-58.691689;;-60.586024;;-61.957305;;-62.763407;;-63.201118;;-63.617728;;-64.252;;-65.079196;;-65.963353;;-66.906452;;-68.07033;;-69.590888;;-71.44409;;-73.484097;;-75.54933;;-77.504303;;-79.226831;;-80.619546;;-81.639239;;-82.317975;;-82.790534;;-83.27323;;-83.916445;;-84.663682;;-85.323242;;-85.776628;;-86.062253;;-86.274887;;-86.4532;;-86.575567;;-86.575567
-6.44512;;-6.44512;;-6.6670844;;-7.2519621;;-7.5984677;;-7.9366314;;-8.2002332;;-8.4132323;;-8.6402392;;-8.8968818;;-9.1788365;;-9.4794051;;-9.7995366;;-10.151277;;-10.561749;;-11.076541;;-11.736394;;-12.565328;;-13.630891;;-15.064226;;-16.942919;;-19.292141;;-22.119468;;-25.356635;;-28.917775;;-32.670657;;-36.436523;;-40.037367;;-43.348059;;-46.330356;;-49.035214;;-51.565831;;-54.023612;;-56.450585;;-58.775663;;-60.822112;;-62.421252;;-63.549553;;-64.347852;;-65.00624;;-65.638194;;-66.260185;;-66.88366;;-67.609009;;-68.60825;;-70.007852;;-71.788735;;-73.8004;;-75.853738;;-77.784903;;-79.463169;;-80.799933;;-81.774723;;-82.452207;;-82.977289;;-83.515905;;-84.139089;;-84.769748;;-85.286685;;-85.662623;;-85.962102;;-86.235117;;-86.464979;;-86.610497;;-86.610497
-6.4269769;;-6.4269769;;-6.64908;;-7.2362954;;-7.5880085;;-7.9375597;;-8.2114271;;-8.4206772;;-8.6462396;;-8.903842;;-9.1874018;;-9.4957898;;-9.8391788;;-10.233736;;-10.699866;;-11.260834;;-11.927213;;-12.694776;;-13.607376;;-14.859058;;-16.614198;;-18.899428;;-21.721428;;-25.050643;;-28.77403;;-32.756863;;-36.780144;;-40.586631;;-44.00014;;-46.997349;;-49.663278;;-52.120814;;-54.489949;;-56.839556;;-59.126367;;-61.20453;;-62.934757;;-64.283402;;-65.312196;;-66.107358;;-66.74333;;-67.289062;;-67.829197;;-68.487164;;-69.415334;;-70.722102;;-72.389824;;-74.277061;;-76.199453;;-77.998261;;-79.557001;;-80.809396;;-81.759507;;-82.486456;;-83.109914;;-83.720883;;-84.318554;;-84.830577;;-85.217083;;-85.530278;;-85.847723;;-86.177176;;-86.456661;;-86.62708;;-86.62708
-6.424833;;-6.424833;;-6.6485641;;-6.9605354;;-7.5967058;;-7.955765;;-8.2373296;;-8.4375571;;-8.6540495;;-8.9046671;;-9.1802058;;-9.4828984;;-9.8310266;;-10.244312;;-10.737343;;-11.317994;;-11.979293;;-12.699784;;-13.515695;;-14.680353;;-16.423548;;-18.750174;;-21.661617;;-25.14426;;-29.079752;;-33.333685;;-37.655426;;-41.701476;;-45.215899;;-48.18405;;-50.744738;;-53.064899;;-55.289522;;-57.502119;;-59.682726;;-61.72855;;-63.53099;;-65.024093;;-66.18747;;-67.05513;;-67.722716;;-68.308225;;-68.907368;;-69.608459;;-70.519471;;-71.726691;;-73.221549;;-74.893322;;-76.591953;;-78.189395;;-79.598213;;-80.774044;;-81.724793;;-82.507156;;-83.193805;;-83.823633;;-84.375881;;-84.808886;;-85.13693;;-85.441492;;-85.786258;;-86.147711;;-86.446264;;-86.623821;;-86.623821
-6.4066881;;-6.4066881;;-6.6291929;;-6.9402451;;-7.578715;;-7.9440252;;-8.2380206;;-8.4336131;;-8.6408846;;-8.8843992;;-9.1523969;;-9.4471474;;-9.7911166;;-10.206312;;-10.70279;;-11.27927;;-11.918313;;-12.592428;;-13.348365;;-14.515679;;-16.316918;;-18.726497;;-21.74942;;-25.376911;;-29.503106;;-34.002457;;-38.611521;;-42.920503;;-46.574172;;-49.531295;;-51.973331;;-54.124054;;-56.16944;;-58.216834;;-60.277828;;-62.29108;;-64.157372;;-65.761468;;-67.018836;;-67.95138;;-68.696167;;-69.402553;;-70.141972;;-70.940265;;-71.85023;;-72.940231;;-74.224567;;-75.638177;;-77.077847;;-78.454614;;-79.713173;;-80.823637;;-81.774802;;-82.575519;;-83.252845;;-83.834986;;-84.328542;;-84.729313;;-85.066364;;-85.403163;;-85.772164;;-86.134002;;-86.417674;;-86.582993;;-86.582993
-6.3560821;;-6.3560821;;-6.5723518;;-6.8759081;;-7.5106726;;-7.8794842;;-8.1960085;;-8.4051046;;-8.6101581;;-8.8497187;;-9.1142669;;-9.4041711;;-9.7405589;;-10.144809;;-10.625508;;-11.178126;;-11.781225;;-12.40923;;-13.138284;;-14.366314;;-16.237063;;-18.718388;;-21.82554;;-25.55179;;-29.811413;;-34.492087;;-39.335272;;-43.900326;;-47.740598;;-50.749679;;-53.119398;;-55.1198;;-56.983492;;-58.860595;;-60.811019;;-62.80665;;-64.732505;;-66.423029;;-67.761738;;-68.781605;;-69.647187;;-70.510949;;-71.407263;;-72.303147;;-73.206967;;-74.181539;;-75.269235;;-76.446022;;-77.649306;;-78.827351;;-79.951459;;-80.993139;;-81.9108;;-82.670895;;-83.280378;;-83.785625;;-84.230943;;-84.633272;;-85.006265;;-85.375815;;-85.747685;;-86.08512;;-86.339121;;-86.487422;;-86.487421
-6.2902228;;-6.2902228;;-6.4979493;;-6.7909453;;-7.4191817;;-7.7895422;;-8.1303912;;-8.368994;;-8.5800102;;-8.8191785;;-9.0847692;;-9.3747822;;-9.7024973;;-10.08425;;-10.529771;;-11.038021;;-11.593124;;-12.179485;;-12.919174;;-14.226083;;-16.149905;;-18.672907;;-21.821852;;-25.589897;;-29.91256;;-34.690976;;-39.682347;;-44.450631;;-48.499324;;-51.643611;;-54.0436;;-55.979624;;-57.717256;;-59.456309;;-61.310549;;-63.276216;;-65.221173;;-66.958485;;-68.37601;;-69.515215;;-70.525326;;-71.528112;;-72.528988;;-73.471364;;-74.351868;;-75.239046;;-76.189676;;-77.195777;;-78.22041;;-79.244979;;-80.259092;;-81.222724;;-82.067635;;-82.746235;;-83.274945;;-83.722368;;-84.149003;;-84.56758;;-84.965334;;-85.338574;;-85.685306;;-85.986575;;-86.215479;;-86.355433;;-86.355433
-6.2356054;;-6.2356054;;-6.4361926;;-6.7202692;;-7.3424526;;-7.7130309;;-8.0692311;;-8.338093;;-8.5608974;;-8.8046821;;-9.0765645;;-9.3714886;;-9.6900454;;-10.040199;;-10.433174;;-10.878838;;-11.374999;;-11.925442;;-12.709099;;-14.085814;;-16.040998;;-18.574717;;-21.722291;;-25.47172;;-29.777991;;-34.553604;;-39.578874;;-44.456926;;-48.709547;;-52.087544;;-54.666187;;-56.681206;;-58.403951;;-60.075482;;-61.852526;;-63.75105;;-65.649175;;-67.388058;;-68.886326;;-70.168822;;-71.317231;;-72.396775;;-73.409615;;-74.32707;;-75.168696;;-76.007322;;-76.887722;;-77.791753;;-78.69497;;-79.606504;;-80.52812;;-81.408801;;-82.17148;;-82.779915;;-83.268853;;-83.709294;;-84.147282;;-84.575603;;-84.966054;;-85.310203;;-85.616413;;-85.884178;;-86.098657;;-86.238469;;-86.238468
-6.1931613;;-6.1931613;;-6.3876342;;-6.6638935;;-7.2792413;;-7.6467997;;-8.0096202;;-8.3027861;;-8.54268;;-8.7975252;;-9.0796057;;-9.3808422;;-9.6898526;;-10.004835;;-10.339928;;-10.718175;;-11.154268;;-11.674336;;-12.516662;;-13.942588;;-15.910601;;-18.431478;;-21.543204;;-25.220387;;-29.435242;;-34.107311;;-39.046466;;-43.92748;;-48.356729;;-52.055591;;-54.96552;;-57.216949;;-59.053424;;-60.738796;;-62.459348;;-64.259153;;-66.064285;;-67.780753;;-69.359834;;-70.780287;;-72.027011;;-73.108204;;-74.054819;;-74.904066;;-75.70929;;-76.529422;;-77.376122;;-78.213228;;-79.026132;;-79.843927;;-80.677225;;-81.477233;;-82.180279;;-82.77206;;-83.292047;;-83.784089;;-84.25339;;-84.671342;;-85.01919;;-85.314366;;-85.584349;;-85.83256;;-86.039237;;-86.177687;;-86.177687
-6.1392435;;-6.1392435;;-6.3251476;;-6.5899895;;-6.9154706;;-7.552445;;-7.9178566;;-8.2361308;;-8.4995672;;-8.7664852;;-9.0554602;;-9.3583789;;-9.6577489;;-9.9452128;;-10.236009;;-10.563119;;-10.952982;;-11.450026;;-12.343205;;-13.798864;;-15.770059;;-18.272453;;-21.337061;;-24.925353;;-29.01711;;-33.532928;;-38.314029;;-43.12449;;-47.681864;;-51.709662;;-55.02176;;-57.610192;;-59.651748;;-61.406563;;-63.086305;;-64.784211;;-66.498112;;-68.197089;;-69.842333;;-71.355704;;-72.640539;;-73.672389;;-74.527716;;-75.311708;;-76.096596;;-76.907739;;-77.720235;;-78.491738;;-79.223545;;-79.957342;;-80.707054;;-81.43379;;-82.099275;;-82.7146;;-83.31569;;-83.90075;;-84.416198;;-84.812063;;-85.101288;;-85.349183;;-85.602581;;-85.850613;;-86.054956;;-86.188281;;-86.188281
-6.0637774;;-6.0637774;;-6.2374025;;-6.4856815;;-6.7930399;;-7.4157484;;-7.7793089;;-8.1210215;;-8.407513;;-8.6757125;;-8.9556483;;-9.2493864;;-9.5417193;;-9.8200678;;-10.095846;;-10.403711;;-10.771605;;-11.253746;;-12.181638;;-13.655646;;-15.63197;;-18.12996;;-21.167968;;-24.708522;;-28.7264;;-33.135441;;-37.791722;;-42.525747;;-47.144127;;-51.398999;;-55.039337;;-57.943559;;-60.199023;;-62.034524;;-63.685761;;-65.308831;;-66.967259;;-68.658604;;-70.328261;;-71.862961;;-73.13626;;-74.118522;;-74.913653;;-75.659988;;-76.428731;;-77.214258;;-77.973249;;-78.674935;;-79.338423;;-80.007547;;-80.689223;;-81.346536;;-81.96109;;-82.576223;;-83.243042;;-83.924793;;-84.502601;;-84.898258;;-85.158466;;-85.394721;;-85.663058;;-85.930414;;-86.140727;;-86.270701;;-86.270701
-5.9825776;;-5.9825776;;-6.1428378;;-6.3729204;;-6.6598417;;-7.2641918;;-7.6183365;;-7.9684466;;-8.2625666;;-8.5093676;;-8.7569942;;-9.0283487;;-9.3174755;;-9.6080909;;-9.9016006;;-10.222638;;-10.592033;;-11.070743;;-12.035361;;-13.532633;;-15.528494;;-18.048335;;-21.107413;;-24.676601;;-28.729389;;-33.169951;;-37.834944;;-42.549079;;-47.157503;;-51.467317;;-55.245102;;-58.324779;;-60.719893;;-62.615256;;-64.259032;;-65.853588;;-67.493412;;-69.166547;;-70.798582;;-72.28572;;-73.527809;;-74.500744;;-75.292043;;-76.024089;;-76.757561;;-77.483272;;-78.171666;;-78.816162;;-79.443717;;-80.083082;;-80.719892;;-81.302858;;-81.81873;;-82.351086;;-83.003119;;-83.740933;;-84.392886;;-84.842033;;-85.14486;;-85.429612;;-85.743307;;-86.036963;;-86.253182;;-86.380196;;-86.380196
-5.9155171;;-5.9155171;;-6.064228;;-6.278264;;-6.546319;;-7.1312069;;-7.4685622;;-7.8060636;;-8.0825495;;-8.2838815;;-8.482842;;-8.7246108;;-9.0122039;;-9.3275461;;-9.6592811;;-10.0146;;-10.400146;;-10.898235;;-11.927548;;-13.470499;;-15.512854;;-18.09103;;-21.224063;;-24.896262;;-29.085808;;-33.688938;;-38.49991;;-43.261874;;-47.799216;;-51.997231;;-55.707654;;-58.789217;;-61.225454;;-63.165127;;-64.843309;;-66.461574;;-68.101687;;-69.728381;;-71.269266;;-72.66853;;-73.878906;;-74.876606;;-75.699642;;-76.423996;;-77.100898;;-77.744355;;-78.362826;;-78.977406;;-79.610638;;-80.259847;;-80.876956;;-81.385284;;-81.765259;;-82.139776;;-82.686561;;-83.413699;;-84.127019;;-84.667505;;-85.067706;;-85.434636;;-85.792709;;-86.091399;;-86.29417;;-86.409803;;-86.409803
-5.868431;;-5.868431;;-6.0079399;;-6.2087811;;-6.4603694;;-7.0260705;;-7.3420274;;-7.6530178;;-7.8883487;;-8.0323695;;-8.1832048;;-8.3992992;;-8.6868817;;-9.0263069;;-9.3983733;;-9.7925193;;-10.200332;;-10.760465;;-11.880582;;-13.492445;;-15.605931;;-18.271441;;-21.511912;;-25.32752;;-29.700419;;-34.518512;;-39.529275;;-44.358813;;-48.772095;;-52.752982;;-56.270682;;-59.246888;;-61.675233;;-63.679382;;-65.448656;;-67.132789;;-68.77538;;-70.334257;;-71.769072;;-73.07982;;-74.260279;;-75.279188;;-76.127161;;-76.838246;;-77.460087;;-78.035608;;-78.608587;;-79.218539;;-79.877759;;-80.552851;;-81.164533;;-81.615463;;-81.879462;;-82.101172;;-82.511721;;-83.17033;;-83.894538;;-84.499966;;-84.978129;;-85.395247;;-85.754688;;-86.019644;;-86.18618;;-86.282873;;-86.282873
-5.8307468;;-5.8307468;;-5.9619187;;-6.1506031;;-6.3865718;;-6.9331212;;-7.2264642;;-7.5069436;;-7.6956499;;-7.7926008;;-7.9125744;;-8.1152385;;-8.4034378;;-8.7569458;;-9.1547699;;-9.5768491;;-10.007829;;-10.67024;;-11.872271;;-13.55104;;-15.734578;;-18.484603;;-21.826485;;-25.774195;;-30.311276;;-35.316537;;-40.495305;;-45.356176;;-49.605284;;-53.348027;;-56.666469;;-59.543703;;-61.992072;;-64.106468;;-66.006654;;-67.76971;;-69.410231;;-70.90947;;-72.271284;;-73.527716;;-74.683549;;-75.700307;;-76.5482;;-77.242924;;-77.834141;;-78.382755;;-78.945263;;-79.557449;;-80.218599;;-80.884032;;-81.469999;;-81.8813;;-82.093502;;-82.245654;;-82.567882;;-83.14165;;-83.817402;;-84.416461;;-84.900862;;-85.303102;;-85.619374;;-85.833307;;-85.965888;;-86.050701;;-86.0507
-5.7885965;;-5.7885965;;-5.9104049;;-6.0856682;;-6.3048637;;-6.5567392;;-7.1041212;;-7.361663;;-7.5264615;;-7.6043969;;-7.7153232;;-7.9142066;;-8.1993072;;-8.5511516;;-8.9525301;;-9.3835464;;-9.8331515;;-10.581897;;-11.828563;;-13.540919;;-15.758762;;-18.55093;;-21.944429;;-25.962219;;-30.588973;;-35.698282;;-40.967769;;-45.814078;;-49.90529;;-53.476352;;-56.69507;;-59.575172;;-62.122275;;-64.385036;;-66.413634;;-68.236305;;-69.873141;;-71.348191;;-72.694888;;-73.942498;;-75.086321;;-76.091511;;-76.933755;;-77.626184;;-78.217505;;-78.772734;;-79.341548;;-79.936862;;-80.541424;;-81.121544;;-81.622621;;-81.975786;;-82.169414;;-82.32852;;-82.645867;;-83.182325;;-83.806221;;-84.360283;;-84.802494;;-85.156769;;-85.427885;;-85.615489;;-85.745116;;-85.836765;;-85.836765
-5.7412284;;-5.7412284;;-5.8522311;;-6.0125994;;-6.2141467;;-6.4481543;;-6.9785658;;-7.2268226;;-7.404613;;-7.4985985;;-7.6175883;;-7.8124389;;-8.0818532;;-8.4137544;;-8.7986289;;-9.2209466;;-9.674249;;-10.446083;;-11.687573;;-13.383123;;-15.578293;;-18.3443;;-21.711495;;-25.706558;;-30.318519;;-35.426161;;-40.705871;;-45.535689;;-49.549148;;-53.076951;;-56.341052;;-59.354372;;-62.082841;;-64.512659;;-66.643647;;-68.498766;;-70.136234;;-71.62091;;-72.9913;;-74.25415;;-75.395365;;-76.397501;;-77.25354;;-77.97249;;-78.588405;;-79.156706;;-79.716497;;-80.260003;;-80.757059;;-81.190067;;-81.536871;;-81.75618;;-81.867112;;-82.025611;;-82.412241;;-83.029103;;-83.695801;;-84.247868;;-84.659139;;-84.977376;;-85.232304;;-85.433051;;-85.591167;;-85.703841;;-85.703841
-5.7015744;;-5.7015744;;-5.8007857;;-5.946672;;-6.1324911;;-6.3531073;;-6.8728328;;-7.1229375;;-7.334211;;-7.4671523;;-7.5987839;;-7.7815194;;-8.0249022;;-8.3281425;;-8.6885973;;-9.0936713;;-9.5313633;;-10.256853;;-11.443946;;-13.074169;;-15.191272;;-17.865478;;-21.133474;;-25.02107;;-29.526205;;-34.544468;;-39.781764;;-44.645685;;-48.713974;;-52.329661;;-55.752322;;-58.986024;;-61.945165;;-64.551234;;-66.77304;;-68.65435;;-70.298656;;-71.800575;;-73.194262;;-74.466558;;-75.601712;;-76.604873;;-77.487347;;-78.250121;;-78.901307;;-79.475351;;-80.004066;;-80.477656;;-80.864042;;-81.145387;;-81.293066;;-81.267605;;-81.153719;;-81.232357;;-81.741846;;-82.591565;;-83.453322;;-84.094664;;-84.51472;;-84.816909;;-85.072969;;-85.301773;;-85.495828;;-85.630075;;-85.630075
-5.6809745;;-5.6809745;;-5.7683477;;-5.9032743;;-6.0785011;;-6.2914228;;-6.806214;;-7.0603744;;-7.2945839;;-7.4582642;;-7.5947677;;-7.7634396;;-7.9859672;;-8.2696364;;-8.612987;;-9.0024283;;-9.4171287;;-10.037428;;-11.127523;;-12.652569;;-14.648613;;-17.181587;;-20.29826;;-24.019812;;-28.356551;;-33.231005;;-38.402821;;-43.366898;;-47.637254;;-51.452663;;-55.094169;;-58.573399;;-61.7708;;-64.557715;;-66.88154;;-68.804257;;-70.463174;;-71.976717;;-73.381673;;-74.653045;;-75.771768;;-76.75899;;-77.644957;;-78.431204;;-79.106887;;-79.684768;;-80.189932;;-80.619914;;-80.945107;;-81.12378;;-81.076077;;-80.740942;;-80.300311;;-80.230976;;-80.880562;;-82.046918;;-83.193703;;-83.979862;;-84.431282;;-84.723506;;-84.97788;;-85.226409;;-85.447204;;-85.597593;;-85.597593
-5.6739696;;-5.6739696;;-5.7536176;;-5.8829735;;-6.0530357;;-6.2615154;;-6.7731105;;-7.0265547;;-7.2631397;;-7.4287927;;-7.5588266;;-7.7211564;;-7.941719;;-8.2247338;;-8.56312;;-8.9416155;;-9.337168;;-9.8260562;;-10.772279;;-12.156906;;-13.998625;;-16.353469;;-19.281351;;-22.797189;;-26.924013;;-31.61745;;-36.704532;;-41.799214;;-46.398622;;-50.520206;;-54.42144;;-58.144835;;-61.569576;;-64.5393;;-66.98284;;-68.970079;;-70.662524;;-72.20201;;-73.630171;;-74.906342;;-75.998379;;-76.937106;;-77.776316;;-78.534251;;-79.201755;;-79.784503;;-80.300324;;-80.743407;;-81.075974;;-81.225025;;-81.057783;;-80.49304;;-79.792738;;-79.589008;;-80.319899;;-81.705635;;-83.056072;;-83.945365;;-84.417294;;-84.702279;;-84.958357;;-85.226021;;-85.47271;;-85.640421;;-85.640421
-5.6702335;;-5.6702335;;-5.7425367;;-5.8668092;;-6.0318464;;-6.2347791;;-6.4654659;;-6.9880994;;-7.2168282;;-7.3700134;;-7.4930252;;-7.6616684;;-7.8973481;;-8.192521;;-8.5319276;;-8.8990474;;-9.2783797;;-9.6779623;;-10.41379;;-11.627283;;-13.290959;;-15.443551;;-18.149482;;-21.433223;;-25.31962;;-29.799439;;-34.767552;;-39.958549;;-44.93369;;-49.457063;;-53.665051;;-57.640742;;-61.295434;;-64.463964;;-67.055184;;-69.141418;;-70.908374;;-72.516042;;-73.997556;;-75.28662;;-76.337781;;-77.195975;;-77.943403;;-78.622832;;-79.24384;;-79.824583;;-80.379637;;-80.882926;;-81.274031;;-81.46517;;-81.31646;;-80.746778;;-80.020383;;-79.771825;;-80.449499;;-81.789727;;-83.110029;;-83.979893;;-84.440299;;-84.72726;;-85.003917;;-85.307091;;-85.59192;;-85.78438;;-85.78438
-5.6661145;;-5.6661145;;-5.7177448;;-5.8289122;;-5.9812301;;-6.170743;;-6.3891902;;-6.9011867;;-7.1260732;;-7.2852032;;-7.4156242;;-7.5973405;;-7.8466688;;-8.1490038;;-8.4842866;;-8.8409609;;-9.2121816;;-9.5910382;;-10.10952;;-11.127144;;-12.597364;;-14.538945;;-17.006991;;-20.050996;;-23.686091;;-27.931843;;-32.739654;;-37.942386;;-43.205696;;-48.148102;;-52.693172;;-56.937074;;-60.849031;;-64.268767;;-67.074947;;-69.327289;;-71.226587;;-72.939295;;-74.480787;;-75.766894;;-76.756945;;-77.518802;;-78.158538;;-78.73897;;-79.293586;;-79.86462;;-80.468714;;-81.052864;;-81.528934;;-81.815459;;-81.813202;;-81.459454;;-80.942712;;-80.747102;;-81.247263;;-82.282621;;-83.338078;;-84.06454;;-84.482654;;-84.781127;;-85.09355;;-85.440769;;-85.765803;;-85.982404;;-85.982404
-5.6644028;;-5.6644028;;-5.6827933;;-5.7683972;;-5.8978085;;-6.0643326;;-6.2634339;;-6.7592331;;-6.9841911;;-7.1742276;;-7.3275866;;-7.5074037;;-7.7378253;;-8.0078092;;-8.3178074;;-8.6794166;;-9.0787372;;-9.4927856;;-9.9364067;;-10.728513;;-12.00506;;-13.745984;;-15.989663;;-18.799166;;-22.196398;;-26.206062;;-30.819335;;-35.936884;;-41.315884;;-46.566735;;-51.423663;;-55.934103;;-60.13315;;-63.88199;;-67.01266;;-69.527124;;-71.603056;;-73.407372;;-74.963643;;-76.208775;;-77.130306;;-77.812634;;-78.366487;;-78.865646;;-79.36777;;-79.937173;;-80.591625;;-81.257441;;-81.826613;;-82.229719;;-82.417565;;-82.35289;;-82.129258;;-82.033414;;-82.328041;;-82.968922;;-83.664297;;-84.191054;;-84.552249;;-84.86555;;-85.211682;;-85.587376;;-85.929209;;-86.152587;;-86.152587
-5.6639117;;-5.6639117;;-5.6678518;;-5.7086918;;-5.8087693;;-5.9490084;;-6.1243713;;-6.3274449;;-6.8239442;;-7.0419615;;-7.2243056;;-7.3749399;;-7.5347925;;-7.7232212;;-7.9872759;;-8.3515445;;-8.8028983;;-9.3039043;;-9.8163513;;-10.465015;;-11.571055;;-13.135775;;-15.187748;;-17.783802;;-20.972201;;-24.764384;;-29.174385;;-34.144928;;-39.498436;;-44.898203;;-49.991224;;-54.732201;;-59.205835;;-63.317883;;-66.847717;;-69.682872;;-71.925169;;-73.75235;;-75.254595;;-76.439209;;-77.326344;;-77.987375;;-78.51094;;-78.977859;;-79.470895;;-80.063586;;-80.764262;;-81.49087;;-82.134599;;-82.634754;;-82.968413;;-83.116559;;-83.113082;;-83.102506;;-83.252077;;-83.587936;;-83.988225;;-84.341908;;-84.650748;;-84.975306;;-85.34404;;-85.726977;;-86.058844;;-86.269498;;-86.269498
-5.6636884;;-5.6636884;;-5.6649154;;-5.6744916;;-5.736403;;-5.8501922;;-6.002476;;-6.1892116;;-6.4010241;;-6.9017501;;-7.1038971;;-7.2215188;;-7.2860904;;-7.3905213;;-7.6152548;;-7.9682319;;-8.4357123;;-8.997996;;-9.6136483;;-10.297341;;-11.295563;;-12.731306;;-14.638426;;-17.069972;;-20.092335;;-23.717423;;-27.962608;;-32.797518;;-38.088495;;-43.551039;;-48.807087;;-53.710152;;-58.366495;;-62.74741;;-66.601436;;-69.691142;;-72.023877;;-73.803928;;-75.226442;;-76.384747;;-77.311138;;-78.031883;;-78.596697;;-79.093069;;-79.626211;;-80.263666;;-80.993516;;-81.736872;;-82.406174;;-82.95157;;-83.35072;;-83.583545;;-83.659908;;-83.667591;;-83.737588;;-83.931994;;-84.202798;;-84.480978;;-84.764022;;-85.091729;;-85.471864;;-85.856478;;-86.175457;;-86.371387;;-86.371387
-5.6636078;;-5.6636078;;-5.6639075;;-5.6660217;;-5.6871899;;-5.7738602;;-5.9040105;;-6.0703873;;-6.2661335;;-6.4770847;;-6.954688;;-7.0629094;;-7.0414125;;-7.069573;;-7.2690918;;-7.6140185;;-8.081147;;-8.6610082;;-9.3331153;;-10.112469;;-11.12987;;-12.520885;;-14.355975;;-16.700462;;-19.628767;;-23.173415;;-27.346543;;-32.132426;;-37.421937;;-42.95605;;-48.331194;;-53.300952;;-57.972439;;-62.3917;;-66.325026;;-69.477174;;-71.801925;;-73.52648;;-74.917422;;-76.117053;;-77.149907;;-77.995814;;-78.666349;;-79.245703;;-79.846822;;-80.526186;;-81.2575;;-81.975017;;-82.621268;;-83.159307;;-83.554476;;-83.765077;;-83.782434;;-83.698036;;-83.690984;;-83.882756;;-84.222168;;-84.573399;;-84.884759;;-85.207913;;-85.581852;;-85.965381;;-86.280429;;-86.47023;;-86.47023
-5.6635893;;-5.6635893;;-5.6636342;;-5.6640261;;-5.6674958;;-5.71111;;-5.8122468;;-5.9509926;;-6.1202975;;-6.3061762;;-6.4852527;;-6.8687484;;-6.8157176;;-6.788556;;-6.9876703;;-7.3280953;;-7.7886805;;-8.3685393;;-9.0659296;;-9.9187109;;-11.016063;;-12.447821;;-14.298356;;-16.648862;;-19.584673;;-23.151369;;-27.367655;;-32.221916;;-37.609342;;-43.26251;;-48.719925;;-53.636259;;-58.12419;;-62.308314;;-66.031079;;-69.042642;;-71.304486;;-73.029882;;-74.471565;;-75.765778;;-76.931621;;-77.931405;;-78.748303;;-79.441259;;-80.109611;;-80.807686;;-81.51964;;-82.200668;;-82.81171;;-83.317721;;-83.668856;;-83.794843;;-83.658671;;-83.377454;;-83.244497;;-83.494983;;-84.045541;;-84.603196;;-85.004551;;-85.320021;;-85.660268;;-86.01997;;-86.321213;;-86.503336;;-86.503336
-5.6635873;;-5.6635873;;-5.6635906;;-5.6636398;;-5.6643872;;-5.6729112;;-5.731791;;-5.8368291;;-5.9738709;;-6.1300264;;-6.2825502;;-6.3765029;;-6.5972057;;-6.5622301;;-6.7711387;;-6.8229273;;-7.267864;;-7.8418996;;-8.8445009;;-9.7544618;;-10.921444;;-12.422757;;-14.342627;;-16.769426;;-19.787005;;-23.44578;;-27.780777;;-32.780846;;-38.333718;;-44.141631;;-49.650638;;-54.404588;;-58.548788;;-62.301919;;-65.633746;;-68.411765;;-70.626836;;-72.430095;;-73.993578;;-75.415108;;-76.718053;;-77.87276;;-78.843535;;-79.650857;;-80.370329;;-81.068232;;-81.760676;;-82.423989;;-83.016597;;-83.49051;;-83.787773;;-83.824694;;-83.536812;;-83.052115;;-82.770562;;-83.053376;;-83.802896;;-84.574706;;-85.080201;;-85.38878;;-85.674279;;-85.977183;;-86.23602;;-86.395838;;-86.395838
-5.6635872;;-5.6635872;;-5.6635873;;-5.6635921;;-5.6637803;;-5.6657491;;-5.6802169;;-5.7427201;;-5.8433687;;-5.966974;;-6.0918695;;-6.1708117;;-6.1239116;;-6.1174398;;-6.3236644;;-6.642926;;-7.0764287;;-7.6462019;;-8.6616847;;-9.6013911;;-10.805732;;-12.353745;;-14.33242;;-16.830825;;-19.921335;;-23.669004;;-28.119431;;-33.265398;;-38.990092;;-44.967948;;-50.538491;;-55.081641;;-58.802857;;-62.060515;;-64.983284;;-67.559555;;-69.789982;;-71.738582;;-73.480426;;-75.065049;;-76.514656;;-77.811786;;-78.913647;;-79.812822;;-80.568671;;-81.265141;;-81.950266;;-82.612662;;-83.19827;;-83.646547;;-83.90759;;-83.910721;;-83.580604;;-83.024182;;-82.658614;;-82.900545;;-83.679962;;-84.516644;;-85.064895;;-85.365553;;-85.598097;;-85.827285;;-86.021371;;-86.145886;;-86.145886
-5.6635872;;-5.6635872;;-5.6635872;;-5.6635877;;-5.6636237;;-5.6640724;;-5.6670789;;-5.6833781;;-5.7416056;;-5.8303409;;-5.9261099;;-5.9874075;;-5.9504216;;-5.987257;;-6.1900748;;-6.4967501;;-6.9148795;;-7.4689781;;-8.4729187;;-9.4042697;;-10.598031;;-12.135378;;-14.106303;;-16.596857;;-19.682893;;-23.438215;;-27.917567;;-33.124357;;-38.953382;;-45.082274;;-50.789857;;-55.205099;;-58.559602;;-61.401979;;-64.007801;;-66.459204;;-68.758518;;-70.89666;;-72.860635;;-74.640963;;-76.241988;;-77.65729;;-78.854987;;-79.82241;;-80.612254;;-81.317767;;-82.002921;;-82.661974;;-83.238021;;-83.673944;;-83.938514;;-83.987798;;-83.755483;;-83.307971;;-82.979188;;-83.136512;;-83.763547;;-84.480931;;-84.983239;;-85.268158;;-85.46078;;-85.620798;;-85.748468;;-85.836518;;-85.836518
-5.6635872;;-5.6635872;;-5.6635872;;-5.6635872;;-5.6635908;;-5.6636522;;-5.6642085;;-5.6671671;;-5.6801024;;-5.727272;;-5.7934205;;-5.8377446;;-5.8107709;;-5.8787191;;-6.0707725;;-6.3558206;;-6.7452141;;-7.2637296;;-7.9459608;;-9.107987;;-10.242842;;-11.704426;;-13.585413;;-15.973385;;-18.94581;;-22.582535;;-26.947398;;-32.061034;;-37.847807;;-44.034807;;-49.955732;;-54.507172;;-57.740621;;-60.373832;;-62.791512;;-65.158728;;-67.521541;;-69.845257;;-72.039483;;-74.020355;;-75.761756;;-77.271265;;-78.543095;;-79.574104;;-80.411026;;-81.14147;;-81.82997;;-82.478201;;-83.045841;;-83.495567;;-83.810056;;-83.962344;;-83.904798;;-83.670276;;-83.473271;;-83.572549;;-83.994417;;-84.513566;;-84.917306;;-85.170898;;-85.332439;;-85.444979;;-85.530641;;-85.595648;;-85.595648
-5.6635872;;-5.6635872;;-5.6635872;;-5.6635872;;-5.6635873;;-5.6635909;;-5.6636555;;-5.6640994;;-5.6657871;;-5.6716777;;-5.6989503;;-5.7261984;;-5.709698;;-5.7828755;;-5.9557911;;-6.2109363;;-6.5606027;;-7.0282262;;-7.646063;;-8.7297786;;-9.7666486;;-11.103344;;-12.829084;;-15.032652;;-17.792272;;-21.18828;;-25.293372;;-30.146586;;-35.711379;;-41.794388;;-47.876228;;-52.871553;;-56.348294;;-59.040242;;-61.402912;;-63.695548;;-66.071726;;-68.527322;;-70.91628;;-73.083935;;-74.969994;;-76.586465;;-77.946918;;-79.058087;;-79.960987;;-80.732726;;-81.433405;;-82.074895;;-82.64529;;-83.134495;;-83.529748;;-83.80286;;-83.921789;;-83.906724;;-83.877033;;-83.982732;;-84.260242;;-84.605412;;-84.900252;;-85.109783;;-85.257191;;-85.368931;;-85.459854;;-85.52746;;-85.52746
-5.6635872;;-5.6635872;;-5.6635872;;-5.6635872;;-5.6635872;;-5.6635873;;-5.6635912;;-5.6636257;;-5.6637688;;-5.6641228;;-5.6649963;;-5.6672938;;-5.6658585;;-5.7075458;;-5.8520027;;-6.0715315;;-6.3758345;;-6.7855226;;-7.3293355;;-8.0444295;;-9.2380432;;-10.426875;;-11.964586;;-13.936716;;-16.423401;;-19.501565;;-23.248092;;-27.717375;;-32.908896;;-38.708422;;-44.760108;;-50.241077;;-54.260678;;-57.244757;;-59.705365;;-61.991511;;-64.375165;;-66.911722;;-69.445963;;-71.794459;;-73.869079;;-75.655169;;-77.151861;;-78.36642;;-79.344741;;-80.1668;;-80.893712;;-81.545141;;-82.132962;;-82.672484;;-83.153792;;-83.541679;;-83.813131;;-83.985721;;-84.116148;;-84.267969;;-84.464131;;-84.6755;;-84.867117;;-85.039974;;-85.213075;;-85.384019;;-85.526825;;-85.616632;;-85.616632
-5.6635872;;-5.6635872;;-5.6635872;;-5.6635872;;-5.6635872;;-5.6635872;;-5.6635872;;-5.6635875;;-5.6635887;;-5.6635915;;-5.6635964;;-5.663604;;-5.6636024;;-5.6677193;;-5.7677329;;-5.9470795;;-6.2050634;;-6.5569398;;-7.0269158;;-7.64737;;-8.7204703;;-9.7599803;;-11.105234;;-12.836487;;-15.034527;;-17.77188;;-21.1252;;-25.15789;;-29.896497;;-35.28916;;-41.114683;;-46.81838;;-51.438156;;-54.850983;;-57.571377;;-60.000208;;-62.462517;;-65.067267;;-67.711322;;-70.244281;;-72.558828;;-74.577974;;-76.251003;;-77.579827;;-78.632496;;-79.510212;;-80.282645;;-80.972117;;-81.599551;;-82.194271;;-82.754006;;-83.246297;;-83.652934;;-83.979482;;-84.232303;;-84.415573;;-84.542043;;-84.636154;;-84.73762;;-84.896921;;-85.134696;;-85.401934;;-85.614834;;-85.728581;;-85.72858
-5.6635872;;-5.6635872;;-5.6635872;;-5.6635872;;-5.6635872;;-5.6635872;;-5.6635872;;-5.6635872;;-5.6635872;;-5.6635872;;-5.6635872;;-5.6635873;;-5.6635874;;-5.6636784;;-5.7011993;;-5.8429373;;-6.0592133;;-6.3592523;;-6.7631066;;-7.2987356;;-8.2644041;;-9.169856;;-10.341271;;-11.852807;;-13.783432;;-16.204069;;-19.187449;;-22.801174;;-27.090135;;-32.046408;;-37.543037;;-43.21351;;-48.284328;;-52.167348;;-55.23293;;-57.900631;;-60.487122;;-63.151518;;-65.890179;;-68.615335;;-71.189748;;-73.452966;;-75.29881;;-76.734122;;-77.861102;;-78.805905;;-79.646898;;-80.40713;;-81.1046;;-81.7682;;-82.405254;;-82.997959;;-83.52692;;-83.967509;;-84.282744;;-84.452816;;-84.503225;;-84.498742;;-84.531002;;-84.69031;;-84.997012;;-85.356345;;-85.630385;;-85.761679;;-85.761678
-5.6635872;;-5.6635872;;-5.6635872;;-5.6635872;;-5.6635872;;-5.6635872;;-5.6635872;;-5.6635872;;-5.6635872;;-5.6635872;;-5.6635872;;-5.6635872;;-5.6635872;;-5.6635919;;-5.6673775;;-5.7656388;;-5.9439267;;-6.2006766;;-6.5507227;;-7.0178338;;-7.8978195;;-8.6964807;;-9.7295279;;-11.065354;;-12.77765;;-14.941213;;-17.624224;;-20.895947;;-24.813845;;-29.3995;;-34.587449;;-40.134319;;-45.470148;;-49.787132;;-53.141132;;-55.974769;;-58.622672;;-61.320185;;-64.166342;;-67.104167;;-69.933201;;-72.409479;;-74.395868;;-75.923586;;-77.127197;;-78.144771;;-79.059016;;-79.899725;;-80.682293;;-81.42659;;-82.145528;;-82.835092;;-83.465648;;-83.973941;;-84.296922;;-84.429441;;-84.427253;;-84.373166;;-84.371204;;-84.530129;;-84.875028;;-85.284078;;-85.584471;;-85.716041;;-85.716041
-5.6635872;;-5.6635872;;-5.6635872;;-5.6635872;;-5.6635872;;-5.6635872;;-5.6635872;;-5.6635872;;-5.6635872;;-5.6635872;;-5.6635872;;-5.6635872;;-5.6635872;;-5.663588;;-5.6638118;;-5.7110561;;-5.8596483;;-6.0841042;;-6.39458;;-6.8118929;;-7.3647883;;-8.352286;;-9.2903101;;-10.503037;;-12.058629;;-14.03699;;-16.505517;;-19.533137;;-23.185887;;-27.504359;;-32.461989;;-37.891922;;-43.356682;;-48.012929;;-51.524226;;-54.372076;;-56.996262;;-59.728375;;-62.722305;;-65.893431;;-68.957992;;-71.609578;;-73.707832;;-75.315211;;-76.584269;;-77.650703;;-78.60312;;-79.490219;;-80.333773;;-81.144309;;-81.932531;;-82.697702;;-83.393902;;-83.929877;;-84.240979;;-84.355619;;-84.36035;;-84.333096;;-84.353135;;-84.51364;;-84.832245;;-85.178986;;-85.388252;;-85.445453;;-85.445452
-5.6635872;;-5.6635872;;-5.6635872;;-5.6635872;;-5.6635872;;-5.6635872;;-5.6635872;;-5.6635872;;-5.6635872;;-5.6635872;;-5.6635872;;-5.6635872;;-5.6635872;;-5.6635874;;-5.6636222;;-5.6789065;;-5.8040675;;-6.004599;;-6.2874055;;-6.6708698;;-7.1813923;;-8.1180774;;-8.9953643;;-10.129413;;-11.580965;;-13.432392;;-15.754091;;-18.614406;;-22.085235;;-26.218909;;-31.012467;;-36.344527;;-41.857033;;-46.757587;;-50.363261;;-53.171481;;-55.782525;;-58.59721;;-61.762478;;-65.14002;;-68.385833;;-71.164599;;-73.343654;;-75.003867;;-76.300239;;-77.363852;;-78.296154;;-79.171553;;-80.023795;;-80.857645;;-81.676883;;-82.474294;;-83.191582;;-83.730889;;-84.04246;;-84.181394;;-84.249651;;-84.311996;;-84.400711;;-84.538681;;-84.678245;;-84.687023;;-84.499135;;-84.279947;;-84.279946
-5.6635872;;-5.6635872;;-5.6635872;;-5.6635872;;-5.6635872;;-5.6635872;;-5.6635872;;-5.6635872;;-5.6635872;;-5.6635872;;-5.6635872;;-5.6635872;;-5.6635872;;-5.6635873;;-5.6635939;;-5.6671945;;-5.7673383;;-5.9494634;;-6.212786;;-6.5729213;;-7.0544828;;-7.6902763;;-8.5218976;;-9.6007631;;-11.25544;;-13.023569;;-15.243239;;-17.987501;;-21.334103;;-25.342934;;-30.025903;;-35.291355;;-40.837134;;-45.949752;;-49.70902;;-52.549662;;-55.217942;;-58.137096;;-61.422172;;-64.905387;;-68.230387;;-71.06052;;-73.265211;;-74.925707;;-76.194322;;-77.205036;;-78.074269;;-78.894772;;-79.709362;;-80.521433;;-81.328116;;-82.112936;;-82.814661;;-83.348215;;-83.68042;;-83.868814;;-84.007545;;-84.151315;;-84.283988;;-84.293213;;-83.970463;;-83.172874;;-82.080184;;-81.254523;;-81.254523
-5.6635872;;-5.6635872;;-5.6635872;;-5.6635872;;-5.6635872;;-5.6635872;;-5.6635872;;-5.6635872;;-5.6635872;;-5.6635872;;-5.6635872;;-5.6635872;;-5.6635872;;-5.6635872;;-5.6635881;;-5.6645352;;-5.742672;;-5.9122041;;-6.1625835;;-6.50743;;-6.9703127;;-7.5830579;;-8.386188;;-9.4299581;;-10.775467;;-12.764882;;-14.922814;;-17.596254;;-20.871144;;-24.812517;;-29.442348;;-34.690868;;-40.299542;;-45.632834;;-49.652371;;-52.625996;;-55.383232;;-58.349323;;-61.631;;-65.079189;;-68.365624;;-71.162473;;-73.328847;;-74.935347;;-76.1353;;-77.071065;;-77.866541;;-78.619271;;-79.376185;;-80.142588;;-80.910109;;-81.654976;;-82.323392;;-82.852289;;-83.216817;;-83.446477;;-83.601306;;-83.736617;;-83.814977;;-83.560127;;-82.51545;;-80.514705;;-78.11936;;-76.453785;;-76.453784
-5.6635872;;-5.6635872;;-5.6635872;;-5.6635872;;-5.6635872;;-5.6635872;;-5.6635872;;-5.6635872;;-5.6635872;;-5.6635872;;-5.6635872;;-5.6635872;;-5.6635872;;-5.6635872;;-5.6635873;;-5.6639249;;-5.7261909;;-5.8873342;;-6.1290023;;-6.4636517;;-6.9142741;;-7.5121203;;-8.2970798;;-9.5694967;;-10.637602;;-12.32587;;-14.719155;;-17.351657;;-20.587539;;-24.49667;;-29.108832;;-34.372015;;-40.063831;;-45.618025;;-49.974619;;-53.158629;;-56.004164;;-58.939293;;-62.100373;;-65.401043;;-68.567756;;-71.282325;;-73.381107;;-74.917553;;-76.047842;;-76.919253;;-77.652268;;-78.342691;;-79.043195;;-79.76143;;-80.481786;;-81.177458;;-81.810252;;-82.340008;;-82.737373;;-82.981841;;-83.081501;;-83.107002;;-83.055945;;-82.541755;;-80.859483;;-77.796025;;-74.258077;;-71.858124;;-71.858123
-5.6635872;;-5.6635872;;-5.6635872;;-5.6635872;;-5.6635872;;-5.6635872;;-5.6635872;;-5.6635872;;-5.6635872;;-5.6635872;;-5.6635872;;-5.6635872;;-5.6635872;;-5.6635872;;-5.6635872;;-5.6637126;;-5.7114421;;-5.8644534;;-6.0971594;;-6.4210015;;-6.8583371;;-7.4397227;;-8.4541861;;-9.4532182;;-10.742773;;-12.140135;;-14.489614;;-17.074753;;-20.263049;;-24.126971;;-28.704349;;-33.960589;;-39.708611;;-45.451751;;-50.177917;;-53.631689;;-56.582953;;-59.463671;;-62.459842;;-65.57669;;-68.613545;;-71.261437;;-73.322522;;-74.824757;;-75.922108;;-76.759094;;-77.447427;;-78.084373;;-78.733425;;-79.404464;;-80.074277;;-80.719604;;-81.322565;;-81.859846;;-82.286958;;-82.532976;;-82.560981;;-82.463636;;-82.321357;;-81.76709;;-79.989208;;-76.69563;;-72.868714;;-70.261898;;-70.261897
-5.6635872;;-5.6635872;;-5.6635872;;-5.6635872;;-5.6635872;;-5.6635872;;-5.6635872;;-5.6635872;;-5.6635872;;-5.6635872;;-5.6635872;;-5.6635872;;-5.6635872;;-5.6635872;;-5.6635872;;-5.6636213;;-5.6939441;;-5.8357565;;-6.0558001;;-6.364216;;-6.7822778;;-7.3393547;;-8.3235495;;-9.2846268;;-10.525772;;-12.116582;;-14.132792;;-16.64777;;-19.754802;;-23.530148;;-28.022072;;-33.214914;;-38.958701;;-44.82953;;-49.905112;;-53.640956;;-56.700961;;-59.539866;;-62.401079;;-65.384084;;-68.357547;;-71.013945;;-73.113277;;-74.648608;;-75.763574;;-76.597847;;-77.258094;;-77.845828;;-78.432143;;-79.028664;;-79.620001;;-80.2073;;-80.798646;;-81.368484;;-81.842805;;-82.119244;;-82.145547;;-82.030547;;-81.928066;;-81.605561;;-80.368629;;-77.877069;;-74.881334;;-72.829219;;-72.829219
-5.6635872;;-5.6635872;;-5.6635872;;-5.6635872;;-5.6635872;;-5.6635872;;-5.6635872;;-5.6635872;;-5.6635872;;-5.6635872;;-5.6635872;;-5.6635872;;-5.6635872;;-5.6635872;;-5.6635872;;-5.6635936;;-5.6765963;;-5.8017682;;-6.0048503;;-6.2933442;;-6.6865573;;-7.2120907;;-7.9059822;;-8.813645;;-10.242832;;-11.749184;;-13.671453;;-16.085824;;-19.074483;;-22.718262;;-27.074922;;-32.147134;;-37.821617;;-43.746474;;-49.111552;;-53.089013;;-56.202556;;-58.993754;;-61.781368;;-64.733832;;-67.753424;;-70.517167;;-72.739999;;-74.374669;;-75.54906;;-76.404829;;-77.052487;;-77.587563;;-78.065442;;-78.49655;;-78.914752;;-79.407774;;-80.030393;;-80.715266;;-81.314151;;-81.701354;;-81.846271;;-81.864728;;-81.926427;;-81.942716;;-81.462588;;-80.181251;;-78.486699;;-77.27916;;-77.27916
-5.6635872;;-5.6635872;;-5.6635872;;-5.6635872;;-5.6635872;;-5.6635872;;-5.6635872;;-5.6635872;;-5.6635872;;-5.6635872;;-5.6635872;;-5.6635872;;-5.6635872;;-5.6635872;;-5.6635872;;-5.6635881;;-5.6665686;;-5.7651126;;-5.9477319;;-6.2131951;;-6.5775807;;-7.0662653;;-7.7130967;;-8.5610571;;-9.914222;;-11.325451;;-13.134313;;-15.417975;;-18.255254;;-21.728955;;-25.903808;;-30.799505;;-36.338272;;-42.240174;;-47.823225;;-52.039186;;-55.159784;;-57.891921;;-60.661875;;-63.679395;;-66.841609;;-69.792528;;-72.201797;;-73.980208;;-75.239928;;-76.134267;;-76.781846;;-77.250926;;-77.544939;;-77.666362;;-77.755349;;-78.08192;;-78.79087;;-79.726229;;-80.590407;;-81.203993;;-81.574434;;-81.826927;;-82.097681;;-82.371509;;-82.422454;;-82.057526;;-81.416215;;-80.919427;;-80.919426
-5.6635872;;-5.6635872;;-5.6635872;;-5.6635872;;-5.6635872;;-5.6635872;;-5.6635872;;-5.6635872;;-5.6635872;;-5.6635872;;-5.6635872;;-5.6635872;;-5.6635872;;-5.6635872;;-5.6635872;;-5.6635873;;-5.6639371;;-5.726051;;-5.8861679;;-6.1260138;;-6.4579422;;-6.9048901;;-7.4981258;;-8.5310614;;-9.5421265;;-10.845045;;-12.519501;;-14.645245;;-17.297893;;-20.560129;;-24.502402;;-29.159878;;-34.489961;;-40.285763;;-46.003841;;-50.554419;;-53.764336;;-56.493078;;-59.296219;;-62.418894;;-65.75217;;-68.91493;;-71.536141;;-73.48139;;-74.843565;;-75.787612;;-76.435258;;-76.815292;;-76.868111;;-76.589472;;-76.25342;;-76.357357;;-77.168267;;-78.434117;;-79.671189;;-80.603948;;-81.25128;;-81.748483;;-82.19631;;-82.593127;;-82.844617;;-82.876992;;-82.748852;;-82.622641;;-82.622641
-5.6635872;;-5.6635872;;-5.6635872;;-5.6635872;;-5.6635872;;-5.6635872;;-5.6635872;;-5.6635872;;-5.6635872;;-5.6635872;;-5.6635872;;-5.6635872;;-5.6635872;;-5.6635872;;-5.6635872;;-5.6635872;;-5.6636128;;-5.6885949;;-5.824262;;-6.0361075;;-6.3331335;;-6.7355081;;-7.2714604;;-8.2303976;;-9.1476296;;-10.33337;;-11.861363;;-13.810186;;-16.2549;;-19.276095;;-22.949371;;-27.323671;;-32.388753;;-38.007677;;-43.776621;;-48.780733;;-52.324877;;-55.196236;;-58.076261;;-61.267907;;-64.702578;;-68.017816;;-70.820685;;-72.929312;;-74.40529;;-75.408475;;-76.051396;;-76.334686;;-76.177057;;-75.597359;;-74.958294;;-74.888293;;-75.742194;;-77.236228;;-78.78142;;-80.009895;;-80.901112;;-81.580477;;-82.137323;;-82.572536;;-82.846025;;-82.957281;;-82.968534;;-82.956601;;-82.956601
-5.6635872;;-5.6635872;;-5.6635872;;-5.6635872;;-5.6635872;;-5.6635872;;-5.6635872;;-5.6635872;;-5.6635872;;-5.6635872;;-5.6635872;;-5.6635872;;-5.6635872;;-5.6635872;;-5.6635872;;-5.6635872;;-5.6635904;;-5.6677862;;-5.7694242;;-5.9518486;;-6.2150247;;-6.5748431;;-7.0562128;;-7.9457807;;-8.7741025;;-9.8473743;;-11.234894;;-13.011272;;-15.255468;;-18.04408;;-21.456893;;-25.555714;;-30.358974;;-35.791234;;-41.578449;;-47.059539;;-51.229795;;-54.403522;;-57.373188;;-60.542296;;-63.934966;;-67.2504;;-70.101586;;-72.28524;;-73.852447;;-74.948154;;-75.641779;;-75.905521;;-75.695478;;-75.09751;;-74.476009;;-74.399666;;-75.205357;;-76.676744;;-78.283598;;-79.634002;;-80.639561;;-81.390189;;-81.980524;;-82.425294;;-82.698747;;-82.81764;;-82.849546;;-82.857302;;-82.857302
-5.6635872;;-5.6635872;;-5.6635872;;-5.6635872;;-5.6635872;;-5.6635872;;-5.6635872;;-5.6635872;;-5.6635872;;-5.6635872;;-5.6635872;;-5.6635872;;-5.6635872;;-5.6635872;;-5.6635872;;-5.6635872;;-5.6635888;;-5.6641275;;-5.7249474;;-5.8821773;;-6.1171854;;-6.4417927;;-6.8783521;;-7.4574739;;-8.4671369;;-9.4506492;;-10.725589;;-12.363722;;-14.448398;;-17.056509;;-20.270121;;-24.162657;;-28.77696;;-34.086161;;-39.915021;;-45.790527;;-50.72181;;-54.294733;;-57.33639;;-60.40285;;-63.611975;;-66.70555;;-69.31678;;-71.316484;;-72.876362;;-74.164219;;-75.117887;;-75.589071;;-75.570313;;-75.245713;;-74.937864;;-75.027091;;-75.746065;;-76.989696;;-78.402632;;-79.649122;;-80.593418;;-81.288114;;-81.837705;;-82.276988;;-82.577051;;-82.729626;;-82.780668;;-82.792633;;-82.792633
-5.6635872;;-5.6635872;;-5.6635872;;-5.6635872;;-5.6635872;;-5.6635872;;-5.6635872;;-5.6635872;;-5.6635872;;-5.6635872;;-5.6635872;;-5.6635872;;-5.6635872;;-5.6635872;;-5.6635872;;-5.6635872;;-5.6635881;;-5.6637349;;-5.6941688;;-5.8324672;;-6.046447;;-6.3455667;;-6.7504776;;-7.290039;;-8.2500753;;-9.1732169;;-10.373441;;-11.921146;;-13.900567;;-16.396182;;-19.489929;;-23.264222;;-27.779695;;-33.041467;;-38.934975;;-45.099086;;-50.685395;;-54.694848;;-57.813352;;-60.784415;;-63.747785;;-66.394982;;-68.377504;;-69.805381;;-71.205357;;-72.841486;;-74.382882;;-75.376442;;-75.765119;;-75.837602;;-75.914784;;-76.223991;;-76.892119;;-77.890726;;-79.022355;;-80.037654;;-80.802284;;-81.354862;;-81.809197;;-82.218512;;-82.549102;;-82.753256;;-82.838573;;-82.859839;;-82.859839
-5.6635872;;-5.6635872;;-5.6635872;;-5.6635872;;-5.6635872;;-5.6635872;;-5.6635872;;-5.6635872;;-5.6635872;;-5.6635872;;-5.6635872;;-5.6635872;;-5.6635872;;-5.6635872;;-5.6635872;;-5.6635872;;-5.6635876;;-5.6636372;;-5.6769313;;-5.7988666;;-5.9969693;;-6.2780769;;-6.6612143;;-7.1739665;;-8.0999247;;-8.9830844;;-10.134683;;-11.623938;;-13.534643;;-15.957946;;-18.976655;;-22.678236;;-27.134559;;-32.37055;;-38.309334;;-44.662859;;-50.710847;;-55.188694;;-58.465581;;-61.441501;;-64.205274;;-66.313958;;-67.432648;;-68.042843;;-69.187282;;-71.255538;;-73.567222;;-75.24366;;-76.092706;;-76.498708;;-76.85228;;-77.336184;;-78.013171;;-78.868494;;-79.783393;;-80.583147;;-81.167402;;-81.578631;;-81.932586;;-82.294655;;-82.634087;;-82.878097;;-82.998758;;-83.034376;;-83.034376
-5.6635872;;-5.6635872;;-5.6635872;;-5.6635872;;-5.6635872;;-5.6635872;;-5.6635872;;-5.6635872;;-5.6635872;;-5.6635872;;-5.6635872;;-5.6635872;;-5.6635872;;-5.6635872;;-5.6635874;;-5.663588;;-5.66359;;-5.6636074;;-5.668465;;-5.7715974;;-5.9551459;;-6.2202486;;-6.5838685;;-7.3160653;;-7.9637321;;-8.8114354;;-9.9179745;;-11.351092;;-13.193739;;-15.540362;;-18.475555;;-22.088262;;-26.457584;;-31.622955;;-37.536833;;-43.970389;;-50.315906;;-55.306693;;-58.879188;;-62.005286;;-64.727561;;-66.48047;;-66.94811;;-66.930793;;-67.870326;;-70.231518;;-73.071236;;-75.20213;;-76.317589;;-76.877775;;-77.374062;;-77.996907;;-78.74712;;-79.569367;;-80.373884;;-81.050167;;-81.536546;;-81.875035;;-82.170471;;-82.492915;;-82.822121;;-83.081044;;-83.22202;;-83.267511;;-83.26751
-5.6635872;;-5.6635872;;-5.6635872;;-5.6635872;;-5.6635872;;-5.6635872;;-5.6635872;;-5.6635872;;-5.6635872;;-5.6635872;;-5.6635872;;-5.6635872;;-5.6635873;;-5.6635896;;-5.6636082;;-5.6636816;;-5.663856;;-5.6641294;;-5.6657791;;-5.7441896;;-5.9115348;;-6.1584155;;-6.4991509;;-7.2008352;;-7.810105;;-8.6116429;;-9.6592604;;-11.018185;;-12.76836;;-15.004164;;-17.81232;;-21.280149;;-25.490744;;-30.495279;;-36.272186;;-42.646557;;-49.120927;;-54.585534;;-58.546239;;-61.963732;;-64.919851;;-66.796166;;-67.272415;;-67.21571;;-68.113392;;-70.427488;;-73.208032;;-75.259257;;-76.27185;;-76.766091;;-77.327213;;-78.134203;;-79.058838;;-79.947849;;-80.733127;;-81.377027;;-81.851347;;-82.185931;;-82.467588;;-82.765953;;-83.072793;;-83.319077;;-83.454233;;-83.496308;;-83.496308
-5.6635872;;-5.6635872;;-5.6635872;;-5.6635872;;-5.6635872;;-5.6635872;;-5.6635872;;-5.6635872;;-5.6635872;;-5.6635872;;-5.6635872;;-5.6635872;;-5.6635887;;-5.6636197;;-5.6638392;;-5.6646591;;-5.6665543;;-5.6696911;;-5.6756374;;-5.7206196;;-5.8675458;;-6.0917828;;-6.4043621;;-7.0689748;;-7.6323317;;-8.3748004;;-9.3467102;;-10.609606;;-12.238706;;-14.324506;;-16.955887;;-20.215815;;-24.18805;;-28.93151;;-34.445671;;-40.601629;;-47.003076;;-52.739111;;-57.023203;;-60.802108;;-64.325609;;-66.931467;;-68.145963;;-68.616902;;-69.609598;;-71.586128;;-73.839321;;-75.40615;;-76.045847;;-76.322316;;-76.909039;;-77.95492;;-79.144188;;-80.176195;;-80.999926;;-81.659714;;-82.160097;;-82.516174;;-82.796927;;-83.067738;;-83.329977;;-83.531547;;-83.635857;;-83.664643;;-83.664643
-5.6635872;;-5.6635872;;-5.6635872;;-5.6635872;;-5.6635872;;-5.6635872;;-5.6635872;;-5.6635872;;-5.6635872;;-5.6635872;;-5.6635872;;-5.6635874;;-5.6636005;;-5.6638011;;-5.6650699;;-5.6695616;;-5.6802319;;-5.703407;;-5.738786;;-5.7659894;;-5.8495422;;-6.0363418;;-6.5464708;;-6.9316269;;-7.4444218;;-8.1215947;;-9.0095387;;-10.164617;;-11.657;;-13.572046;;-15.998726;;-19.014945;;-22.701812;;-27.122345;;-32.290737;;-38.113198;;-44.275653;;-50.035108;;-54.46309;;-58.56472;;-62.868106;;-66.611524;;-68.974443;;-70.181008;;-71.269884;;-72.838735;;-74.55188;;-75.705903;;-76.066713;;-76.169099;;-76.749398;;-77.955193;;-79.336142;;-80.472657;;-81.318117;;-81.980855;;-82.496551;;-82.868574;;-83.141596;;-83.366804;;-83.555151;;-83.686649;;-83.753075;;-83.773447;;-83.773447
-5.6635872;;-5.6635872;;-5.6635872;;-5.6635872;;-5.6635872;;-5.6635872;;-5.6635872;;-5.6635872;;-5.6635872;;-5.6635872;;-5.6635881;;-5.663596;;-5.6636869;;-5.6645565;;-5.6693216;;-5.6855452;;-5.723938;;-5.7846166;;-5.8465205;;-5.8839068;;-5.9184188;;-6.2585335;;-6.4868327;;-6.8213925;;-7.2793673;;-7.8907734;;-8.697119;;-9.7492422;;-11.111992;;-12.865154;;-15.097549;;-17.883765;;-21.300222;;-25.412831;;-30.247252;;-35.738628;;-41.640476;;-47.346055;;-51.866166;;-56.215896;;-61.228086;;-66.052224;;-69.493908;;-71.301196;;-72.393539;;-73.652808;;-75.13166;;-76.279659;;-76.744201;;-76.901257;;-77.451967;;-78.588468;;-79.894562;;-80.953685;;-81.721228;;-82.32639;;-82.823096;;-83.20206;;-83.469091;;-83.646515;;-83.755711;;-83.819936;;-83.862904;;-83.888471;;-83.888471
-5.6635872;;-5.6635872;;-5.6635872;;-5.6635872;;-5.6635872;;-5.6635872;;-5.6635872;;-5.6635872;;-5.6635872;;-5.6635873;;-5.6635967;;-5.6636809;;-5.6642007;;-5.6672128;;-5.681328;;-5.7261714;;-5.8033397;;-5.8979603;;-5.9863739;;-6.2606338;;-6.2906391;;-6.3745494;;-6.5334129;;-6.7872035;;-7.174716;;-7.7177882;;-8.4496249;;-9.4145369;;-10.671777;;-12.295898;;-14.373317;;-16.983298;;-20.196645;;-24.08362;;-28.682619;;-33.960073;;-39.736522;;-45.535357;;-50.407139;;-54.991616;;-60.38495;;-65.801469;;-69.892;;-72.067183;;-73.14061;;-74.242879;;-75.733005;;-77.149501;;-77.992298;;-78.397828;;-78.913354;;-79.779126;;-80.756936;;-81.558071;;-82.150471;;-82.645562;;-83.097834;;-83.481057;;-83.755171;;-83.908826;;-83.969736;;-83.992694;;-84.020251;;-84.046921;;-84.046921
-5.6635872;;-5.6635872;;-5.6635872;;-5.6635872;;-5.6635872;;-5.6635872;;-5.6635872;;-5.6635872;;-5.6635872;;-5.6635876;;-5.6636373;;-5.6640837;;-5.6662942;;-5.6756388;;-5.7148336;;-5.7974941;;-5.9087867;;-6.0347439;;-6.3750276;;-6.4421287;;-6.4754201;;-6.5524038;;-6.6965609;;-6.8920105;;-7.1595947;;-7.6111131;;-8.2666589;;-9.1558875;;-10.32906;;-11.854743;;-13.815695;;-16.299912;;-19.376667;;-23.120753;;-27.586736;;-32.775442;;-38.576577;;-44.645951;;-50.223747;;-55.130641;;-60.53787;;-65.987555;;-70.276957;;-72.729296;;-73.955464;;-75.074671;;-76.592625;;-78.175522;;-79.304794;;-79.934813;;-80.411599;;-80.97713;;-81.584772;;-82.105142;;-82.525336;;-82.923852;;-83.341513;;-83.732632;;-84.020121;;-84.168452;;-84.20425;;-84.187212;;-84.165862;;-84.156429;;-84.156429
-5.6635872;;-5.6635872;;-5.6635872;;-5.6635872;;-5.6635872;;-5.6635872;;-5.6635872;;-5.6635872;;-5.6635872;;-5.6635886;;-5.6637547;;-5.66526;;-5.6722446;;-5.7001884;;-5.7761447;;-5.8892621;;-6.0295763;;-6.4067526;;-6.5484027;;-6.6291787;;-6.6664437;;-6.7394041;;-6.8695091;;-7.0344819;;-7.2193341;;-7.5273216;;-8.0947435;;-8.9061784;;-9.9964992;;-11.426716;;-13.27506;;-15.631894;;-18.57595;;-22.181248;;-26.51863;;-31.621326;;-37.441605;;-43.757355;;-50.019874;;-55.457103;;-60.712785;;-65.914534;;-70.238589;;-73.083702;;-74.76569;;-76.119699;;-77.623048;;-79.119924;;-80.251294;;-80.934401;;-81.362779;;-81.735288;;-82.113482;;-82.475369;;-82.823128;;-83.202366;;-83.626231;;-84.026991;;-84.308042;;-84.423784;;-84.396791;;-84.283481;;-84.14797;;-84.058295;;-84.058295
-5.6635872;;-5.6635872;;-5.6635872;;-5.6635872;;-5.6635872;;-5.6635872;;-5.6635872;;-5.6635872;;-5.6635873;;-5.6635926;;-5.6640042;;-5.66774;;-5.6863703;;-5.7481374;;-5.852381;;-5.9888849;;-6.3746682;;-6.5481114;;-6.7029562;;-6.7917055;;-6.8320102;;-6.8934135;;-6.9914312;;-7.1060646;;-7.2316841;;-7.419807;;-7.8812014;;-8.5980305;;-9.5846553;;-10.890987;;-12.588217;;-14.762542;;-17.502618;;-20.879814;;-24.974158;;-29.844644;;-35.492455;;-41.788826;;-48.342236;;-54.341473;;-59.571642;;-64.564718;;-68.981782;;-72.367028;;-74.781068;;-76.661099;;-78.310403;;-79.710845;;-80.730228;;-81.367316;;-81.759959;;-82.06663;;-82.379688;;-82.722675;;-83.103741;;-83.537211;;-83.997565;;-84.392857;;-84.619984;;-84.636279;;-84.47343;;-84.206334;;-83.935691;;-83.769074;;-83.769074
-5.6635872;;-5.6635872;;-5.6635872;;-5.6635872;;-5.6635872;;-5.6635872;;-5.6635872;;-5.6635872;;-5.6635888;;-5.6636259;;-5.6645671;;-5.6730837;;-5.7196547;;-5.8140881;;-5.942273;;-6.0972445;;-6.4936482;;-6.6641258;;-6.8021395;;-6.878925;;-6.918248;;-6.9624;;-7.0197885;;-7.0800848;;-7.1565055;;-7.2872673;;-7.6224361;;-8.2286378;;-9.0878463;;-10.236709;;-11.736373;;-13.664206;;-16.109203;;-19.142217;;-22.840688;;-27.277729;;-32.486716;;-38.406408;;-44.780871;;-51.010734;;-56.398898;;-61.309038;;-65.841152;;-69.76788;;-73.05671;;-75.811547;;-78.053672;;-79.72474;;-80.833227;;-81.505297;;-81.922954;;-82.249742;;-82.58398;;-82.961835;;-83.395083;;-83.882012;;-84.36951;;-84.742113;;-84.885512;;-84.76785;;-84.457491;;-84.077494;;-83.75768;;-83.586644;;-83.586644
-5.6635872;;-5.6635872;;-5.6635872;;-5.6635872;;-5.6635872;;-5.6635872;;-5.6635872;;-5.6635873;;-5.6636007;;-5.6638123;;-5.666303;;-5.6924249;;-5.7764328;;-5.8985381;;-6.0504428;;-6.4453011;;-6.6187484;;-6.7598803;;-6.8472729;;-6.8940124;;-6.9208769;;-6.9450513;;-6.9675396;;-6.9880757;;-7.0320379;;-7.139767;;-7.36591;;-7.8492238;;-8.5674326;;-9.5435181;;-10.825719;;-12.479689;;-14.584341;;-17.210732;;-20.425807;;-24.305514;;-28.899799;;-34.191464;;-40.02492;;-45.997024;;-51.44825;;-56.331671;;-60.929598;;-65.299379;;-69.487017;;-73.395626;;-76.711379;;-79.147869;;-80.69401;;-81.584761;;-82.111891;;-82.4906;;-82.830248;;-83.175008;;-83.561537;;-84.01993;;-84.511734;;-84.897358;;-85.02005;;-84.845007;;-84.493538;;-84.142699;;-83.914559;;-83.824616;;-83.824616
-5.6635872;;-5.6635872;;-5.6635872;;-5.6635872;;-5.6635872;;-5.6635872;;-5.6635875;;-5.6635896;;-5.6636568;;-5.6644761;;-5.6736361;;-5.7383766;;-5.8508421;;-5.9982612;;-6.172711;;-6.5857276;;-6.7559954;;-6.8449971;;-6.8646173;;-6.8680893;;-6.8735752;;-6.8804248;;-6.8817442;;-6.8813992;;-6.9094996;;-7.0055557;;-7.1769337;;-7.5096144;;-8.080552;;-8.8843062;;-9.9527507;;-11.337806;;-13.10518;;-15.322065;;-18.044588;;-21.34453;;-25.278978;;-29.858185;;-34.99563;;-40.433115;;-45.700824;;-50.565812;;-55.264787;;-60.075151;;-65.14022;;-70.249986;;-74.817699;;-78.276471;;-80.485888;;-81.732806;;-82.417082;;-82.817298;;-83.064509;;-83.232118;;-83.425109;;-83.765198;;-84.270475;;-84.771393;;-85.027065;;-84.960277;;-84.723288;;-84.526577;;-84.460782;;-84.473432;;-84.473432
-5.6635872;;-5.6635872;;-5.6635872;;-5.6635872;;-5.6635873;;-5.6635904;;-5.663617;;-5.6637293;;-5.6641906;;-5.6670181;;-5.7002668;;-5.7964855;;-5.9327756;;-6.1028485;;-6.5224188;;-6.7251058;;-6.888764;;-6.9210457;;-6.8780347;;-6.8381071;;-6.8223649;;-6.8207835;;-6.8183831;;-6.8154031;;-6.8371594;;-6.9180118;;-7.0624377;;-7.2672334;;-7.6738123;;-8.3075543;;-9.1757301;;-10.31352;;-11.771489;;-13.609784;;-15.878896;;-18.641344;;-21.958084;;-25.858814;;-30.309973;;-35.169185;;-40.171715;;-45.152149;;-50.25614;;-55.72549;;-61.652595;;-67.729891;;-73.28064;;-77.599823;;-80.419678;;-82.007107;;-82.809073;;-83.152824;;-83.212557;;-83.124878;;-83.08436;;-83.306042;;-83.858349;;-84.542302;;-85.031805;;-85.182993;;-85.134202;;-85.09928;;-85.149558;;-85.217762;;-85.217762
-5.6635872;;-5.6635872;;-5.6635872;;-5.6635879;;-5.6635935;;-5.6636433;;-5.6639487;;-5.6651053;;-5.668947;;-5.6819653;;-5.738011;;-5.849872;;-6.0009551;;-6.1856996;;-6.6186567;;-6.8262844;;-6.97391;;-6.969673;;-6.8977852;;-6.8358759;;-6.8108382;;-6.8128182;;-6.8223243;;-6.8311634;;-6.851652;;-6.9094515;;-7.0193734;;-7.176045;;-7.4001164;;-7.8610865;;-8.5501977;;-9.4786835;;-10.680664;;-12.20393;;-14.101952;;-16.427867;;-19.247356;;-22.610263;;-26.531938;;-30.976947;;-35.874482;;-41.234456;;-47.135199;;-53.51931;;-60.192189;;-66.799754;;-72.775082;;-77.482952;;-80.612878;;-82.362659;;-83.166589;;-83.397306;;-83.302082;;-83.084641;;-82.970278;;-83.175996;;-83.766505;;-84.542071;;-85.166639;;-85.465202;;-85.539623;;-85.581657;;-85.662001;;-85.733978;;-85.733978
-5.6635872;;-5.6635872;;-5.66359;;-5.6636216;;-5.6637867;;-5.6644238;;-5.6667424;;-5.6780904;;-5.715949;;-5.7536776;;-5.7963416;;-5.8914857;;-6.0356706;;-6.2159384;;-6.6428812;;-6.8369101;;-6.9631777;;-6.9707085;;-6.919029;;-6.8715875;;-6.8572041;;-6.8725998;;-6.8997423;;-6.9245023;;-6.9481487;;-6.9884612;;-7.0660948;;-7.1898398;;-7.3522003;;-7.5921164;;-8.1158834;;-8.8800164;;-9.8940268;;-11.192992;;-12.832769;;-14.874069;;-17.390068;;-20.464604;;-24.182257;;-28.630337;;-33.885771;;-39.964296;;-46.731707;;-53.86932;;-60.930712;;-67.515059;;-73.293875;;-77.84688;;-80.894052;;-82.569601;;-83.289033;;-83.475963;;-83.439868;;-83.383077;;-83.444248;;-83.730292;;-84.262134;;-84.895515;;-85.393158;;-85.632081;;-85.697893;;-85.745491;;-85.829283;;-85.903153;;-85.903153
-5.6635874;;-5.6635874;;-5.6636147;;-5.6639036;;-5.6653222;;-5.6700778;;-5.6905705;;-5.7494137;;-5.820632;;-5.8736836;;-5.9095373;;-5.9713235;;-6.0755545;;-6.4437353;;-6.6111926;;-6.7686155;;-6.8835385;;-6.9367436;;-6.9433694;;-6.9374786;;-6.9468272;;-6.9780183;;-7.0208144;;-7.0602019;;-7.0901608;;-7.1213055;;-7.1757576;;-7.2701974;;-7.4001951;;-7.5554062;;-7.9813555;;-8.6880885;;-9.6585748;;-10.926273;;-12.555833;;-14.637401;;-17.269577;;-20.545706;;-24.566879;;-29.416398;;-35.138748;;-41.697103;;-48.90251;;-56.314806;;-63.216631;;-69.18591;;-74.23979;;-78.189013;;-80.828842;;-82.303755;;-83.026196;;-83.409346;;-83.719887;;-84.053288;;-84.398647;;-84.739612;;-85.070456;;-85.340739;;-85.470944;;-85.46259;;-85.437873;;-85.511702;;-85.669963;;-85.800842;;-85.800842
-5.6635884;;-5.6635884;;-5.663717;;-5.6650442;;-5.6716488;;-5.6989003;;-5.7689618;;-5.8652056;;-5.9644046;;-6.0311601;;-6.0616724;;-6.3227861;;-6.170044;;-6.4795333;;-6.5809032;;-6.6962834;;-6.8140905;;-6.9146729;;-6.9819126;;-7.0204859;;-7.0533142;;-7.096132;;-7.1485627;;-7.1980173;;-7.2334747;;-7.2597586;;-7.2979461;;-7.3656637;;-7.4588617;;-7.7002267;;-8.2811273;;-9.1183897;;-10.229492;;-11.666329;;-13.507007;;-15.852018;;-18.800347;;-22.455588;;-26.917594;;-32.257876;;-38.492375;;-45.519528;;-53.017714;;-60.281984;;-66.32186;;-71.092055;;-74.997912;;-78.029817;;-80.136744;;-81.522726;;-82.522838;;-83.382485;;-84.185024;;-84.884264;;-85.38916;;-85.650192;;-85.675276;;-85.493414;;-85.167265;;-84.852643;;-84.756202;;-84.957467;;-85.314147;;-85.579404;;-85.579404
-5.663594;;-5.663594;;-5.6639973;;-5.668159;;-5.6959086;;-5.7736453;;-5.8844003;;-6.0149612;;-6.1426189;;-6.2214381;;-6.4614708;;-6.4790132;;-6.5079043;;-6.5427307;;-6.5973363;;-6.6886789;;-6.8113488;;-6.9384382;;-7.0397856;;-7.1059966;;-7.1512063;;-7.1953189;;-7.2480829;;-7.3017012;;-7.3412174;;-7.366119;;-7.3950947;;-7.4418551;;-7.577134;;-8.0724372;;-8.8256617;;-9.8432657;;-11.168666;;-12.870624;;-15.041245;;-17.781981;;-21.196962;;-25.394865;;-30.465593;;-36.454856;;-43.319304;;-50.834846;;-58.429416;;-64.91259;;-69.452817;;-72.728961;;-75.310911;;-77.393052;;-79.133348;;-80.723965;;-82.255136;;-83.66294;;-84.822041;;-85.640614;;-86.079108;;-86.138464;;-85.843321;;-85.255774;;-84.536448;;-83.982871;;-83.895929;;-84.31435;;-84.940455;;-85.375532;;-85.375532
-5.6636275;;-5.6636275;;-5.664749;;-5.6832793;;-5.7620697;;-5.8802986;;-6.0285611;;-6.1918021;;-6.3464103;;-6.6557424;;-6.6480048;;-6.6169174;;-6.5891552;;-6.593711;;-6.6457064;;-6.7432594;;-6.8704627;;-7.0010799;;-7.1094929;;-7.1831646;;-7.2273091;;-7.2612061;;-7.3043793;;-7.3577655;;-7.4124174;;-7.4897786;;-7.5948031;;-7.6934562;;-7.9898669;;-8.6417623;;-9.5753802;;-10.814093;;-12.416082;;-14.464837;;-17.061408;;-20.303697;;-24.304576;;-29.16616;;-34.957697;;-41.67633;;-49.159739;;-56.946837;;-64.003718;;-68.8885;;-71.840403;;-73.804132;;-75.351268;;-76.867679;;-78.619865;;-80.634849;;-82.656948;;-84.35378;;-85.540158;;-86.212919;;-86.448486;;-86.294884;;-85.761475;;-84.90528;;-83.947643;;-83.28508;;-83.269811;;-83.886024;;-84.716388;;-85.268563;;-85.268563
-5.663769;;-5.663769;;-5.6702718;;-5.7375967;;-5.8537918;;-6.0062975;;-6.1877525;;-6.3825576;;-6.7885436;;-6.8678111;;-6.8043095;;-6.6908104;;-6.6080061;;-6.6111247;;-6.6955784;;-6.8210692;;-6.9554789;;-7.0786328;;-7.1790646;;-7.2484059;;-7.2868671;;-7.3280179;;-7.4124588;;-7.5510528;;-7.7385239;;-7.9399541;;-8.1186907;;-8.2604328;;-8.6051682;;-9.3932407;;-10.526565;;-12.030099;;-13.97151;;-16.446779;;-19.553335;;-23.392741;;-28.073264;;-33.672493;;-40.205956;;-47.563868;;-55.376568;;-62.765943;;-68.154118;;-71.246731;;-73.087595;;-74.384902;;-75.623626;;-77.186076;;-79.233441;;-81.556569;;-83.691474;;-85.261565;;-86.185457;;-86.597245;;-86.645049;;-86.369882;;-85.74051;;-84.797384;;-83.786817;;-83.131689;;-83.168426;;-83.836167;;-84.689415;;-85.244848;;-85.244848
-5.6645548;;-5.6645548;;-5.7035945;;-5.8083561;;-5.9548722;;-6.1377782;;-6.3476753;;-6.7957263;;-6.9931396;;-7.0254549;;-6.887602;;-6.7213562;;-6.6114457;;-6.6328122;;-6.7535176;;-6.9054303;;-7.0430793;;-7.1526762;;-7.2393521;;-7.3274353;;-7.5028689;;-7.6890768;;-7.8557961;;-8.0638971;;-8.3351733;;-8.627159;;-8.8776514;;-9.067295;;-9.414918;;-10.328227;;-11.683225;;-13.492252;;-15.828368;;-18.796251;;-22.481482;;-26.98595;;-32.396432;;-38.741471;;-45.936222;;-53.666697;;-61.151345;;-66.824183;;-70.070689;;-72.060108;;-73.588822;;-75.048503;;-76.680007;;-78.639856;;-80.885887;;-83.110438;;-84.907073;;-86.057846;;-86.630883;;-86.826984;;-86.782813;;-86.500786;;-85.919732;;-85.063075;;-84.15209;;-83.556107;;-83.553636;;-84.083549;;-84.77256;;-85.223852;;-85.223852
-5.6741043;;-5.6741043;;-5.7567171;;-5.8881404;;-6.0598457;;-6.268236;;-6.5009176;;-6.967795;;-7.1562969;;-7.1094118;;-6.9403725;;-6.7665915;;-6.6655331;;-6.712073;;-6.847728;;-7.0029219;;-7.1285726;;-7.2247762;;-7.4079284;;-7.6983534;;-8.0081314;;-8.2871846;;-8.5222088;;-8.8017156;;-9.1619934;;-9.5497157;;-9.8808016;;-10.12818;;-10.466365;;-11.459242;;-13.043609;;-15.191211;;-17.969433;;-21.485017;;-25.802299;;-31.011607;;-37.15801;;-44.181515;;-51.813516;;-59.352588;;-65.27723;;-68.613372;;-70.622924;;-72.391643;;-74.344775;;-76.478299;;-78.685989;;-80.877167;;-82.922401;;-84.63174;;-85.842524;;-86.537191;;-86.848275;;-86.939046;;-86.889706;;-86.677358;;-86.238815;;-85.577225;;-84.844793;;-84.308824;;-84.185223;;-84.458823;;-84.883918;;-85.178981;;-85.178981
-5.7166139;;-5.7166139;;-5.8240104;;-5.9803809;;-6.1786985;;-6.4124088;;-6.8978638;;-7.1561208;;-7.3209224;;-7.2060941;;-7.0183511;;-6.8566949;;-6.7869429;;-6.8517217;;-6.9843993;;-7.1199076;;-7.2409906;;-7.4981279;;-7.864085;;-8.2936755;;-8.7288308;;-9.1046157;;-9.4120259;;-9.7717884;;-10.23627;;-10.737198;;-11.16515;;-11.485003;;-11.839881;;-12.827181;;-14.622537;;-17.122617;;-20.370184;;-24.462614;;-29.429517;;-35.329656;;-42.136273;;-49.638653;;-57.250331;;-63.632132;;-67.429691;;-69.56454;;-71.332391;;-73.491253;;-76.09886;;-78.795175;;-81.21845;;-83.181885;;-84.650316;;-85.669193;;-86.319065;;-86.693942;;-86.886285;;-86.965149;;-86.955507;;-86.837289;;-86.566673;;-86.127287;;-85.589619;;-85.113618;;-84.86485;;-84.883421;;-85.051452;;-85.19404;;-85.19404
-5.7737355;;-5.7737355;;-5.8960535;;-6.0729219;;-6.2959327;;-6.5558745;;-7.0708568;;-7.3511799;;-7.4998407;;-7.3383056;;-7.1298694;;-6.9790487;;-6.9447268;;-7.0207364;;-7.1406832;;-7.2784149;;-7.5761944;;-8.0038573;;-8.5242996;;-9.099553;;-9.6742115;;-10.162826;;-10.55416;;-11.008574;;-11.598508;;-12.23695;;-12.783969;;-13.196109;;-13.611627;;-14.540598;;-16.457957;;-19.27556;;-22.976123;;-27.625405;;-33.200888;;-39.693637;;-46.959251;;-54.545267;;-61.394244;;-66.082387;;-68.959009;;-71.054144;;-73.217876;;-75.843201;;-78.743202;;-81.437492;;-83.542947;;-84.941841;;-85.743266;;-86.169147;;-86.430456;;-86.641416;;-86.817232;;-86.933442;;-86.975235;;-86.939374;;-86.809285;;-86.561167;;-86.203265;;-85.811627;;-85.506416;;-85.359597;;-85.344001;;-85.370712;;-85.370712
-5.8223196;;-5.8223196;;-5.9556971;;-6.1483839;;-6.3910646;;-6.6730577;;-7.2133349;;-7.5145882;;-7.65826;;-7.4675387;;-7.2405925;;-7.0955392;;-7.0905924;;-7.1762938;;-7.3147528;;-7.6369911;;-8.1096807;;-8.7029716;;-9.3900949;;-10.136524;;-10.877809;;-11.501986;;-11.99287;;-12.556669;;-13.289459;;-14.087356;;-14.776604;;-15.305868;;-15.848441;;-16.781647;;-18.679038;;-21.672601;;-25.721207;;-30.820996;;-36.878333;;-43.753763;;-51.126577;;-58.220416;;-63.761004;;-67.687948;;-70.729463;;-73.428427;;-76.138914;;-78.909018;;-81.508565;;-83.639182;;-85.120217;;-85.947009;;-86.270343;;-86.336928;;-86.382553;;-86.518334;;-86.711753;;-86.874419;;-86.961623;;-86.981897;;-86.944751;;-86.833577;;-86.628468;;-86.351945;;-86.078198;;-85.875684;;-85.764585;;-85.719741;;-85.719741
-5.8603646;;-5.8603646;;-6.0015128;;-6.2052605;;-6.4615339;;-6.7584137;;-7.314786;;-7.6270611;;-7.7543486;;-7.5491603;;-7.3176885;;-7.1847444;;-7.201609;;-7.329904;;-7.6723152;;-8.1781625;;-8.8266181;;-9.60277;;-10.487142;;-11.441526;;-12.381245;;-13.159883;;-13.761432;;-14.446049;;-15.342919;;-16.328806;;-17.190415;;-17.868674;;-18.576087;;-19.67089;;-21.572243;;-24.528215;;-28.642658;;-33.909749;;-40.164127;;-47.035851;;-53.9974;;-60.129168;;-64.99618;;-69.027614;;-72.644147;;-76.029766;;-79.104487;;-81.666991;;-83.609022;;-84.981524;;-85.880407;;-86.357348;;-86.477384;;-86.402003;;-86.344248;;-86.428934;;-86.624245;;-86.816567;;-86.93627;;-86.989691;;-87.002746;;-86.975345;;-86.886089;;-86.731821;;-86.544935;;-86.368269;;-86.234037;;-86.158069;;-86.158069
-5.8956935;;-5.8956935;;-6.0429709;;-6.2551617;;-6.5211872;;-6.8272429;;-7.3911475;;-7.7007998;;-7.7817469;;-7.576636;;-7.3631722;;-7.2595324;;-7.3345674;;-7.6797647;;-8.2060153;;-8.8926736;;-9.7379199;;-10.727658;;-11.844099;;-13.041767;;-14.212773;;-15.171639;;-15.900193;;-16.718878;;-17.79764;;-18.995626;;-20.059151;;-20.923737;;-21.845602;;-23.222626;;-25.324675;;-28.306107;;-32.228453;;-37.165153;;-42.976447;;-49.134829;;-55.185435;;-60.769598;;-65.663935;;-69.953506;;-73.979793;;-77.821289;;-81.100986;;-83.414589;;-84.783391;;-85.583161;;-86.12844;;-86.474605;;-86.572863;;-86.483097;;-86.383525;;-86.418002;;-86.584536;;-86.778024;;-86.914939;;-86.987367;;-87.023598;;-87.038129;;-87.02079;;-86.962847;;-86.86926;;-86.755316;;-86.645998;;-86.571929;;-86.571929
-5.9289617;;-5.9289617;;-6.0814247;;-6.3005342;;-6.5740114;;-6.8856064;;-7.4512238;;-7.7494445;;-7.7766504;;-7.5845281;;-7.4082198;;-7.3674027;;-7.6709812;;-8.1957997;;-8.9017606;;-9.7904211;;-10.854922;;-12.090594;;-13.48207;;-14.969132;;-16.411452;;-17.575164;;-18.441684;;-19.396407;;-20.659351;;-22.079186;;-23.368449;;-24.463472;;-25.661774;;-27.392137;;-29.887183;;-33.110492;;-36.920299;;-41.168875;;-45.659734;;-50.520541;;-55.906997;;-61.343535;;-66.122938;;-70.145032;;-74.060102;;-78.127318;;-81.717923;;-84.115511;;-85.30994;;-85.863721;;-86.246484;;-86.543053;;-86.660025;;-86.597291;;-86.490509;;-86.480162;;-86.595328;;-86.762328;;-86.900305;;-86.983211;;-87.030065;;-87.06085;;-87.077557;;-87.07531;;-87.048146;;-86.995168;;-86.929015;;-86.876386;;-86.876386
