-2.5637131e+01;;-2.5637131e+01;;-2.5787577e+01;;-2.9019959e+01;;-3.5069674e+01;;-4.3464530e+01;;-5.4358155e+01;;-6.8122325e+01;;-8.5158112e+01;;-1.0570654e+02;;-1.3032803e+02;;-1.5961251e+02;;-1.9484192e+02;;-2.3865366e+02;;-2.9371215e+02;;-3.6233203e+02;;-4.4638711e+02;;-5.4570728e+02;;-6.5906183e+02;;-7.8384465e+02;;-9.1502480e+02;;-1.0467942e+03;;-1.1774927e+03;;-1.3106803e+03;;-1.4500417e+03;;-1.5951679e+03;;-1.7413458e+03;;-1.8825623e+03;;-2.0154176e+03;;-2.1407494e+03;;-2.2608973e+03;;-2.3755093e+03;;-2.4812866e+03;;-2.5760073e+03;;-2.6615022e+03;;-2.7420582e+03;;-2.8207818e+03;;-2.8972564e+03;;-2.9673856e+03;;-3.0261148e+03;;-3.0720532e+03;;-3.1095086e+03;;-3.1454313e+03;;-3.1848363e+03;;-3.2287087e+03;;-3.2743403e+03;;-3.3172124e+03;;-3.3539754e+03;;-3.3844086e+03;;-3.4106952e+03;;-3.4353464e+03;;-3.4595542e+03;;-3.4822368e+03;;-3.5006433e+03;;-3.5132647e+03;;-3.5220157e+03;;-3.5302137e+03;;-3.5386952e+03;;-3.5446482e+03;;-3.5427402e+03;;-3.5266057e+03;;-3.4931943e+03;;-3.4506071e+03;;-3.4195823e+03;;-3.4195823e+03
-2.5641298e+01;;-2.5641298e+01;;-2.6077015e+01;;-2.9907273e+01;;-3.6111926e+01;;-4.4457737e+01;;-5.5102580e+01;;-6.8341987e+01;;-8.4419204e+01;;-1.0355909e+02;;-1.2610044e+02;;-1.5232655e+02;;-1.8328954e+02;;-2.2230511e+02;;-2.7274873e+02;;-3.3675439e+02;;-4.1596738e+02;;-5.1053273e+02;;-6.1921687e+02;;-7.4012320e+02;;-8.6945545e+02;;-1.0028702e+03;;-1.1392086e+03;;-1.2812019e+03;;-1.4314758e+03;;-1.5885622e+03;;-1.7457067e+03;;-1.8935868e+03;;-2.0262507e+03;;-2.1454276e+03;;-2.2572560e+03;;-2.3647086e+03;;-2.4652440e+03;;-2.5557701e+03;;-2.6374022e+03;;-2.7145597e+03;;-2.7908910e+03;;-2.8663806e+03;;-2.9369052e+03;;-2.9968758e+03;;-3.0441785e+03;;-3.0827178e+03;;-3.1195581e+03;;-3.1600926e+03;;-3.2053937e+03;;-3.2523693e+03;;-3.2964246e+03;;-3.3350836e+03;;-3.3691728e+03;;-3.4009905e+03;;-3.4321854e+03;;-3.4625951e+03;;-3.4898237e+03;;-3.5105155e+03;;-3.5232751e+03;;-3.5302226e+03;;-3.5349745e+03;;-3.5392129e+03;;-3.5413218e+03;;-3.5375097e+03;;-3.5241461e+03;;-3.5010483e+03;;-3.4745492e+03;;-3.4563884e+03;;-3.4563884e+03
-2.5664895e+01;;-2.5664895e+01;;-2.7275003e+01;;-3.2010493e+01;;-3.8770832e+01;;-4.7447426e+01;;-5.8109931e+01;;-7.0684076e+01;;-8.5387134e+01;;-1.0224812e+02;;-1.2147679e+02;;-1.4285286e+02;;-1.6659241e+02;;-1.9783973e+02;;-2.4172751e+02;;-2.9934095e+02;;-3.7190883e+02;;-4.6041424e+02;;-5.6398092e+02;;-6.8188330e+02;;-8.1178385e+02;;-9.5001864e+02;;-1.0944205e+03;;-1.2466362e+03;;-1.4085560e+03;;-1.5773458e+03;;-1.7438808e+03;;-1.8958053e+03;;-2.0252598e+03;;-2.1356283e+03;;-2.2377406e+03;;-2.3388095e+03;;-2.4373860e+03;;-2.5285941e+03;;-2.6112631e+03;;-2.6888902e+03;;-2.7653019e+03;;-2.8405070e+03;;-2.9100176e+03;;-2.9681961e+03;;-3.0133289e+03;;-3.0495516e+03;;-3.0839182e+03;;-3.1221363e+03;;-3.1658847e+03;;-3.2126001e+03;;-3.2584751e+03;;-3.3021712e+03;;-3.3447242e+03;;-3.3866763e+03;;-3.4269164e+03;;-3.4633486e+03;;-3.4933298e+03;;-3.5144825e+03;;-3.5264952e+03;;-3.5320693e+03;;-3.5352537e+03;;-3.5382376e+03;;-3.5397955e+03;;-3.5369831e+03;;-3.5282422e+03;;-3.5152202e+03;;-3.5022880e+03;;-3.4943091e+03;;-3.4943091e+03
-2.6017803e+01;;-2.6017803e+01;;-2.9571658e+01;;-3.5368739e+01;;-4.3038488e+01;;-5.2540283e+01;;-6.3605332e+01;;-7.6054337e+01;;-8.9242268e+01;;-1.0273452e+02;;-1.1759241e+02;;-1.3369428e+02;;-1.4991467e+02;;-1.7271201e+02;;-2.1039402e+02;;-2.6187369e+02;;-3.2788351e+02;;-4.0991373e+02;;-5.0794799e+02;;-6.2220407e+02;;-7.5192877e+02;;-8.9467548e+02;;-1.0474998e+03;;-1.2100292e+03;;-1.3826119e+03;;-1.5605037e+03;;-1.7322288e+03;;-1.8834123e+03;;-2.0061832e+03;;-2.1067823e+03;;-2.2004665e+03;;-2.2981551e+03;;-2.3992235e+03;;-2.4964187e+03;;-2.5849375e+03;;-2.6658975e+03;;-2.7428079e+03;;-2.8162998e+03;;-2.8825028e+03;;-2.9365395e+03;;-2.9775001e+03;;-3.0096669e+03;;-3.0397579e+03;;-3.0737655e+03;;-3.1145572e+03;;-3.1608215e+03;;-3.2094290e+03;;-3.2591469e+03;;-3.3104730e+03;;-3.3624339e+03;;-3.4116437e+03;;-3.4541442e+03;;-3.4869830e+03;;-3.5088538e+03;;-3.5207600e+03;;-3.5263760e+03;;-3.5304555e+03;;-3.5354062e+03;;-3.5397266e+03;;-3.5405473e+03;;-3.5370702e+03;;-3.5312189e+03;;-3.5258515e+03;;-3.5228767e+03;;-3.5228767e+03
-2.7996224e+01;;-2.7996224e+01;;-3.2721266e+01;;-3.9628716e+01;;-4.8436420e+01;;-5.8956581e+01;;-7.0828419e+01;;-8.3448365e+01;;-9.5029626e+01;;-1.0378252e+02;;-1.1386724e+02;;-1.2561161e+02;;-1.3636944e+02;;-1.5140436e+02;;-1.8403130e+02;;-2.3037079e+02;;-2.9074990e+02;;-3.6675328e+02;;-4.5930495e+02;;-5.6918330e+02;;-6.9705278e+02;;-8.4213307e+02;;-1.0022017e+03;;-1.1745647e+03;;-1.3559750e+03;;-1.5390304e+03;;-1.7104734e+03;;-1.8556478e+03;;-1.9688773e+03;;-2.0598533e+03;;-2.1471585e+03;;-2.2442627e+03;;-2.3510611e+03;;-2.4578300e+03;;-2.5553611e+03;;-2.6411584e+03;;-2.7178637e+03;;-2.7875906e+03;;-2.8487373e+03;;-2.8983156e+03;;-2.9360853e+03;;-2.9655268e+03;;-2.9922601e+03;;-3.0225077e+03;;-3.0607894e+03;;-3.1073068e+03;;-3.1588679e+03;;-3.2129921e+03;;-3.2694357e+03;;-3.3274510e+03;;-3.3834928e+03;;-3.4323688e+03;;-3.4699197e+03;;-3.4947129e+03;;-3.5085069e+03;;-3.5159337e+03;;-3.5223992e+03;;-3.5304547e+03;;-3.5385560e+03;;-3.5439352e+03;;-3.5456173e+03;;-3.5445973e+03;;-3.5426242e+03;;-3.5412338e+03;;-3.5412338e+03
-3.0969020e+01;;-3.0969020e+01;;-3.6405269e+01;;-4.4266587e+01;;-5.4183216e+01;;-6.5771638e+01;;-7.8566249e+01;;-9.1412936e+01;;-1.0068207e+02;;-1.0449886e+02;;-1.1072333e+02;;-1.1969299e+02;;-1.2753520e+02;;-1.3573927e+02;;-1.6428798e+02;;-2.0649385e+02;;-2.6231934e+02;;-3.3337000e+02;;-4.2132291e+02;;-5.2724385e+02;;-6.5281787e+02;;-7.9850338e+02;;-9.6298609e+02;;-1.1423895e+03;;-1.3295891e+03;;-1.5134845e+03;;-1.6794858e+03;;-1.8148637e+03;;-1.9177207e+03;;-2.0005991e+03;;-2.0838384e+03;;-2.1821451e+03;;-2.2954584e+03;;-2.4118371e+03;;-2.5181102e+03;;-2.6083981e+03;;-2.6844196e+03;;-2.7499471e+03;;-2.8064243e+03;;-2.8534869e+03;;-2.8912962e+03;;-2.9214573e+03;;-2.9476752e+03;;-2.9762202e+03;;-3.0132198e+03;;-3.0601104e+03;;-3.1132367e+03;;-3.1686821e+03;;-3.2259652e+03;;-3.2859426e+03;;-3.3464602e+03;;-3.4017398e+03;;-3.4458320e+03;;-3.4760267e+03;;-3.4939077e+03;;-3.5044427e+03;;-3.5132756e+03;;-3.5233171e+03;;-3.5339017e+03;;-3.5430387e+03;;-3.5493214e+03;;-3.5522286e+03;;-3.5524018e+03;;-3.5516542e+03;;-3.5516542e+03
-3.3803936e+01;;-3.3803936e+01;;-3.9800849e+01;;-4.8441720e+01;;-5.9277556e+01;;-7.1766667e+01;;-8.5294661e+01;;-9.8167367e+01;;-1.0450502e+02;;-1.0482078e+02;;-1.0859474e+02;;-1.1617024e+02;;-1.2315036e+02;;-1.2661266e+02;;-1.5152321e+02;;-1.9047654e+02;;-2.4294312e+02;;-3.1040222e+02;;-3.9505587e+02;;-4.9806578e+02;;-6.2152716e+02;;-7.6652368e+02;;-9.3222653e+02;;-1.1144679e+03;;-1.3038743e+03;;-1.4853743e+03;;-1.6431712e+03;;-1.7684478e+03;;-1.8634578e+03;;-1.9420947e+03;;-2.0244774e+03;;-2.1249200e+03;;-2.2427931e+03;;-2.3646838e+03;;-2.4753798e+03;;-2.5675551e+03;;-2.6427079e+03;;-2.7056953e+03;;-2.7601766e+03;;-2.8078590e+03;;-2.8488612e+03;;-2.8826382e+03;;-2.9109587e+03;;-2.9398859e+03;;-2.9763799e+03;;-3.0225510e+03;;-3.0747922e+03;;-3.1289126e+03;;-3.1847932e+03;;-3.2446985e+03;;-3.3078000e+03;;-3.3683004e+03;;-3.4190733e+03;;-3.4560193e+03;;-3.4796187e+03;;-3.4940385e+03;;-3.5045897e+03;;-3.5148453e+03;;-3.5258352e+03;;-3.5370767e+03;;-3.5470632e+03;;-3.5537136e+03;;-3.5562588e+03;;-3.5564042e+03;;-3.5564042e+03
-3.6079369e+01;;-3.6079369e+01;;-4.2472278e+01;;-5.1656376e+01;;-6.3112734e+01;;-7.6161036e+01;;-9.0025418e+01;;-1.0254726e+02;;-1.0633552e+02;;-1.0510430e+02;;-1.0759680e+02;;-1.1443398e+02;;-1.2157115e+02;;-1.2377387e+02;;-1.4437331e+02;;-1.8062082e+02;;-2.3063594e+02;;-2.9554791e+02;;-3.7759230e+02;;-4.7824362e+02;;-5.9949265e+02;;-7.4274687e+02;;-9.0745242e+02;;-1.0895092e+03;;-1.2787204e+03;;-1.4573040e+03;;-1.6086509e+03;;-1.7282878e+03;;-1.8216020e+03;;-1.9019568e+03;;-1.9870242e+03;;-2.0891508e+03;;-2.2070946e+03;;-2.3276406e+03;;-2.4362758e+03;;-2.5265656e+03;;-2.6005627e+03;;-2.6633138e+03;;-2.7189303e+03;;-2.7695912e+03;;-2.8149098e+03;;-2.8530061e+03;;-2.8845597e+03;;-2.9150347e+03;;-2.9510753e+03;;-2.9951866e+03;;-3.0449640e+03;;-3.0971982e+03;;-3.1518607e+03;;-3.2111114e+03;;-3.2746219e+03;;-3.3374914e+03;;-3.3930403e+03;;-3.4364581e+03;;-3.4664245e+03;;-3.4852199e+03;;-3.4972917e+03;;-3.5068130e+03;;-3.5166205e+03;;-3.5282103e+03;;-3.5406981e+03;;-3.5507706e+03;;-3.5559487e+03;;-3.5572912e+03;;-3.5572912e+03
-3.8008676e+01;;-3.8008676e+01;;-4.4677453e+01;;-5.4225558e+01;;-6.6062330e+01;;-7.9364431e+01;;-9.3227829e+01;;-1.0479518e+02;;-1.0732277e+02;;-1.0631720e+02;;-1.0835918e+02;;-1.1449407e+02;;-1.2178036e+02;;-1.2510251e+02;;-1.4007660e+02;;-1.7377168e+02;;-2.2157635e+02;;-2.8414424e+02;;-3.6360597e+02;;-4.6173984e+02;;-5.8028762e+02;;-7.2087999e+02;;-8.8322868e+02;;-1.0635860e+03;;-1.2520182e+03;;-1.4301607e+03;;-1.5811168e+03;;-1.7029864e+03;;-1.8023879e+03;;-1.8904160e+03;;-1.9804944e+03;;-2.0821395e+03;;-2.1945571e+03;;-2.3071873e+03;;-2.4085850e+03;;-2.4943718e+03;;-2.5670449e+03;;-2.6309078e+03;;-2.6890468e+03;;-2.7428307e+03;;-2.7914733e+03;;-2.8331130e+03;;-2.8681668e+03;;-2.9008703e+03;;-2.9366540e+03;;-2.9785862e+03;;-3.0263335e+03;;-3.0779121e+03;;-3.1323882e+03;;-3.1904464e+03;;-3.2519741e+03;;-3.3140749e+03;;-3.3718392e+03;;-3.4202045e+03;;-3.4558245e+03;;-3.4788852e+03;;-3.4927841e+03;;-3.5017016e+03;;-3.5095970e+03;;-3.5199894e+03;;-3.5333660e+03;;-3.5458244e+03;;-3.5532493e+03;;-3.5557462e+03;;-3.5557462e+03
-4.0039434e+01;;-4.0039434e+01;;-4.6932343e+01;;-5.6756148e+01;;-6.8831156e+01;;-8.2169486e+01;;-9.5635891e+01;;-1.0582764e+02;;-1.0879550e+02;;-1.0940954e+02;;-1.1174657e+02;;-1.1703995e+02;;-1.2369715e+02;;-1.2792347e+02;;-1.3678454e+02;;-1.6779266e+02;;-2.1314910e+02;;-2.7307183e+02;;-3.4956542e+02;;-4.4473610e+02;;-5.5998737e+02;;-6.9714892e+02;;-8.5628323e+02;;-1.0342816e+03;;-1.2223098e+03;;-1.4033235e+03;;-1.5604032e+03;;-1.6914309e+03;;-1.8023362e+03;;-1.9010393e+03;;-1.9961690e+03;;-2.0947598e+03;;-2.1978405e+03;;-2.2994642e+03;;-2.3922895e+03;;-2.4735884e+03;;-2.5453267e+03;;-2.6103168e+03;;-2.6701439e+03;;-2.7253912e+03;;-2.7757458e+03;;-2.8204128e+03;;-2.8596486e+03;;-2.8957836e+03;;-2.9326581e+03;;-2.9739557e+03;;-3.0211542e+03;;-3.0728374e+03;;-3.1267792e+03;;-3.1824530e+03;;-3.2406189e+03;;-3.3008327e+03;;-3.3597629e+03;;-3.4116308e+03;;-3.4512121e+03;;-3.4774309e+03;;-3.4931225e+03;;-3.5019305e+03;;-3.5078968e+03;;-3.5159737e+03;;-3.5282959e+03;;-3.5412402e+03;;-3.5497660e+03;;-3.5530288e+03;;-3.5530288e+03
-4.2410453e+01;;-4.2410453e+01;;-4.9506923e+01;;-5.9546870e+01;;-7.1702317e+01;;-8.4882267e+01;;-9.7507694e+01;;-1.0654897e+02;;-1.1125845e+02;;-1.1424242e+02;;-1.1746872e+02;;-1.2197920e+02;;-1.2730445e+02;;-1.3137058e+02;;-1.3538637e+02;;-1.6284121e+02;;-2.0530324e+02;;-2.6238330e+02;;-3.3577021e+02;;-4.2783076e+02;;-5.3969744e+02;;-6.7329847e+02;;-8.2911123e+02;;-1.0047865e+03;;-1.1929033e+03;;-1.3784936e+03;;-1.5446182e+03;;-1.6867684e+03;;-1.8090305e+03;;-1.9167254e+03;;-2.0149711e+03;;-2.1090559e+03;;-2.2024102e+03;;-2.2940371e+03;;-2.3803413e+03;;-2.4592091e+03;;-2.5310805e+03;;-2.5968815e+03;;-2.6569980e+03;;-2.7121100e+03;;-2.7633843e+03;;-2.8115235e+03;;-2.8563454e+03;;-2.8979214e+03;;-2.9383144e+03;;-2.9812040e+03;;-3.0286963e+03;;-3.0793430e+03;;-3.1305485e+03;;-3.1822605e+03;;-3.2370169e+03;;-3.2963378e+03;;-3.3572176e+03;;-3.4121975e+03;;-3.4542112e+03;;-3.4818070e+03;;-3.4982163e+03;;-3.5068925e+03;;-3.5114138e+03;;-3.5170236e+03;;-3.5268719e+03;;-3.5382541e+03;;-3.5463270e+03;;-3.5496950e+03;;-3.5496950e+03
-4.5218075e+01;;-4.5218075e+01;;-5.2509885e+01;;-6.2723798e+01;;-7.4779538e+01;;-8.7298333e+01;;-9.8684645e+01;;-1.0746815e+02;;-1.1419377e+02;;-1.1944793e+02;;-1.2377709e+02;;-1.2788674e+02;;-1.3212023e+02;;-1.3594083e+02;;-1.3840578e+02;;-1.5979373e+02;;-1.9912807e+02;;-2.5365336e+02;;-3.2440103e+02;;-4.1367037e+02;;-5.2277496e+02;;-6.5347323e+02;;-8.0666005e+02;;-9.8066799e+02;;-1.1693134e+03;;-1.3594006e+03;;-1.5335791e+03;;-1.6837720e+03;;-1.8122186e+03;;-1.9236011e+03;;-2.0217519e+03;;-2.1110250e+03;;-2.1964595e+03;;-2.2808010e+03;;-2.3633851e+03;;-2.4423642e+03;;-2.5163531e+03;;-2.5841298e+03;;-2.6449526e+03;;-2.6999956e+03;;-2.7522901e+03;;-2.8042978e+03;;-2.8557170e+03;;-2.9046013e+03;;-2.9508238e+03;;-2.9968630e+03;;-3.0444400e+03;;-3.0923611e+03;;-3.1391010e+03;;-3.1862740e+03;;-3.2380962e+03;;-3.2971201e+03;;-3.3600054e+03;;-3.4175182e+03;;-3.4607274e+03;;-3.4877592e+03;;-3.5028590e+03;;-3.5105957e+03;;-3.5146099e+03;;-3.5192052e+03;;-3.5269116e+03;;-3.5357349e+03;;-3.5420420e+03;;-3.5447411e+03;;-3.5447411e+03
-4.8622285e+01;;-4.8622285e+01;;-5.5813928e+01;;-6.5980997e+01;;-7.7641490e+01;;-8.9195718e+01;;-9.9378286e+01;;-1.0847210e+02;;-1.1664583e+02;;-1.2343504e+02;;-1.2866973e+02;;-1.3289066e+02;;-1.3713475e+02;;-1.4180369e+02;;-1.4528199e+02;;-1.5860404e+02;;-1.9498572e+02;;-2.4731394e+02;;-3.1592410e+02;;-4.0294559e+02;;-5.1005466e+02;;-6.3867742e+02;;-7.9007761e+02;;-9.6312470e+02;;-1.1525367e+03;;-1.3462089e+03;;-1.5256029e+03;;-1.6784071e+03;;-1.8060226e+03;;-1.9148879e+03;;-2.0097909e+03;;-2.0946864e+03;;-2.1746683e+03;;-2.2542818e+03;;-2.3352883e+03;;-2.4167432e+03;;-2.4958668e+03;;-2.5689372e+03;;-2.6333694e+03;;-2.6901314e+03;;-2.7437013e+03;;-2.7986775e+03;;-2.8558653e+03;;-2.9122698e+03;;-2.9651835e+03;;-3.0147489e+03;;-3.0620679e+03;;-3.1072090e+03;;-3.1505931e+03;;-3.1950176e+03;;-3.2448388e+03;;-3.3025256e+03;;-3.3648082e+03;;-3.4220507e+03;;-3.4640986e+03;;-3.4881355e+03;;-3.4994055e+03;;-3.5050628e+03;;-3.5099505e+03;;-3.5163871e+03;;-3.5241217e+03;;-3.5308857e+03;;-3.5348881e+03;;-3.5363735e+03;;-3.5363735e+03
-5.5377286e+01;;-5.5377286e+01;;-6.1486819e+01;;-7.0857110e+01;;-8.1419207e+01;;-9.1413508e+01;;-1.0063314e+02;;-1.0976200e+02;;-1.1836641e+02;;-1.2565579e+02;;-1.3124159e+02;;-1.3576034e+02;;-1.4090714e+02;;-1.4740021e+02;;-1.5257733e+02;;-1.5872197e+02;;-1.9206445e+02;;-2.4217549e+02;;-3.0876591e+02;;-3.9373040e+02;;-4.9906305e+02;;-6.2582701e+02;;-7.7557031e+02;;-9.4757600e+02;;-1.1371842e+03;;-1.3328343e+03;;-1.5142429e+03;;-1.6645791e+03;;-1.7859996e+03;;-1.8885456e+03;;-1.9790246e+03;;-2.0611299e+03;;-2.1388122e+03;;-2.2167295e+03;;-2.2984377e+03;;-2.3845000e+03;;-2.4714315e+03;;-2.5529889e+03;;-2.6241060e+03;;-2.6846071e+03;;-2.7395870e+03;;-2.7957677e+03;;-2.8561559e+03;;-2.9180096e+03;;-2.9764192e+03;;-3.0289534e+03;;-3.0763380e+03;;-3.1205764e+03;;-3.1639907e+03;;-3.2092780e+03;;-3.2591072e+03;;-3.3146323e+03;;-3.3728736e+03;;-3.4253452e+03;;-3.4621863e+03;;-3.4800377e+03;;-3.4851577e+03;;-3.4879689e+03;;-3.4950872e+03;;-3.5060445e+03;;-3.5162142e+03;;-3.5222107e+03;;-3.5243408e+03;;-3.5247114e+03;;-3.5247114e+03
-6.5513631e+01;;-6.5513631e+01;;-7.0757365e+01;;-7.8977260e+01;;-8.7917249e+01;;-9.6414462e+01;;-1.0476240e+02;;-1.1297831e+02;;-1.2056463e+02;;-1.2694788e+02;;-1.3185371e+02;;-1.3613676e+02;;-1.4198841e+02;;-1.4999452e+02;;-1.5629858e+02;;-1.5838386e+02;;-1.8839419e+02;;-2.3615478e+02;;-3.0053872e+02;;-3.8310143e+02;;-4.8601159e+02;;-6.1013113e+02;;-7.5717104e+02;;-9.2674781e+02;;-1.1147046e+03;;-1.3099540e+03;;-1.4910120e+03;;-1.6369751e+03;;-1.7515485e+03;;-1.8487274e+03;;-1.9370650e+03;;-2.0197882e+03;;-2.0992181e+03;;-2.1791251e+03;;-2.2639092e+03;;-2.3554155e+03;;-2.4500296e+03;;-2.5398429e+03;;-2.6178615e+03;;-2.6826812e+03;;-2.7393172e+03;;-2.7957333e+03;;-2.8568390e+03;;-2.9208710e+03;;-2.9820673e+03;;-3.0365251e+03;;-3.0849168e+03;;-3.1307558e+03;;-3.1774764e+03;;-3.2268842e+03;;-3.2791905e+03;;-3.3333318e+03;;-3.3859765e+03;;-3.4302966e+03;;-3.4584215e+03;;-3.4680117e+03;;-3.4665546e+03;;-3.4669271e+03;;-3.4767486e+03;;-3.4926116e+03;;-3.5057716e+03;;-3.5119220e+03;;-3.5132737e+03;;-3.5132888e+03;;-3.5132888e+03
-7.8149018e+01;;-7.8149018e+01;;-8.2826841e+01;;-9.0061507e+01;;-9.8100506e+01;;-1.0649473e+02;;-1.1434703e+02;;-1.2051753e+02;;-1.2516009e+02;;-1.2874022e+02;;-1.3147729e+02;;-1.3444897e+02;;-1.3986842e+02;;-1.4788557e+02;;-1.5403683e+02;;-1.5473522e+02;;-1.8209082e+02;;-2.2743385e+02;;-2.8904591e+02;;-3.6825184e+02;;-4.6729404e+02;;-5.8703117e+02;;-7.2925776e+02;;-8.9394470e+02;;-1.0775984e+03;;-1.2702200e+03;;-1.4511799e+03;;-1.5969511e+03;;-1.7106152e+03;;-1.8085073e+03;;-1.8999304e+03;;-1.9872583e+03;;-2.0712858e+03;;-2.1549014e+03;;-2.2428547e+03;;-2.3377647e+03;;-2.4363217e+03;;-2.5304154e+03;;-2.6126067e+03;;-2.6809045e+03;;-2.7397735e+03;;-2.7969500e+03;;-2.8576910e+03;;-2.9210714e+03;;-2.9821502e+03;;-3.0374445e+03;;-3.0878896e+03;;-3.1373643e+03;;-3.1892855e+03;;-3.2442832e+03;;-3.3002675e+03;;-3.3538484e+03;;-3.4009699e+03;;-3.4366482e+03;;-3.4562921e+03;;-3.4598362e+03;;-3.4552810e+03;;-3.4553582e+03;;-3.4669817e+03;;-3.4849091e+03;;-3.4988040e+03;;-3.5046961e+03;;-3.5060293e+03;;-3.5063967e+03;;-3.5063967e+03
-9.1896274e+01;;-9.1966883e+01;;-9.6225055e+01;;-1.0292925e+02;;-1.1136495e+02;;-1.2096281e+02;;-1.2899173e+02;;-1.3282526e+02;;-1.3306299e+02;;-1.3201339e+02;;-1.3113951e+02;;-1.3179133e+02;;-1.3566955e+02;;-1.4229062e+02;;-1.4737781e+02;;-1.4821933e+02;;-1.7322546e+02;;-2.1568186e+02;;-2.7361939e+02;;-3.4821072e+02;;-4.4174065e+02;;-5.5523304e+02;;-6.9053246e+02;;-8.4812088e+02;;-1.0255480e+03;;-1.2148713e+03;;-1.3988349e+03;;-1.5536663e+03;;-1.6770084e+03;;-1.7840377e+03;;-1.8836628e+03;;-1.9773237e+03;;-2.0650867e+03;;-2.1500030e+03;;-2.2375845e+03;;-2.3311378e+03;;-2.4280935e+03;;-2.5214854e+03;;-2.6047952e+03;;-2.6759018e+03;;-2.7380318e+03;;-2.7971791e+03;;-2.8574529e+03;;-2.9185109e+03;;-2.9775139e+03;;-3.0328889e+03;;-3.0860504e+03;;-3.1402966e+03;;-3.1980729e+03;;-3.2585100e+03;;-3.3174198e+03;;-3.3697068e+03;;-3.4114990e+03;;-3.4405676e+03;;-3.4561858e+03;;-3.4601868e+03;;-3.4589268e+03;;-3.4617362e+03;;-3.4733244e+03;;-3.4886699e+03;;-3.4993111e+03;;-3.5031526e+03;;-3.5041128e+03;;-3.5048325e+03;;-3.5048325e+03
-1.0490057e+02;;-1.0497285e+02;;-1.0863622e+02;;-1.1559173e+02;;-1.2596572e+02;;-1.3778880e+02;;-1.4648044e+02;;-1.4796164e+02;;-1.4333293e+02;;-1.3688672e+02;;-1.3168702e+02;;-1.2946543e+02;;-1.3122605e+02;;-1.3575201e+02;;-1.3959160e+02;;-1.4158156e+02;;-1.6383020e+02;;-2.0289646e+02;;-2.5654148e+02;;-3.2581487e+02;;-4.1297223e+02;;-5.1958933e+02;;-6.4741073e+02;;-7.9758484e+02;;-9.6893650e+02;;-1.1560029e+03;;-1.3458683e+03;;-1.5171782e+03;;-1.6594112e+03;;-1.7821783e+03;;-1.8924484e+03;;-1.9909666e+03;;-2.0787092e+03;;-2.1603857e+03;;-2.2427362e+03;;-2.3298086e+03;;-2.4202924e+03;;-2.5093180e+03;;-2.5920430e+03;;-2.6661369e+03;;-2.7326488e+03;;-2.7947049e+03;;-2.8546979e+03;;-2.9130166e+03;;-2.9694510e+03;;-3.0247792e+03;;-3.0808892e+03;;-3.1400423e+03;;-3.2031883e+03;;-3.2677531e+03;;-3.3278243e+03;;-3.3776605e+03;;-3.4149427e+03;;-3.4408642e+03;;-3.4578922e+03;;-3.4681855e+03;;-3.4746546e+03;;-3.4816872e+03;;-3.4914783e+03;;-3.5007307e+03;;-3.5050089e+03;;-3.5050886e+03;;-3.5050145e+03;;-3.5058761e+03;;-3.5058761e+03
-1.1354577e+02;;-1.1354577e+02;;-1.1727584e+02;;-1.2583183e+02;;-1.3895645e+02;;-1.5325742e+02;;-1.6278092e+02;;-1.6213177e+02;;-1.5347908e+02;;-1.4248824e+02;;-1.3339346e+02;;-1.2838534e+02;;-1.2786162e+02;;-1.3014123e+02;;-1.3288460e+02;;-1.3681657e+02;;-1.5690734e+02;;-1.9271618e+02;;-2.4217475e+02;;-3.0632743e+02;;-3.8745650e+02;;-4.8807292e+02;;-6.0973794e+02;;-7.5399970e+02;;-9.2070872e+02;;-1.1063740e+03;;-1.3016007e+03;;-1.4889455e+03;;-1.6529597e+03;;-1.7943810e+03;;-1.9156795e+03;;-2.0171400e+03;;-2.1022113e+03;;-2.1780818e+03;;-2.2524345e+03;;-2.3299657e+03;;-2.4111891e+03;;-2.4939153e+03;;-2.5751359e+03;;-2.6520888e+03;;-2.7232000e+03;;-2.7884918e+03;;-2.8488405e+03;;-2.9054867e+03;;-2.9604957e+03;;-3.0165498e+03;;-3.0757578e+03;;-3.1390397e+03;;-3.2056391e+03;;-3.2718629e+03;;-3.3315139e+03;;-3.3795445e+03;;-3.4153534e+03;;-3.4421179e+03;;-3.4632815e+03;;-3.4801429e+03;;-3.4928919e+03;;-3.5024984e+03;;-3.5094491e+03;;-3.5121427e+03;;-3.5100103e+03;;-3.5066834e+03;;-3.5061943e+03;;-3.5076978e+03;;-3.5076978e+03
-1.1776739e+02;;-1.1776739e+02;;-1.2184141e+02;;-1.3173768e+02;;-1.4671912e+02;;-1.6260597e+02;;-1.7271371e+02;;-1.7096773e+02;;-1.6034165e+02;;-1.4702418e+02;;-1.3564657e+02;;-1.2859165e+02;;-1.2596940e+02;;-1.2606634e+02;;-1.2785831e+02;;-1.3420099e+02;;-1.5421967e+02;;-1.8755708e+02;;-2.3350812e+02;;-2.9337404e+02;;-3.6947842e+02;;-4.6475823e+02;;-5.8159410e+02;;-7.2118852e+02;;-8.8385682e+02;;-1.0673212e+03;;-1.2646334e+03;;-1.4622685e+03;;-1.6449481e+03;;-1.8051588e+03;;-1.9380358e+03;;-2.0426525e+03;;-2.1255204e+03;;-2.1961909e+03;;-2.2626656e+03;;-2.3303361e+03;;-2.4020204e+03;;-2.4781647e+03;;-2.5571548e+03;;-2.6357282e+03;;-2.7102214e+03;;-2.7783801e+03;;-2.8401686e+03;;-2.8974536e+03;;-2.9534955e+03;;-3.0117669e+03;;-3.0740144e+03;;-3.1395715e+03;;-3.2062883e+03;;-3.2710054e+03;;-3.3297025e+03;;-3.3791164e+03;;-3.4186202e+03;;-3.4498362e+03;;-3.4745026e+03;;-3.4932841e+03;;-3.5065460e+03;;-3.5150438e+03;;-3.5187889e+03;;-3.5170303e+03;;-3.5115420e+03;;-3.5076152e+03;;-3.5086531e+03;;-3.5117289e+03;;-3.5117289e+03
-1.2063257e+02;;-1.2070547e+02;;-1.2384252e+02;;-1.3289602e+02;;-1.4733937e+02;;-1.6279733e+02;;-1.7263150e+02;;-1.7137876e+02;;-1.6154185e+02;;-1.4871061e+02;;-1.3728510e+02;;-1.2951837e+02;;-1.2537880e+02;;-1.2368544e+02;;-1.2490025e+02;;-1.3409520e+02;;-1.5552979e+02;;-1.8742657e+02;;-2.3038841e+02;;-2.8645325e+02;;-3.5826398e+02;;-4.4878082e+02;;-5.6112087e+02;;-6.9654549e+02;;-8.5509806e+02;;-1.0352389e+03;;-1.2317661e+03;;-1.4344213e+03;;-1.6301243e+03;;-1.8060991e+03;;-1.9499952e+03;;-2.0587280e+03;;-2.1411174e+03;;-2.2083215e+03;;-2.2685142e+03;;-2.3281644e+03;;-2.3924477e+03;;-2.4636274e+03;;-2.5405245e+03;;-2.6193136e+03;;-2.6952432e+03;;-2.7651552e+03;;-2.8289921e+03;;-2.8890840e+03;;-2.9486298e+03;;-3.0102821e+03;;-3.0744932e+03;;-3.1392118e+03;;-3.2022051e+03;;-3.2630567e+03;;-3.3219419e+03;;-3.3772730e+03;;-3.4255759e+03;;-3.4635041e+03;;-3.4897859e+03;;-3.5058377e+03;;-3.5148464e+03;;-3.5195076e+03;;-3.5202095e+03;;-3.5166923e+03;;-3.5117630e+03;;-3.5106013e+03;;-3.5148471e+03;;-3.5198445e+03;;-3.5198445e+03
-1.2242972e+02;;-1.2250301e+02;;-1.2391150e+02;;-1.3060632e+02;;-1.4296776e+02;;-1.5663266e+02;;-1.6531339e+02;;-1.6486008e+02;;-1.5735999e+02;;-1.4716229e+02;;-1.3767855e+02;;-1.3059381e+02;;-1.2593527e+02;;-1.2345126e+02;;-1.2505574e+02;;-1.3717499e+02;;-1.6036966e+02;;-1.9220882e+02;;-2.3294572e+02;;-2.8531913e+02;;-3.5326668e+02;;-4.4006229e+02;;-5.4869579e+02;;-6.8119820e+02;;-8.3686936e+02;;-1.0144554e+03;;-1.2097633e+03;;-1.4143542e+03;;-1.6163473e+03;;-1.8004813e+03;;-1.9503529e+03;;-2.0612968e+03;;-2.1430178e+03;;-2.2074656e+03;;-2.2633837e+03;;-2.3185017e+03;;-2.3794423e+03;;-2.4489094e+03;;-2.5251369e+03;;-2.6036378e+03;;-2.6794114e+03;;-2.7495742e+03;;-2.8148999e+03;;-2.8783084e+03;;-2.9421363e+03;;-3.0068412e+03;;-3.0708093e+03;;-3.1314027e+03;;-3.1881815e+03;;-3.2450074e+03;;-3.3064062e+03;;-3.3710598e+03;;-3.4305710e+03;;-3.4755472e+03;;-3.5024527e+03;;-3.5148960e+03;;-3.5195243e+03;;-3.5208114e+03;;-3.5194890e+03;;-3.5159701e+03;;-3.5137014e+03;;-3.5166935e+03;;-3.5242380e+03;;-3.5306563e+03;;-3.5306563e+03
-1.2217597e+02;;-1.2224951e+02;;-1.2219305e+02;;-1.2675620e+02;;-1.3698184e+02;;-1.4850256e+02;;-1.5557756e+02;;-1.5557101e+02;;-1.5063750e+02;;-1.4385172e+02;;-1.3723505e+02;;-1.3176770e+02;;-1.2776607e+02;;-1.2589658e+02;;-1.2890204e+02;;-1.4282479e+02;;-1.6716161e+02;;-1.9954174e+02;;-2.3950735e+02;;-2.8941063e+02;;-3.5519731e+02;;-4.4059764e+02;;-5.4831980e+02;;-6.8064586e+02;;-8.3646016e+02;;-1.0142647e+03;;-1.2097986e+03;;-1.4142915e+03;;-1.6150258e+03;;-1.7962357e+03;;-1.9422702e+03;;-2.0492166e+03;;-2.1268573e+03;;-2.1878712e+03;;-2.2422128e+03;;-2.2979270e+03;;-2.3607352e+03;;-2.4320166e+03;;-2.5090696e+03;;-2.5872626e+03;;-2.6620962e+03;;-2.7315004e+03;;-2.7972159e+03;;-2.8626798e+03;;-2.9292850e+03;;-2.9952033e+03;;-3.0569782e+03;;-3.1123211e+03;;-3.1635308e+03;;-3.2183428e+03;;-3.2838658e+03;;-3.3576313e+03;;-3.4266257e+03;;-3.4771815e+03;;-3.5052097e+03;;-3.5168442e+03;;-3.5209620e+03;;-3.5222608e+03;;-3.5210808e+03;;-3.5183815e+03;;-3.5182058e+03;;-3.5237035e+03;;-3.5327356e+03;;-3.5394894e+03;;-3.5394894e+03
-1.1974646e+02;;-1.1982010e+02;;-1.1917309e+02;;-1.2271195e+02;;-1.3153216e+02;;-1.4124497e+02;;-1.4684275e+02;;-1.4714304e+02;;-1.4448230e+02;;-1.4079878e+02;;-1.3689257e+02;;-1.3336160e+02;;-1.3094881e+02;;-1.3081991e+02;;-1.3542371e+02;;-1.4961421e+02;;-1.7391929e+02;;-2.0627491e+02;;-2.4614644e+02;;-2.9628938e+02;;-3.6330602e+02;;-4.5073154e+02;;-5.6113041e+02;;-6.9665324e+02;;-8.5586953e+02;;-1.0368872e+03;;-1.2343332e+03;;-1.4371139e+03;;-1.6296706e+03;;-1.7973155e+03;;-1.9293730e+03;;-2.0246790e+03;;-2.0932560e+03;;-2.1496652e+03;;-2.2058952e+03;;-2.2682651e+03;;-2.3379602e+03;;-2.4131703e+03;;-2.4910576e+03;;-2.5684961e+03;;-2.6423598e+03;;-2.7111719e+03;;-2.7767304e+03;;-2.8423255e+03;;-2.9088936e+03;;-2.9737961e+03;;-3.0331802e+03;;-3.0856145e+03;;-3.1351244e+03;;-3.1907770e+03;;-3.2597340e+03;;-3.3382511e+03;;-3.4115208e+03;;-3.4650556e+03;;-3.4955934e+03;;-3.5105557e+03;;-3.5188623e+03;;-3.5240258e+03;;-3.5254722e+03;;-3.5241720e+03;;-3.5243324e+03;;-3.5290861e+03;;-3.5367453e+03;;-3.5424577e+03;;-3.5424577e+03
-1.1603666e+02;;-1.1611033e+02;;-1.1566860e+02;;-1.1921036e+02;;-1.2742901e+02;;-1.3599597e+02;;-1.4069064e+02;;-1.4138426e+02;;-1.4043779e+02;;-1.3897085e+02;;-1.3710488e+02;;-1.3541386e+02;;-1.3496633e+02;;-1.3688263e+02;;-1.4272358e+02;;-1.5600671e+02;;-1.7895309e+02;;-2.1045533e+02;;-2.5088787e+02;;-3.0441578e+02;;-3.7586889e+02;;-4.6811965e+02;;-5.8386291e+02;;-7.2471476e+02;;-8.8922092e+02;;-1.0750105e+03;;-1.2749712e+03;;-1.4745025e+03;;-1.6542083e+03;;-1.8024501e+03;;-1.9155473e+03;;-1.9951920e+03;;-2.0520294e+03;;-2.1037066e+03;;-2.1646542e+03;;-2.2376084e+03;;-2.3164838e+03;;-2.3953382e+03;;-2.4726591e+03;;-2.5486867e+03;;-2.6222297e+03;;-2.6915961e+03;;-2.7571966e+03;;-2.8212708e+03;;-2.8850697e+03;;-2.9473554e+03;;-3.0057441e+03;;-3.0594938e+03;;-3.1119793e+03;;-3.1703943e+03;;-3.2401021e+03;;-3.3172199e+03;;-3.3888161e+03;;-3.4429189e+03;;-3.4774742e+03;;-3.4989386e+03;;-3.5140558e+03;;-3.5247222e+03;;-3.5299766e+03;;-3.5306673e+03;;-3.5304818e+03;;-3.5327208e+03;;-3.5373095e+03;;-3.5411413e+03;;-3.5411413e+03
-1.1203894e+02;;-1.1211261e+02;;-1.1234576e+02;;-1.1654052e+02;;-1.2486140e+02;;-1.3310218e+02;;-1.3752521e+02;;-1.3840843e+02;;-1.3817682e+02;;-1.3785416e+02;;-1.3744403e+02;;-1.3743294e+02;;-1.3882639e+02;;-1.4241406e+02;;-1.4900665e+02;;-1.6100523e+02;;-1.8176259e+02;;-2.1252070e+02;;-2.5573741e+02;;-3.1480643e+02;;-3.9225997e+02;;-4.9070558e+02;;-6.1297108e+02;;-7.5954798e+02;;-9.2957194e+02;;-1.1198300e+03;;-1.3211721e+03;;-1.5152772e+03;;-1.6803357e+03;;-1.8099073e+03;;-1.9063798e+03;;-1.9732241e+03;;-2.0213012e+03;;-2.0703667e+03;;-2.1361177e+03;;-2.2176883e+03;;-2.3027958e+03;;-2.3826402e+03;;-2.4579142e+03;;-2.5325286e+03;;-2.6068713e+03;;-2.6781039e+03;;-2.7441408e+03;;-2.8056640e+03;;-2.8649864e+03;;-2.9238750e+03;;-2.9824560e+03;;-3.0400706e+03;;-3.0975701e+03;;-3.1585444e+03;;-3.2261989e+03;;-3.2978434e+03;;-3.3646427e+03;;-3.4185415e+03;;-3.4580481e+03;;-3.4867398e+03;;-3.5080969e+03;;-3.5230338e+03;;-3.5314388e+03;;-3.5345555e+03;;-3.5352732e+03;;-3.5364788e+03;;-3.5391465e+03;;-3.5416477e+03;;-3.5416477e+03
-1.0834445e+02;;-1.0841817e+02;;-1.0936426e+02;;-1.1436579e+02;;-1.2323174e+02;;-1.3188983e+02;;-1.3655739e+02;;-1.3725677e+02;;-1.3672467e+02;;-1.3669772e+02;;-1.3741401e+02;;-1.3894902e+02;;-1.4182902e+02;;-1.4656362e+02;;-1.5359896e+02;;-1.6457690e+02;;-1.8360410e+02;;-2.1624780e+02;;-2.6476984e+02;;-3.3006559e+02;;-4.1405303e+02;;-5.1939617e+02;;-6.4799567e+02;;-8.0001952e+02;;-9.7479570e+02;;-1.1678962e+03;;-1.3679670e+03;;-1.5538046e+03;;-1.7050820e+03;;-1.8211643e+03;;-1.9078997e+03;;-1.9696203e+03;;-2.0163277e+03;;-2.0664534e+03;;-2.1342265e+03;;-2.2170045e+03;;-2.3011332e+03;;-2.3781016e+03;;-2.4504903e+03;;-2.5242240e+03;;-2.6002095e+03;;-2.6739759e+03;;-2.7406846e+03;;-2.7995679e+03;;-2.8543124e+03;;-2.9096729e+03;;-2.9678522e+03;;-3.0279262e+03;;-3.0884062e+03;;-3.1499842e+03;;-3.2145419e+03;;-3.2810326e+03;;-3.3443350e+03;;-3.3991114e+03;;-3.4431984e+03;;-3.4770579e+03;;-3.5018243e+03;;-3.5185988e+03;;-3.5288101e+03;;-3.5345241e+03;;-3.5380898e+03;;-3.5413567e+03;;-3.5448431e+03;;-3.5473904e+03;;-3.5473904e+03
-1.0505115e+02;;-1.0512501e+02;;-1.0638910e+02;;-1.1169370e+02;;-1.2089394e+02;;-1.3022858e+02;;-1.3565988e+02;;-1.3648621e+02;;-1.3561117e+02;;-1.3567381e+02;;-1.3727646e+02;;-1.4005979e+02;;-1.4403375e+02;;-1.4954589e+02;;-1.5693405e+02;;-1.6744421e+02;;-1.8788054e+02;;-2.2650645e+02;;-2.8162715e+02;;-3.5388559e+02;;-4.4532591e+02;;-5.5814649e+02;;-6.9294801e+02;;-8.5041609e+02;;-1.0289020e+03;;-1.2222451e+03;;-1.4167590e+03;;-1.5908277e+03;;-1.7302007e+03;;-1.8382090e+03;;-1.9214632e+03;;-1.9846405e+03;;-2.0361519e+03;;-2.0901563e+03;;-2.1569869e+03;;-2.2340425e+03;;-2.3109287e+03;;-2.3821058e+03;;-2.4511101e+03;;-2.5238829e+03;;-2.6010638e+03;;-2.6768458e+03;;-2.7442629e+03;;-2.8015700e+03;;-2.8533641e+03;;-2.9057581e+03;;-2.9615820e+03;;-3.0199884e+03;;-3.0792117e+03;;-3.1392756e+03;;-3.2017285e+03;;-3.2664431e+03;;-3.3298304e+03;;-3.3868350e+03;;-3.4337763e+03;;-3.4694271e+03;;-3.4946786e+03;;-3.5116553e+03;;-3.5229734e+03;;-3.5313471e+03;;-3.5388430e+03;;-3.5459785e+03;;-3.5518509e+03;;-3.5551864e+03;;-3.5551864e+03
-1.0210892e+02;;-1.0218285e+02;;-1.0327635e+02;;-1.0807892e+02;;-1.1688639e+02;;-1.2659248e+02;;-1.3319313e+02;;-1.3522623e+02;;-1.3504726e+02;;-1.3559336e+02;;-1.3781321e+02;;-1.4135216e+02;;-1.4605284e+02;;-1.5214098e+02;;-1.5984280e+02;;-1.7110498e+02;;-1.9935287e+02;;-2.4576274e+02;;-3.0878079e+02;;-3.8957774e+02;;-4.9034466e+02;;-6.1165173e+02;;-7.5443637e+02;;-9.1815587e+02;;-1.0990260e+03;;-1.2880322e+03;;-1.4696249e+03;;-1.6271950e+03;;-1.7552165e+03;;-1.8579955e+03;;-1.9406621e+03;;-2.0073843e+03;;-2.0650808e+03;;-2.1235671e+03;;-2.1889180e+03;;-2.2588905e+03;;-2.3274052e+03;;-2.3923378e+03;;-2.4574978e+03;;-2.5280098e+03;;-2.6043188e+03;;-2.6802985e+03;;-2.7481229e+03;;-2.8055284e+03;;-2.8569139e+03;;-2.9076357e+03;;-2.9597947e+03;;-3.0132731e+03;;-3.0681673e+03;;-3.1257652e+03;;-3.1876707e+03;;-3.2534032e+03;;-3.3188762e+03;;-3.3779325e+03;;-3.4256890e+03;;-3.4608546e+03;;-3.4853890e+03;;-3.5024523e+03;;-3.5151758e+03;;-3.5264654e+03;;-3.5379125e+03;;-3.5486018e+03;;-3.5563466e+03;;-3.5600952e+03;;-3.5600952e+03
-9.9585379e+01;;-9.9659294e+01;;-1.0050375e+02;;-1.0448705e+02;;-1.1242545e+02;;-1.2209543e+02;;-1.2996174e+02;;-1.3407603e+02;;-1.3563242e+02;;-1.3706229e+02;;-1.3963124e+02;;-1.4350510e+02;;-1.4871658e+02;;-1.5529827e+02;;-1.6329773e+02;;-1.7982638e+02;;-2.1790860e+02;;-2.7286917e+02;;-3.4497104e+02;;-4.3610161e+02;;-5.4760193e+02;;-6.7997434e+02;;-8.3338932e+02;;-1.0050081e+03;;-1.1869579e+03;;-1.3647535e+03;;-1.5239483e+03;;-1.6602728e+03;;-1.7757855e+03;;-1.8738317e+03;;-1.9567349e+03;;-2.0268647e+03;;-2.0895343e+03;;-2.1516938e+03;;-2.2166372e+03;;-2.2822361e+03;;-2.3451525e+03;;-2.4053507e+03;;-2.4664987e+03;;-2.5329716e+03;;-2.6055427e+03;;-2.6791287e+03;;-2.7465435e+03;;-2.8052109e+03;;-2.8581413e+03;;-2.9087345e+03;;-2.9580248e+03;;-3.0068892e+03;;-3.0577519e+03;;-3.1134854e+03;;-3.1754722e+03;;-3.2420650e+03;;-3.3082561e+03;;-3.3674634e+03;;-3.4148096e+03;;-3.4495087e+03;;-3.4741954e+03;;-3.4923836e+03;;-3.5072763e+03;;-3.5216252e+03;;-3.5362668e+03;;-3.5491055e+03;;-3.5574483e+03;;-3.5609799e+03;;-3.5609799e+03
-9.7028698e+01;;-9.7102372e+01;;-9.8201811e+01;;-1.0194772e+02;;-1.0928576e+02;;-1.1887964e+02;;-1.2791185e+02;;-1.3419498e+02;;-1.3769977e+02;;-1.4006749e+02;;-1.4286424e+02;;-1.4696300e+02;;-1.5266324e+02;;-1.5968804e+02;;-1.6839099e+02;;-1.9438682e+02;;-2.4029300e+02;;-3.0341493e+02;;-3.8477935e+02;;-4.8664125e+02;;-6.0951326e+02;;-7.5420598e+02;;-9.1956197e+02;;-1.0999005e+03;;-1.2815057e+03;;-1.4419288e+03;;-1.5740015e+03;;-1.6878316e+03;;-1.7903128e+03;;-1.8837793e+03;;-1.9677445e+03;;-2.0418018e+03;;-2.1087245e+03;;-2.1733347e+03;;-2.2379949e+03;;-2.3012987e+03;;-2.3613780e+03;;-2.4187898e+03;;-2.4764055e+03;;-2.5377162e+03;;-2.6041938e+03;;-2.6730081e+03;;-2.7387785e+03;;-2.7985611e+03;;-2.8533680e+03;;-2.9049068e+03;;-2.9538616e+03;;-3.0017765e+03;;-3.0519709e+03;;-3.1075468e+03;;-3.1690912e+03;;-3.2340797e+03;;-3.2977988e+03;;-3.3549761e+03;;-3.4018109e+03;;-3.4376192e+03;;-3.4643945e+03;;-3.4849013e+03;;-3.5019246e+03;;-3.5180768e+03;;-3.5340518e+03;;-3.5476084e+03;;-3.5561316e+03;;-3.5596162e+03;;-3.5596162e+03
-9.3020874e+01;;-9.3020874e+01;;-9.5300061e+01;;-9.9967098e+01;;-1.0754054e+02;;-1.1739457e+02;;-1.2750663e+02;;-1.3562099e+02;;-1.4081434e+02;;-1.4408213e+02;;-1.4722976e+02;;-1.5167190e+02;;-1.5781184e+02;;-1.6499978e+02;;-1.7530773e+02;;-2.0869987e+02;;-2.6067224e+02;;-3.3042826e+02;;-4.1961217e+02;;-5.3031142e+02;;-6.6289003e+02;;-8.1805273e+02;;-9.9346626e+02;;-1.1808242e+03;;-1.3606856e+03;;-1.5044716e+03;;-1.6150346e+03;;-1.7114147e+03;;-1.8035231e+03;;-1.8936054e+03;;-1.9794335e+03;;-2.0579110e+03;;-2.1285958e+03;;-2.1941367e+03;;-2.2571376e+03;;-2.3180284e+03;;-2.3763052e+03;;-2.4322173e+03;;-2.4870141e+03;;-2.5428837e+03;;-2.6021334e+03;;-2.6647530e+03;;-2.7275489e+03;;-2.7871657e+03;;-2.8429349e+03;;-2.8959995e+03;;-2.9475703e+03;;-2.9991267e+03;;-3.0527506e+03;;-3.1098844e+03;;-3.1700103e+03;;-3.2309376e+03;;-3.2899242e+03;;-3.3441478e+03;;-3.3911223e+03;;-3.4296730e+03;;-3.4600271e+03;;-3.4830065e+03;;-3.5003512e+03;;-3.5151548e+03;;-3.5297421e+03;;-3.5432177e+03;;-3.5528446e+03;;-3.5573980e+03;;-3.5573980e+03
-8.6776096e+01;;-8.6776096e+01;;-9.0837524e+01;;-9.7433497e+01;;-1.0609494e+02;;-1.1662225e+02;;-1.2778015e+02;;-1.3745784e+02;;-1.4420931e+02;;-1.4852719e+02;;-1.5226849e+02;;-1.5706539e+02;;-1.6323853e+02;;-1.6980464e+02;;-1.8093036e+02;;-2.1777448e+02;;-2.7311698e+02;;-3.4665608e+02;;-4.4027569e+02;;-5.5579400e+02;;-6.9368963e+02;;-8.5444371e+02;;-1.0350350e+03;;-1.2256978e+03;;-1.4040882e+03;;-1.5409740e+03;;-1.6436515e+03;;-1.7328555e+03;;-1.8201871e+03;;-1.9088053e+03;;-1.9961770e+03;;-2.0777157e+03;;-2.1505923e+03;;-2.2157065e+03;;-2.2761155e+03;;-2.3341729e+03;;-2.3905457e+03;;-2.4447775e+03;;-2.4963261e+03;;-2.5463463e+03;;-2.5982194e+03;;-2.6544199e+03;;-2.7133981e+03;;-2.7716297e+03;;-2.8278298e+03;;-2.8834743e+03;;-2.9402878e+03;;-2.9987375e+03;;-3.0582626e+03;;-3.1177556e+03;;-3.1760026e+03;;-3.2323347e+03;;-3.2866601e+03;;-3.3384293e+03;;-3.3861015e+03;;-3.4278176e+03;;-3.4617063e+03;;-3.4860836e+03;;-3.5014372e+03;;-3.5120948e+03;;-3.5234028e+03;;-3.5365992e+03;;-3.5482970e+03;;-3.5548331e+03;;-3.5548331e+03
-7.9664178e+01;;-7.9664178e+01;;-8.5667115e+01;;-9.4510106e+01;;-1.0470278e+02;;-1.1612561e+02;;-1.2823595e+02;;-1.3927905e+02;;-1.4757550e+02;;-1.5312875e+02;;-1.5754777e+02;;-1.6238479e+02;;-1.6779611e+02;;-1.7262568e+02;;-1.8228400e+02;;-2.1945841e+02;;-2.7520871e+02;;-3.4912867e+02;;-4.4306380e+02;;-5.5863968e+02;;-6.9638337e+02;;-8.5671072e+02;;-1.0365643e+03;;-1.2264093e+03;;-1.4052886e+03;;-1.5475647e+03;;-1.6566877e+03;;-1.7495463e+03;;-1.8381281e+03;;-1.9270709e+03;;-2.0147958e+03;;-2.0969434e+03;;-2.1702221e+03;;-2.2347632e+03;;-2.2934484e+03;;-2.3491410e+03;;-2.4026100e+03;;-2.4525236e+03;;-2.4976068e+03;;-2.5398903e+03;;-2.5847849e+03;;-2.6360170e+03;;-2.6920816e+03;;-2.7494696e+03;;-2.8074785e+03;;-2.8680412e+03;;-2.9322988e+03;;-2.9988032e+03;;-3.0644070e+03;;-3.1262676e+03;;-3.1833858e+03;;-3.2367939e+03;;-3.2882496e+03;;-3.3384665e+03;;-3.3864737e+03;;-3.4300328e+03;;-3.4658702e+03;;-3.4906071e+03;;-3.5039119e+03;;-3.5109621e+03;;-3.5192263e+03;;-3.5316155e+03;;-3.5444911e+03;;-3.5524043e+03;;-3.5524043e+03
-7.4177802e+01;;-7.4177802e+01;;-8.1828866e+01;;-9.2510730e+01;;-1.0414168e+02;;-1.1637182e+02;;-1.2917096e+02;;-1.4120983e+02;;-1.5079798e+02;;-1.5751108e+02;;-1.6249445e+02;;-1.6700386e+02;;-1.7101272e+02;;-1.7345200e+02;;-1.8015712e+02;;-2.1572372e+02;;-2.6980067e+02;;-3.4163093e+02;;-4.3286524e+02;;-5.4499110e+02;;-6.7849868e+02;;-8.3386972e+02;;-1.0084582e+03;;-1.1941061e+03;;-1.3738534e+03;;-1.5272757e+03;;-1.6511273e+03;;-1.7550778e+03;;-1.8496169e+03;;-1.9406492e+03;;-2.0283530e+03;;-2.1100568e+03;;-2.1835981e+03;;-2.2489554e+03;;-2.3078538e+03;;-2.3618595e+03;;-2.4103560e+03;;-2.4508529e+03;;-2.4832575e+03;;-2.5141056e+03;;-2.5528760e+03;;-2.6028990e+03;;-2.6598389e+03;;-2.7194012e+03;;-2.7821890e+03;;-2.8503904e+03;;-2.9233301e+03;;-2.9972492e+03;;-3.0677086e+03;;-3.1318892e+03;;-3.1895656e+03;;-3.2425175e+03;;-3.2929513e+03;;-3.3419564e+03;;-3.3889216e+03;;-3.4318307e+03;;-3.4675977e+03;;-3.4929422e+03;;-3.5070478e+03;;-3.5140359e+03;;-3.5208462e+03;;-3.5312381e+03;;-3.5428625e+03;;-3.5504699e+03;;-3.5504699e+03
-7.1581295e+01;;-7.1581295e+01;;-8.0209900e+01;;-9.2114979e+01;;-1.0475736e+02;;-1.1749071e+02;;-1.3049780e+02;;-1.4287250e+02;;-1.5313178e+02;;-1.6069435e+02;;-1.6624419e+02;;-1.7058438e+02;;-1.7349743e+02;;-1.7424394e+02;;-1.7797465e+02;;-2.1055232e+02;;-2.6178517e+02;;-3.3027251e+02;;-4.1732061e+02;;-5.2431890e+02;;-6.5156909e+02;;-7.9962599e+02;;-9.6637112e+02;;-1.1452938e+03;;-1.3236616e+03;;-1.4860330e+03;;-1.6248455e+03;;-1.7425018e+03;;-1.8461480e+03;;-1.9416638e+03;;-2.0310544e+03;;-2.1140312e+03;;-2.1900168e+03;;-2.2587125e+03;;-2.3200163e+03;;-2.3731808e+03;;-2.4151046e+03;;-2.4417329e+03;;-2.4558300e+03;;-2.4719707e+03;;-2.5059427e+03;;-2.5593432e+03;;-2.6219505e+03;;-2.6869596e+03;;-2.7563264e+03;;-2.8327120e+03;;-2.9134776e+03;;-2.9930293e+03;;-3.0671070e+03;;-3.1340433e+03;;-3.1939686e+03;;-3.2481131e+03;;-3.2982138e+03;;-3.3453210e+03;;-3.3891318e+03;;-3.4287685e+03;;-3.4632192e+03;;-3.4906123e+03;;-3.5090024e+03;;-3.5193103e+03;;-3.5261175e+03;;-3.5338926e+03;;-3.5428302e+03;;-3.5491498e+03;;-3.5491498e+03
-7.0451005e+01;;-7.0451005e+01;;-7.9706229e+01;;-9.2366458e+01;;-1.0573546e+02;;-1.1868317e+02;;-1.3132006e+02;;-1.4324262e+02;;-1.5347816e+02;;-1.6166738e+02;;-1.6816478e+02;;-1.7324468e+02;;-1.7651290e+02;;-1.7765686e+02;;-1.8021229e+02;;-2.0727921e+02;;-2.5452747e+02;;-3.1881897e+02;;-4.0082654e+02;;-5.0198667e+02;;-6.2213548e+02;;-7.6177003e+02;;-9.1921418e+02;;-1.0893620e+03;;-1.2628279e+03;;-1.4281970e+03;;-1.5770333e+03;;-1.7069629e+03;;-1.8209679e+03;;-1.9234879e+03;;-2.0177540e+03;;-2.1056826e+03;;-2.1878958e+03;;-2.2634201e+03;;-2.3301951e+03;;-2.3850823e+03;;-2.4223774e+03;;-2.4366579e+03;;-2.4339996e+03;;-2.4371785e+03;;-2.4679199e+03;;-2.5257264e+03;;-2.5942278e+03;;-2.6636252e+03;;-2.7369985e+03;;-2.8180738e+03;;-2.9034031e+03;;-2.9866204e+03;;-3.0641096e+03;;-3.1349254e+03;;-3.1984889e+03;;-3.2545751e+03;;-3.3039915e+03;;-3.3475134e+03;;-3.3855251e+03;;-3.4197009e+03;;-3.4525066e+03;;-3.4833601e+03;;-3.5078474e+03;;-3.5228091e+03;;-3.5306065e+03;;-3.5366684e+03;;-3.5435671e+03;;-3.5488584e+03;;-3.5488584e+03
-6.8442834e+01;;-6.8442834e+01;;-7.8163148e+01;;-9.1447217e+01;;-1.0555914e+02;;-1.1876575e+02;;-1.3069193e+02;;-1.4166664e+02;;-1.5156439e+02;;-1.6046059e+02;;-1.6851235e+02;;-1.7551536e+02;;-1.8097147e+02;;-1.8489988e+02;;-1.8991333e+02;;-2.0928604e+02;;-2.5062161e+02;;-3.0920339e+02;;-3.8484860e+02;;-4.7886079e+02;;-5.9119897e+02;;-7.2159622e+02;;-8.6876769e+02;;-1.0287612e+03;;-1.1946622e+03;;-1.3580139e+03;;-1.5112364e+03;;-1.6498918e+03;;-1.7735511e+03;;-1.8844958e+03;;-1.9862797e+03;;-2.0823529e+03;;-2.1741192e+03;;-2.2599807e+03;;-2.3362419e+03;;-2.3976266e+03;;-2.4367011e+03;;-2.4481046e+03;;-2.4403715e+03;;-2.4394933e+03;;-2.4684307e+03;;-2.5253261e+03;;-2.5920623e+03;;-2.6586023e+03;;-2.7291991e+03;;-2.8088510e+03;;-2.8946754e+03;;-2.9803587e+03;;-3.0621225e+03;;-3.1382749e+03;;-3.2066330e+03;;-3.2651694e+03;;-3.3133674e+03;;-3.3516129e+03;;-3.3818305e+03;;-3.4094685e+03;;-3.4405719e+03;;-3.4747788e+03;;-3.5046266e+03;;-3.5237222e+03;;-3.5332420e+03;;-3.5392329e+03;;-3.5454015e+03;;-3.5501388e+03;;-3.5501388e+03
-6.5201007e+01;;-6.5201007e+01;;-7.5098289e+01;;-8.8707150e+01;;-1.0343956e+02;;-1.1719737e+02;;-1.2858073e+02;;-1.3868112e+02;;-1.4842829e+02;;-1.5828104e+02;;-1.6824286e+02;;-1.7785002e+02;;-1.8662340e+02;;-1.9476084e+02;;-2.0436077e+02;;-2.2157851e+02;;-2.5470640e+02;;-3.0491456e+02;;-3.7187140e+02;;-4.5628558e+02;;-5.5935670e+02;;-6.7998806e+02;;-8.1681324e+02;;-9.6692781e+02;;-1.1252374e+03;;-1.2851188e+03;;-1.4398742e+03;;-1.5844237e+03;;-1.7162243e+03;;-1.8354966e+03;;-1.9452827e+03;;-2.0497865e+03;;-2.1512597e+03;;-2.2483294e+03;;-2.3364443e+03;;-2.4086040e+03;;-2.4567174e+03;;-2.4770620e+03;;-2.4790846e+03;;-2.4852369e+03;;-2.5134574e+03;;-2.5617441e+03;;-2.6164922e+03;;-2.6717440e+03;;-2.7332095e+03;;-2.8067000e+03;;-2.8904295e+03;;-2.9782222e+03;;-3.0649144e+03;;-3.1467975e+03;;-3.2198756e+03;;-3.2805724e+03;;-3.3271654e+03;;-3.3600809e+03;;-3.3834092e+03;;-3.4058752e+03;;-3.4353116e+03;;-3.4705310e+03;;-3.5023010e+03;;-3.5233524e+03;;-3.5346699e+03;;-3.5418602e+03;;-3.5482473e+03;;-3.5526798e+03;;-3.5526798e+03
-6.1925752e+01;;-6.1925752e+01;;-7.1728647e+01;;-8.5312042e+01;;-1.0034620e+02;;-1.1475726e+02;;-1.2611495e+02;;-1.3578095e+02;;-1.4571492e+02;;-1.5655911e+02;;-1.6819935e+02;;-1.8015872e+02;;-1.9214416e+02;;-2.0448676e+02;;-2.1878081e+02;;-2.3852549e+02;;-2.6772718e+02;;-3.0914028e+02;;-3.6550756e+02;;-4.3887341e+02;;-5.3053739e+02;;-6.4140083e+02;;-7.6968078e+02;;-9.1282399e+02;;-1.0668700e+03;;-1.2260092e+03;;-1.3835611e+03;;-1.5336934e+03;;-1.6724819e+03;;-1.7987009e+03;;-1.9145872e+03;;-2.0245020e+03;;-2.1318093e+03;;-2.2365303e+03;;-2.3344069e+03;;-2.4174939e+03;;-2.4777572e+03;;-2.5133545e+03;;-2.5328666e+03;;-2.5514327e+03;;-2.5794598e+03;;-2.6158715e+03;;-2.6547355e+03;;-2.6961344e+03;;-2.7471285e+03;;-2.8136500e+03;;-2.8946557e+03;;-2.9837890e+03;;-3.0740103e+03;;-3.1594175e+03;;-3.2346886e+03;;-3.2955789e+03;;-3.3402086e+03;;-3.3699662e+03;;-3.3907218e+03;;-3.4119030e+03;;-3.4400650e+03;;-3.4727378e+03;;-3.5015454e+03;;-3.5213284e+03;;-3.5337763e+03;;-3.5430169e+03;;-3.5506403e+03;;-3.5553133e+03;;-3.5553133e+03
-5.9726905e+01;;-5.9726905e+01;;-6.9409176e+01;;-8.2903879e+01;;-9.8108650e+01;;-1.1306898e+02;;-1.2482296e+02;;-1.3438700e+02;;-1.4456389e+02;;-1.5601916e+02;;-1.6856304e+02;;-1.8190304e+02;;-1.9608220e+02;;-2.1160861e+02;;-2.2967981e+02;;-2.5229450e+02;;-2.8121792e+02;;-3.1751350e+02;;-3.6413571e+02;;-4.2683466e+02;;-5.0900997e+02;;-6.1174947e+02;;-7.3536042e+02;;-8.7683471e+02;;-1.0324155e+03;;-1.1963586e+03;;-1.3608854e+03;;-1.5182393e+03;;-1.6629683e+03;;-1.7934091e+03;;-1.9117835e+03;;-2.0225895e+03;;-2.1302445e+03;;-2.2365710e+03;;-2.3384531e+03;;-2.4281716e+03;;-2.4983654e+03;;-2.5480073e+03;;-2.5832341e+03;;-2.6123257e+03;;-2.6402272e+03;;-2.6676616e+03;;-2.6951287e+03;;-2.7270074e+03;;-2.7708045e+03;;-2.8320400e+03;;-2.9098890e+03;;-2.9977898e+03;;-3.0875008e+03;;-3.1718835e+03;;-3.2452448e+03;;-3.3037259e+03;;-3.3464258e+03;;-3.3761563e+03;;-3.3992301e+03;;-3.4228807e+03;;-3.4501960e+03;;-3.4778033e+03;;-3.5004030e+03;;-3.5168117e+03;;-3.5298558e+03;;-3.5417063e+03;;-3.5515441e+03;;-3.5571856e+03;;-3.5571856e+03
-5.8935488e+01;;-5.8935488e+01;;-6.8623810e+01;;-8.2176536e+01;;-9.7620937e+01;;-1.1305101e+02;;-1.2525356e+02;;-1.3464762e+02;;-1.4475796e+02;;-1.5625962e+02;;-1.6887556e+02;;-1.8255835e+02;;-1.9775593e+02;;-2.1516404e+02;;-2.3567413e+02;;-2.6030387e+02;;-2.8951531e+02;;-3.2313245e+02;;-3.6308381e+02;;-4.1786860e+02;;-4.9467980e+02;;-5.9465932e+02;;-7.1806597e+02;;-8.6358212e+02;;-1.0262636e+03;;-1.2002631e+03;;-1.3760487e+03;;-1.5424073e+03;;-1.6916570e+03;;-1.8227844e+03;;-1.9394957e+03;;-2.0471456e+03;;-2.1509563e+03;;-2.2539159e+03;;-2.3541225e+03;;-2.4452129e+03;;-2.5211160e+03;;-2.5803596e+03;;-2.6256243e+03;;-2.6606595e+03;;-2.6887096e+03;;-2.7127883e+03;;-2.7365932e+03;;-2.7655114e+03;;-2.8061951e+03;;-2.8633768e+03;;-2.9362900e+03;;-3.0187690e+03;;-3.1027808e+03;;-3.1814106e+03;;-3.2495882e+03;;-3.3044169e+03;;-3.3460680e+03;;-3.3779858e+03;;-3.4053886e+03;;-3.4322284e+03;;-3.4584582e+03;;-3.4809113e+03;;-3.4978345e+03;;-3.5115101e+03;;-3.5253296e+03;;-3.5396141e+03;;-3.5515699e+03;;-3.5582447e+03;;-3.5582447e+03
-5.8841971e+01;;-5.8841971e+01;;-6.8601302e+01;;-8.2209746e+01;;-9.7981508e+01;;-1.1378801e+02;;-1.2631707e+02;;-1.3531139e+02;;-1.4502389e+02;;-1.5623047e+02;;-1.6850979e+02;;-1.8195018e+02;;-1.9735485e+02;;-2.1558602e+02;;-2.3727007e+02;;-2.6275600e+02;;-2.9174246e+02;;-3.2330785e+02;;-3.5904519e+02;;-4.1005753e+02;;-4.8638709e+02;;-5.8821229e+02;;-7.1555246e+02;;-8.6778571e+02;;-1.0397449e+03;;-1.2255971e+03;;-1.4144315e+03;;-1.5912737e+03;;-1.7449613e+03;;-1.8748576e+03;;-1.9870123e+03;;-2.0886942e+03;;-2.1862118e+03;;-2.2831908e+03;;-2.3787543e+03;;-2.4684276e+03;;-2.5474742e+03;;-2.6130069e+03;;-2.6641212e+03;;-2.7022913e+03;;-2.7316900e+03;;-2.7574736e+03;;-2.7838252e+03;;-2.8146035e+03;;-2.8545285e+03;;-2.9073607e+03;;-2.9727335e+03;;-3.0458209e+03;;-3.1200905e+03;;-3.1899618e+03;;-3.2516222e+03;;-3.3031390e+03;;-3.3448507e+03;;-3.3792248e+03;;-3.4094181e+03;;-3.4371156e+03;;-3.4613933e+03;;-3.4804180e+03;;-3.4948065e+03;;-3.5081124e+03;;-3.5231147e+03;;-3.5387630e+03;;-3.5514977e+03;;-3.5584230e+03;;-3.5584230e+03
-5.8050476e+01;;-5.8050476e+01;;-6.7756319e+01;;-8.1324667e+01;;-9.7176086e+01;;-1.1323796e+02;;-1.2628690e+02;;-1.3507799e+02;;-1.4438850e+02;;-1.5529227e+02;;-1.6725648e+02;;-1.8035352e+02;;-1.9557176e+02;;-2.1387800e+02;;-2.3571355e+02;;-2.6101119e+02;;-2.8902162e+02;;-3.1856236e+02;;-3.5170591e+02;;-4.0287070e+02;;-4.8177740e+02;;-5.8726431e+02;;-7.1949924e+02;;-8.7807403e+02;;-1.0583742e+03;;-1.2549577e+03;;-1.4563540e+03;;-1.6446976e+03;;-1.8044938e+03;;-1.9339401e+03;;-2.0409415e+03;;-2.1352452e+03;;-2.2249424e+03;;-2.3147106e+03;;-2.4050571e+03;;-2.4933099e+03;;-2.5751353e+03;;-2.6454938e+03;;-2.7006833e+03;;-2.7416531e+03;;-2.7743886e+03;;-2.8054169e+03;;-2.8378633e+03;;-2.8728636e+03;;-2.9127290e+03;;-2.9604414e+03;;-3.0166310e+03;;-3.0784695e+03;;-3.1414571e+03;;-3.2017213e+03;;-3.2568508e+03;;-3.3055462e+03;;-3.3473126e+03;;-3.3825222e+03;;-3.4123430e+03;;-3.4379909e+03;;-3.4597354e+03;;-3.4773803e+03;;-3.4921819e+03;;-3.5069028e+03;;-3.5229535e+03;;-3.5385890e+03;;-3.5506173e+03;;-3.5569338e+03;;-3.5569338e+03
-5.5843002e+01;;-5.5843002e+01;;-6.5276862e+01;;-7.8518237e+01;;-9.4194313e+01;;-1.1040104e+02;;-1.2442991e+02;;-1.3379152e+02;;-1.4300885e+02;;-1.5374477e+02;;-1.6556304e+02;;-1.7845123e+02;;-1.9332785e+02;;-2.1114181e+02;;-2.3227813e+02;;-2.5652773e+02;;-2.8296460e+02;;-3.1050501e+02;;-3.4250839e+02;;-3.9636515e+02;;-4.7835220e+02;;-5.8700863e+02;;-7.2294926e+02;;-8.8585216e+02;;-1.0719920e+03;;-1.2765077e+03;;-1.4881432e+03;;-1.6876858e+03;;-1.8556507e+03;;-1.9873872e+03;;-2.0912513e+03;;-2.1790021e+03;;-2.2607765e+03;;-2.3431178e+03;;-2.4286431e+03;;-2.5161243e+03;;-2.6005361e+03;;-2.6746432e+03;;-2.7333515e+03;;-2.7780971e+03;;-2.8160712e+03;;-2.8539403e+03;;-2.8932114e+03;;-2.9324517e+03;;-2.9720375e+03;;-3.0147111e+03;;-3.0623266e+03;;-3.1138397e+03;;-3.1665261e+03;;-3.2181360e+03;;-3.2674248e+03;;-3.3131480e+03;;-3.3534825e+03;;-3.3869527e+03;;-3.4138445e+03;;-3.4361679e+03;;-3.4558428e+03;;-3.4735854e+03;;-3.4899755e+03;;-3.5061401e+03;;-3.5223147e+03;;-3.5368602e+03;;-3.5475295e+03;;-3.5530230e+03;;-3.5530230e+03
-5.2970166e+01;;-5.2970166e+01;;-6.2031365e+01;;-7.4812087e+01;;-9.0189622e+01;;-1.0646070e+02;;-1.2155126e+02;;-1.3219472e+02;;-1.4166765e+02;;-1.5238823e+02;;-1.6424604e+02;;-1.7713425e+02;;-1.9162306e+02;;-2.0844066e+02;;-2.2802082e+02;;-2.5033338e+02;;-2.7468287e+02;;-3.0042276e+02;;-3.3292207e+02;;-3.9026980e+02;;-4.7461954e+02;;-5.8513230e+02;;-7.2292150e+02;;-8.8766476e+02;;-1.0765709e+03;;-1.2853697e+03;;-1.5034937e+03;;-1.7119268e+03;;-1.8890083e+03;;-2.0266636e+03;;-2.1318613e+03;;-2.2168138e+03;;-2.2930931e+03;;-2.3694131e+03;;-2.4507407e+03;;-2.5369051e+03;;-2.6221298e+03;;-2.6982482e+03;;-2.7603603e+03;;-2.8102791e+03;;-2.8545318e+03;;-2.8984439e+03;;-2.9422579e+03;;-2.9835132e+03;;-3.0220729e+03;;-3.0609318e+03;;-3.1025647e+03;;-3.1466323e+03;;-3.1915331e+03;;-3.2364619e+03;;-3.2809699e+03;;-3.3233112e+03;;-3.3604969e+03;;-3.3904372e+03;;-3.4138389e+03;;-3.4336748e+03;;-3.4525672e+03;;-3.4710474e+03;;-3.4885486e+03;;-3.5049012e+03;;-3.5199854e+03;;-3.5329261e+03;;-3.5424405e+03;;-3.5474898e+03;;-3.5474898e+03
-5.0587709e+01;;-5.0587709e+01;;-5.9337486e+01;;-7.1729139e+01;;-8.6836620e+01;;-1.0309361e+02;;-1.1885762e+02;;-1.3082779e+02;;-1.4080380e+02;;-1.5172172e+02;;-1.6384191e+02;;-1.7692909e+02;;-1.9101582e+02;;-2.0643431e+02;;-2.2371277e+02;;-2.4329384e+02;;-2.6509082e+02;;-2.8928596e+02;;-3.2374101e+02;;-3.8417991e+02;;-4.6994743e+02;;-5.8096141e+02;;-7.1870930e+02;;-8.8265371e+02;;-1.0708596e+03;;-1.2795512e+03;;-1.4991761e+03;;-1.7124240e+03;;-1.8984266e+03;;-2.0462976e+03;;-2.1593021e+03;;-2.2477060e+03;;-2.3233365e+03;;-2.3967110e+03;;-2.4746637e+03;;-2.5578789e+03;;-2.6410310e+03;;-2.7171827e+03;;-2.7827814e+03;;-2.8389236e+03;;-2.8891873e+03;;-2.9364277e+03;;-2.9807486e+03;;-3.0209075e+03;;-3.0577605e+03;;-3.0944880e+03;;-3.1330491e+03;;-3.1726596e+03;;-3.2122679e+03;;-3.2522729e+03;;-3.2927561e+03;;-3.3314955e+03;;-3.3651145e+03;;-3.3920238e+03;;-3.4137221e+03;;-3.4332888e+03;;-3.4527043e+03;;-3.4716484e+03;;-3.4888740e+03;;-3.5039928e+03;;-3.5173187e+03;;-3.5287834e+03;;-3.5376148e+03;;-3.5425729e+03;;-3.5425729e+03
-4.8736263e+01;;-4.8736263e+01;;-5.7219330e+01;;-6.9269986e+01;;-8.4070487e+01;;-1.0017407e+02;;-1.1621585e+02;;-1.2924831e+02;;-1.3997143e+02;;-1.5134695e+02;;-1.6389590e+02;;-1.7724370e+02;;-1.9090413e+02;;-2.0479285e+02;;-2.1954557e+02;;-2.3618593e+02;;-2.5537396e+02;;-2.7827529e+02;;-3.1533351e+02;;-3.7797257e+02;;-4.6434550e+02;;-5.7482650e+02;;-7.1102306e+02;;-8.7182528e+02;;-1.0560524e+03;;-1.2602416e+03;;-1.4761331e+03;;-1.6895378e+03;;-1.8832697e+03;;-2.0451551e+03;;-2.1726202e+03;;-2.2713393e+03;;-2.3519311e+03;;-2.4259043e+03;;-2.5013750e+03;;-2.5802546e+03;;-2.6593149e+03;;-2.7344532e+03;;-2.8035468e+03;;-2.8656857e+03;;-2.9202220e+03;;-2.9675178e+03;;-3.0089346e+03;;-3.0461036e+03;;-3.0813515e+03;;-3.1172531e+03;;-3.1543297e+03;;-3.1910108e+03;;-3.2266705e+03;;-3.2625873e+03;;-3.2992245e+03;;-3.3344554e+03;;-3.3654957e+03;;-3.3917082e+03;;-3.4147918e+03;;-3.4366394e+03;;-3.4574643e+03;;-3.4760030e+03;;-3.4914172e+03;;-3.5044343e+03;;-3.5162059e+03;;-3.5268108e+03;;-3.5352470e+03;;-3.5400602e+03;;-3.5400602e+03
-4.6384325e+01;;-4.6384325e+01;;-5.4493612e+01;;-6.6046232e+01;;-8.0243983e+01;;-9.6043003e+01;;-1.1215323e+02;;-1.2627426e+02;;-1.3801687e+02;;-1.4990348e+02;;-1.6272659e+02;;-1.7613711e+02;;-1.8937688e+02;;-2.0207276e+02;;-2.1490202e+02;;-2.2931748e+02;;-2.4649789e+02;;-2.6843185e+02;;-3.0776551e+02;;-3.7175524e+02;;-4.5830443e+02;;-5.6800253e+02;;-7.0215310e+02;;-8.5907808e+02;;-1.0379418e+03;;-1.2353329e+03;;-1.4443548e+03;;-1.6547069e+03;;-1.8540472e+03;;-2.0302925e+03;;-2.1753051e+03;;-2.2887255e+03;;-2.3782601e+03;;-2.4552486e+03;;-2.5289132e+03;;-2.6033151e+03;;-2.6783619e+03;;-2.7527061e+03;;-2.8246630e+03;;-2.8908391e+03;;-2.9470243e+03;;-2.9921525e+03;;-3.0295684e+03;;-3.0638690e+03;;-3.0982061e+03;;-3.1336925e+03;;-3.1692536e+03;;-3.2030549e+03;;-3.2351613e+03;;-3.2674034e+03;;-3.3003946e+03;;-3.3324397e+03;;-3.3618611e+03;;-3.3891277e+03;;-3.4157847e+03;;-3.4417352e+03;;-3.4646238e+03;;-3.4822489e+03;;-3.4951550e+03;;-3.5061575e+03;;-3.5172401e+03;;-3.5278306e+03;;-3.5361087e+03;;-3.5406238e+03;;-3.5406238e+03
-4.3092432e+01;;-4.3092432e+01;;-5.0666098e+01;;-6.1496232e+01;;-7.4903458e+01;;-9.0080118e+01;;-1.0606200e+02;;-1.2116973e+02;;-1.3388918e+02;;-1.4581289e+02;;-1.5823281e+02;;-1.7124036e+02;;-1.8417441e+02;;-1.9647549e+02;;-2.0866097e+02;;-2.2224227e+02;;-2.3848850e+02;;-2.5981796e+02;;-3.0072845e+02;;-3.6556921e+02;;-4.5237444e+02;;-5.6189527e+02;;-6.9488720e+02;;-8.4973076e+02;;-1.0253795e+03;;-1.2181340e+03;;-1.4217357e+03;;-1.6287732e+03;;-1.8307856e+03;;-2.0169405e+03;;-2.1762707e+03;;-2.3034630e+03;;-2.4023181e+03;;-2.4828062e+03;;-2.5552001e+03;;-2.6263078e+03;;-2.6989076e+03;;-2.7728954e+03;;-2.8459031e+03;;-2.9129965e+03;;-2.9686632e+03;;-3.0116098e+03;;-3.0463752e+03;;-3.0790036e+03;;-3.1126040e+03;;-3.1469431e+03;;-3.1801397e+03;;-3.2108656e+03;;-3.2399673e+03;;-3.2693697e+03;;-3.2993870e+03;;-3.3284098e+03;;-3.3556262e+03;;-3.3829157e+03;;-3.4124884e+03;;-3.4427131e+03;;-3.4683782e+03;;-3.4860526e+03;;-3.4977506e+03;;-3.5082962e+03;;-3.5200625e+03;;-3.5314967e+03;;-3.5399860e+03;;-3.5442958e+03;;-3.5442958e+03
-3.9550430e+01;;-3.9550430e+01;;-4.6541111e+01;;-5.6577502e+01;;-6.9093242e+01;;-8.3491675e+01;;-9.9037577e+01;;-1.1443884e+02;;-1.2745754e+02;;-1.3842448e+02;;-1.4942695e+02;;-1.6145537e+02;;-1.7424803e+02;;-1.8708394e+02;;-2.0004092e+02;;-2.1422017e+02;;-2.3056792e+02;;-2.5179842e+02;;-2.9436749e+02;;-3.6027461e+02;;-4.4795703e+02;;-5.5843484e+02;;-6.9234497e+02;;-8.4844083e+02;;-1.0256234e+03;;-1.2197721e+03;;-1.4237745e+03;;-1.6299572e+03;;-1.8315386e+03;;-2.0200871e+03;;-2.1854082e+03;;-2.3202442e+03;;-2.4251754e+03;;-2.5082562e+03;;-2.5803006e+03;;-2.6501407e+03;;-2.7219094e+03;;-2.7950881e+03;;-2.8664445e+03;;-2.9314508e+03;;-2.9857349e+03;;-3.0282492e+03;;-3.0628172e+03;;-3.0947838e+03;;-3.1268087e+03;;-3.1585001e+03;;-3.1885770e+03;;-3.2167661e+03;;-3.2442690e+03;;-3.2723505e+03;;-3.3003950e+03;;-3.3261752e+03;;-3.3491077e+03;;-3.3728250e+03;;-3.4018067e+03;;-3.4345404e+03;;-3.4635125e+03;;-3.4835908e+03;;-3.4972084e+03;;-3.5099148e+03;;-3.5236935e+03;;-3.5362780e+03;;-3.5449876e+03;;-3.5491298e+03;;-3.5491298e+03
-3.6625196e+01;;-3.6625196e+01;;-4.3112088e+01;;-5.2448511e+01;;-6.4141288e+01;;-7.7707949e+01;;-9.2495253e+01;;-1.0731523e+02;;-1.1951165e+02;;-1.2847295e+02;;-1.3734353e+02;;-1.4807660e+02;;-1.6079366e+02;;-1.7469703e+02;;-1.8932968e+02;;-2.0502833e+02;;-2.2212380e+02;;-2.4425344e+02;;-2.8970153e+02;;-3.5764150e+02;;-4.4736915e+02;;-5.6039224e+02;;-6.9752416e+02;;-8.5811897e+02;;-1.0412766e+03;;-1.2425327e+03;;-1.4529167e+03;;-1.6611920e+03;;-1.8596692e+03;;-2.0433324e+03;;-2.2057041e+03;;-2.3406092e+03;;-2.4473209e+03;;-2.5323162e+03;;-2.6058399e+03;;-2.6766961e+03;;-2.7484638e+03;;-2.8196062e+03;;-2.8869782e+03;;-2.9481366e+03;;-3.0010133e+03;;-3.0445752e+03;;-3.0804898e+03;;-3.1120804e+03;;-3.1415934e+03;;-3.1696490e+03;;-3.1966260e+03;;-3.2234668e+03;;-3.2511750e+03;;-3.2796570e+03;;-3.3068254e+03;;-3.3293480e+03;;-3.3463719e+03;;-3.3632471e+03;;-3.3876942e+03;;-3.4200411e+03;;-3.4517767e+03;;-3.4759204e+03;;-3.4938478e+03;;-3.5101848e+03;;-3.5259264e+03;;-3.5387373e+03;;-3.5468364e+03;;-3.5504542e+03;;-3.5504542e+03
-3.4571259e+01;;-3.4571259e+01;;-4.0656753e+01;;-4.9417610e+01;;-6.0392098e+01;;-7.3123375e+01;;-8.6948526e+01;;-1.0060811e+02;;-1.1098652e+02;;-1.1741782e+02;;-1.2417455e+02;;-1.3377329e+02;;-1.4646686e+02;;-1.6142130e+02;;-1.7782258e+02;;-1.9523942e+02;;-2.1334841e+02;;-2.3824325e+02;;-2.8770320e+02;;-3.5868036e+02;;-4.5152342e+02;;-5.6835288e+02;;-7.1016716e+02;;-8.7701383e+02;;-1.0681750e+03;;-1.2788202e+03;;-1.4979248e+03;;-1.7091463e+03;;-1.9022018e+03;;-2.0763817e+03;;-2.2303327e+03;;-2.3606321e+03;;-2.4669867e+03;;-2.5547755e+03;;-2.6322557e+03;;-2.7059696e+03;;-2.7778307e+03;;-2.8460117e+03;;-2.9087485e+03;;-2.9660266e+03;;-3.0175710e+03;;-3.0620214e+03;;-3.0989843e+03;;-3.1299527e+03;;-3.1570133e+03;;-3.1820498e+03;;-3.2069917e+03;;-3.2335852e+03;;-3.2623855e+03;;-3.2919622e+03;;-3.3188776e+03;;-3.3388954e+03;;-3.3508793e+03;;-3.3611255e+03;;-3.3796972e+03;;-3.4091386e+03;;-3.4414426e+03;;-3.4685060e+03;;-3.4899060e+03;;-3.5084812e+03;;-3.5243098e+03;;-3.5356592e+03;;-3.5421579e+03;;-3.5449167e+03;;-3.5449167e+03
-3.2927446e+01;;-3.2927446e+01;;-3.8649270e+01;;-4.6879840e+01;;-5.7172986e+01;;-6.9069929e+01;;-8.1874160e+01;;-9.4218797e+01;;-1.0256692e+02;;-1.0691511e+02;;-1.1229444e+02;;-1.2127405e+02;;-1.3398526e+02;;-1.4955352e+02;;-1.6709008e+02;;-1.8574994e+02;;-2.0491040e+02;;-2.3431652e+02;;-2.8739611e+02;;-3.6131996e+02;;-4.5722310e+02;;-5.7773600e+02;;-7.2396011e+02;;-8.9655716e+02;;-1.0948796e+03;;-1.3136955e+03;;-1.5401256e+03;;-1.7527041e+03;;-1.9385854e+03;;-2.1023622e+03;;-2.2476105e+03;;-2.3735840e+03;;-2.4807972e+03;;-2.5733793e+03;;-2.6565555e+03;;-2.7337008e+03;;-2.8054597e+03;;-2.8710319e+03;;-2.9305738e+03;;-2.9854613e+03;;-3.0359008e+03;;-3.0802240e+03;;-3.1171419e+03;;-3.1473490e+03;;-3.1730207e+03;;-3.1968324e+03;;-3.2212682e+03;;-3.2479126e+03;;-3.2767578e+03;;-3.3058826e+03;;-3.3316628e+03;;-3.3499566e+03;;-3.3596986e+03;;-3.3669504e+03;;-3.3817314e+03;;-3.4075556e+03;;-3.4378379e+03;;-3.4647169e+03;;-3.4864666e+03;;-3.5044487e+03;;-3.5184222e+03;;-3.5275519e+03;;-3.5325509e+03;;-3.5347608e+03;;-3.5347608e+03
-3.1088816e+01;;-3.1088816e+01;;-3.6402198e+01;;-4.4047326e+01;;-5.3608811e+01;;-6.4595825e+01;;-7.6531984e+01;;-8.7875418e+01;;-9.5183978e+01;;-9.8691597e+01;;-1.0362663e+02;;-1.1242140e+02;;-1.2498428e+02;;-1.4047812e+02;;-1.5818149e+02;;-1.7725568e+02;;-1.9726292e+02;;-2.3047731e+02;;-2.8554514e+02;;-3.6095486e+02;;-4.5835660e+02;;-5.8068950e+02;;-7.2914445e+02;;-9.0478298e+02;;-1.1070112e+03;;-1.3303622e+03;;-1.5607385e+03;;-1.7726676e+03;;-1.9516447e+03;;-2.1079200e+03;;-2.2488114e+03;;-2.3748982e+03;;-2.4864033e+03;;-2.5854444e+03;;-2.6742113e+03;;-2.7539401e+03;;-2.8255298e+03;;-2.8900381e+03;;-2.9489055e+03;;-3.0033872e+03;;-3.0532759e+03;;-3.0970614e+03;;-3.1336929e+03;;-3.1637529e+03;;-3.1893834e+03;;-3.2134374e+03;;-3.2381017e+03;;-3.2639654e+03;;-3.2903104e+03;;-3.3156946e+03;;-3.3377602e+03;;-3.3535249e+03;;-3.3624798e+03;;-3.3700735e+03;;-3.3846953e+03;;-3.4089658e+03;;-3.4370764e+03;;-3.4620832e+03;;-3.4820732e+03;;-3.4980217e+03;;-3.5100570e+03;;-3.5180430e+03;;-3.5228871e+03;;-3.5253744e+03;;-3.5253744e+03
-2.9022579e+01;;-2.9022579e+01;;-3.3864607e+01;;-4.0860006e+01;;-4.9651661e+01;;-5.9859264e+01;;-7.1065833e+01;;-8.1990197e+01;;-8.9850073e+01;;-9.4036429e+01;;-9.9315679e+01;;-1.0791092e+02;;-1.1978279e+02;;-1.3440806e+02;;-1.5139724e+02;;-1.7010942e+02;;-1.9030853e+02;;-2.2456855e+02;;-2.7943866e+02;;-3.5413375e+02;;-4.5053430e+02;;-5.7170133e+02;;-7.1898232e+02;;-8.9361168e+02;;-1.0951829e+03;;-1.3184448e+03;;-1.5492506e+03;;-1.7604431e+03;;-1.9360127e+03;;-2.0903908e+03;;-2.2332547e+03;;-2.3651384e+03;;-2.4845411e+03;;-2.5908572e+03;;-2.6840756e+03;;-2.7652088e+03;;-2.8368137e+03;;-2.9017283e+03;;-2.9616142e+03;;-3.0167443e+03;;-3.0664965e+03;;-3.1101183e+03;;-3.1473153e+03;;-3.1784939e+03;;-3.2051569e+03;;-3.2297402e+03;;-3.2539701e+03;;-3.2775409e+03;;-3.2991690e+03;;-3.3181246e+03;;-3.3334591e+03;;-3.3433895e+03;;-3.3487605e+03;;-3.3563617e+03;;-3.3740527e+03;;-3.4018969e+03;;-3.4319588e+03;;-3.4569620e+03;;-3.4756791e+03;;-3.4901170e+03;;-3.5014816e+03;;-3.5100406e+03;;-3.5161037e+03;;-3.5194953e+03;;-3.5194953e+03
-2.7292841e+01;;-2.7292841e+01;;-3.1620517e+01;;-3.7984197e+01;;-4.6089777e+01;;-5.5713238e+01;;-6.6473837e+01;;-7.7435186e+01;;-8.6726315e+01;;-9.2599792e+01;;-9.8428854e+01;;-1.0649831e+02;;-1.1722756e+02;;-1.3060374e+02;;-1.4653498e+02;;-1.6450929e+02;;-1.8405454e+02;;-2.1632255e+02;;-2.6884211e+02;;-3.4068516e+02;;-4.3366328e+02;;-5.5080036e+02;;-6.9372416e+02;;-8.6364345e+02;;-1.0605326e+03;;-1.2798711e+03;;-1.5088027e+03;;-1.7214645e+03;;-1.8994113e+03;;-2.0576162e+03;;-2.2073852e+03;;-2.3488664e+03;;-2.4783165e+03;;-2.5923073e+03;;-2.6894752e+03;;-2.7717358e+03;;-2.8436246e+03;;-2.9092763e+03;;-2.9701655e+03;;-3.0256938e+03;;-3.0751647e+03;;-3.1188072e+03;;-3.1571318e+03;;-3.1901942e+03;;-3.2183633e+03;;-3.2431615e+03;;-3.2660069e+03;;-3.2865038e+03;;-3.3032878e+03;;-3.3156155e+03;;-3.3222666e+03;;-3.3215299e+03;;-3.3171078e+03;;-3.3212528e+03;;-3.3443492e+03;;-3.3824097e+03;;-3.4210495e+03;;-3.4500266e+03;;-3.4692009e+03;;-3.4829999e+03;;-3.4944471e+03;;-3.5042313e+03;;-3.5118419e+03;;-3.5161725e+03;;-3.5161725e+03
-2.6394256e+01;;-2.6394256e+01;;-3.0205547e+01;;-3.6091154e+01;;-4.3734692e+01;;-5.3022509e+01;;-6.3570396e+01;;-7.4664180e+01;;-8.4935815e+01;;-9.2135639e+01;;-9.8177990e+01;;-1.0564492e+02;;-1.1547053e+02;;-1.2799329e+02;;-1.4318391e+02;;-1.6048802e+02;;-1.7904765e+02;;-2.0675064e+02;;-2.5504317e+02;;-3.2228716e+02;;-4.0996361e+02;;-5.2091413e+02;;-6.5720671e+02;;-8.1984764e+02;;-1.0093616e+03;;-1.2223966e+03;;-1.4484447e+03;;-1.6654520e+03;;-1.8521989e+03;;-2.0191043e+03;;-2.1784048e+03;;-2.3305811e+03;;-2.4704087e+03;;-2.5922736e+03;;-2.6938756e+03;;-2.7779295e+03;;-2.8504374e+03;;-2.9165805e+03;;-2.9779503e+03;;-3.0334297e+03;;-3.0821738e+03;;-3.1251112e+03;;-3.1635732e+03;;-3.1976419e+03;;-3.2268582e+03;;-3.2518040e+03;;-3.2736038e+03;;-3.2921837e+03;;-3.3062888e+03;;-3.3141315e+03;;-3.3122582e+03;;-3.2980205e+03;;-3.2793535e+03;;-3.2770647e+03;;-3.3063095e+03;;-3.3582333e+03;;-3.4093663e+03;;-3.4447317e+03;;-3.4653470e+03;;-3.4787663e+03;;-3.4901755e+03;;-3.5008209e+03;;-3.5095803e+03;;-3.5146102e+03;;-3.5146102e+03
-2.6088694e+01;;-2.6088694e+01;;-2.9563007e+01;;-3.5205616e+01;;-4.2623870e+01;;-5.1717925e+01;;-6.2111018e+01;;-7.3132923e+01;;-8.3508436e+01;;-9.0792766e+01;;-9.6556489e+01;;-1.0374993e+02;;-1.1349494e+02;;-1.2598917e+02;;-1.4096310e+02;;-1.5779550e+02;;-1.7553037e+02;;-1.9750207e+02;;-2.3951521e+02;;-3.0062135e+02;;-3.8154412e+02;;-4.8469966e+02;;-6.1272119e+02;;-7.6634697e+02;;-9.4666210e+02;;-1.1517638e+03;;-1.3740841e+03;;-1.5967618e+03;;-1.7978422e+03;;-1.9780848e+03;;-2.1486992e+03;;-2.3115128e+03;;-2.4612415e+03;;-2.5910608e+03;;-2.6978701e+03;;-2.7847225e+03;;-2.8586760e+03;;-2.9259348e+03;;-2.9883085e+03;;-3.0439953e+03;;-3.0915776e+03;;-3.1324011e+03;;-3.1688229e+03;;-3.2016509e+03;;-3.2305079e+03;;-3.2556624e+03;;-3.2779223e+03;;-3.2970697e+03;;-3.3114936e+03;;-3.3180431e+03;;-3.3109511e+03;;-3.2866949e+03;;-3.2567079e+03;;-3.2485680e+03;;-3.2813841e+03;;-3.3429167e+03;;-3.4029852e+03;;-3.4429101e+03;;-3.4644839e+03;;-3.4776423e+03;;-3.4891596e+03;;-3.5006454e+03;;-3.5105170e+03;;-3.5162845e+03;;-3.5162845e+03
-2.5925723e+01;;-2.5925723e+01;;-2.9079651e+01;;-3.4500516e+01;;-4.1699576e+01;;-5.0551664e+01;;-6.0614410e+01;;-7.1410273e+01;;-8.1431330e+01;;-8.8192214e+01;;-9.3650540e+01;;-1.0111325e+02;;-1.1150758e+02;;-1.2453112e+02;;-1.3955148e+02;;-1.5589340e+02;;-1.7290872e+02;;-1.9097119e+02;;-2.2380400e+02;;-2.7743498e+02;;-3.5057855e+02;;-4.4487613e+02;;-5.6318016e+02;;-7.0663602e+02;;-8.7641312e+02;;-1.0721476e+03;;-1.2892428e+03;;-1.5160908e+03;;-1.7335322e+03;;-1.9312739e+03;;-2.1152503e+03;;-2.2890561e+03;;-2.4488019e+03;;-2.5872745e+03;;-2.7005061e+03;;-2.7916607e+03;;-2.8688492e+03;;-2.9390687e+03;;-3.0037649e+03;;-3.0600214e+03;;-3.1058330e+03;;-3.1431582e+03;;-3.1755900e+03;;-3.2050088e+03;;-3.2318508e+03;;-3.2569307e+03;;-3.2809137e+03;;-3.3026975e+03;;-3.3196810e+03;;-3.3280681e+03;;-3.3217812e+03;;-3.2973008e+03;;-3.2661749e+03;;-3.2560883e+03;;-3.2865908e+03;;-3.3461619e+03;;-3.4049549e+03;;-3.4440778e+03;;-3.4652007e+03;;-3.4784955e+03;;-3.4909431e+03;;-3.5039855e+03;;-3.5155099e+03;;-3.5223484e+03;;-3.5223484e+03
-2.5746049e+01;;-2.5746049e+01;;-2.7998204e+01;;-3.2847419e+01;;-3.9491649e+01;;-4.7758358e+01;;-5.7287201e+01;;-6.7615686e+01;;-7.7423751e+01;;-8.4454111e+01;;-9.0247840e+01;;-9.8251330e+01;;-1.0922052e+02;;-1.2255085e+02;;-1.3740420e+02;;-1.5327881e+02;;-1.6991223e+02;;-1.8704526e+02;;-2.1039628e+02;;-2.5549310e+02;;-3.2018773e+02;;-4.0525433e+02;;-5.1313900e+02;;-6.4609083e+02;;-8.0484675e+02;;-9.9031416e+02;;-1.2003708e+03;;-1.4276981e+03;;-1.6576747e+03;;-1.8736587e+03;;-2.0723105e+03;;-2.2577984e+03;;-2.4287531e+03;;-2.5781685e+03;;-2.7007572e+03;;-2.7991400e+03;;-2.8820888e+03;;-2.9568817e+03;;-3.0241954e+03;;-3.0803369e+03;;-3.1235059e+03;;-3.1566561e+03;;-3.1844228e+03;;-3.2095566e+03;;-3.2335349e+03;;-3.2582210e+03;;-3.2843725e+03;;-3.3097071e+03;;-3.3304130e+03;;-3.3429675e+03;;-3.3430705e+03;;-3.3280060e+03;;-3.3060153e+03;;-3.2982340e+03;;-3.3209929e+03;;-3.3672666e+03;;-3.4145234e+03;;-3.4474200e+03;;-3.4667356e+03;;-3.4805773e+03;;-3.4946132e+03;;-3.5095875e+03;;-3.5228565e+03;;-3.5307472e+03;;-3.5307472e+03
-2.5671385e+01;;-2.5671385e+01;;-2.6473591e+01;;-3.0207707e+01;;-3.5852733e+01;;-4.3116648e+01;;-5.1801612e+01;;-6.1469098e+01;;-7.1214767e+01;;-7.9563414e+01;;-8.6351463e+01;;-9.4260730e+01;;-1.0437127e+02;;-1.1629114e+02;;-1.3004666e+02;;-1.4612349e+02;;-1.6392765e+02;;-1.8254743e+02;;-2.0263468e+02;;-2.3791423e+02;;-2.9417328e+02;;-3.7048026e+02;;-4.6853988e+02;;-5.9121159e+02;;-7.3952685e+02;;-9.1463065e+02;;-1.1161486e+03;;-1.3397219e+03;;-1.5747096e+03;;-1.8041043e+03;;-2.0163171e+03;;-2.2134011e+03;;-2.3968603e+03;;-2.5606185e+03;;-2.6973465e+03;;-2.8071468e+03;;-2.8977907e+03;;-2.9765779e+03;;-3.0445436e+03;;-3.0989188e+03;;-3.1391313e+03;;-3.1688549e+03;;-3.1929232e+03;;-3.2145619e+03;;-3.2363011e+03;;-3.2609666e+03;;-3.2893596e+03;;-3.3182933e+03;;-3.3430852e+03;;-3.3607403e+03;;-3.3691412e+03;;-3.3666867e+03;;-3.3574733e+03;;-3.3540237e+03;;-3.3678026e+03;;-3.3968556e+03;;-3.4283951e+03;;-3.4525890e+03;;-3.4694454e+03;;-3.4839572e+03;;-3.4994874e+03;;-3.5157186e+03;;-3.5297173e+03;;-3.5378989e+03;;-3.5378989e+03
-2.5649962e+01;;-2.5649962e+01;;-2.5821832e+01;;-2.7603307e+01;;-3.1968768e+01;;-3.8086113e+01;;-4.5735588e+01;;-5.4593821e+01;;-6.4253655e+01;;-7.3738939e+01;;-8.1756005e+01;;-8.8389786e+01;;-9.5426616e+01;;-1.0376639e+02;;-1.1550861e+02;;-1.3165990e+02;;-1.5165819e+02;;-1.7399512e+02;;-1.9707683e+02;;-2.2614835e+02;;-2.7501157e+02;;-3.4365660e+02;;-4.3333479e+02;;-5.4664227e+02;;-6.8577687e+02;;-8.5132829e+02;;-1.0439220e+03;;-1.2610424e+03;;-1.4948852e+03;;-1.7307307e+03;;-1.9531875e+03;;-2.1602788e+03;;-2.3556808e+03;;-2.5352616e+03;;-2.6893891e+03;;-2.8131671e+03;;-2.9110621e+03;;-2.9908501e+03;;-3.0564745e+03;;-3.1082378e+03;;-3.1469928e+03;;-3.1758404e+03;;-3.1986489e+03;;-3.2189465e+03;;-3.2403580e+03;;-3.2661062e+03;;-3.2965741e+03;;-3.3282075e+03;;-3.3562880e+03;;-3.3781983e+03;;-3.3929699e+03;;-3.3997976e+03;;-3.4001758e+03;;-3.4004242e+03;;-3.4078453e+03;;-3.4235621e+03;;-3.4422010e+03;;-3.4588340e+03;;-3.4734080e+03;;-3.4884147e+03;;-3.5049518e+03;;-3.5215198e+03;;-3.5350830e+03;;-3.5427079e+03;;-3.5427079e+03
-2.5640223e+01;;-2.5640223e+01;;-2.5693744e+01;;-2.6111467e+01;;-2.8812092e+01;;-3.3775671e+01;;-4.0418415e+01;;-4.8563974e+01;;-5.7803409e+01;;-6.7601895e+01;;-7.6399945e+01;;-8.1588095e+01;;-8.4499334e+01;;-8.9186666e+01;;-9.9141894e+01;;-1.1471592e+02;;-1.3530241e+02;;-1.6019741e+02;;-1.8777138e+02;;-2.1845948e+02;;-2.6270277e+02;;-3.2577978e+02;;-4.0914880e+02;;-5.1524187e+02;;-6.4706826e+02;;-8.0525871e+02;;-9.9060769e+02;;-1.2017713e+03;;-1.4328601e+03;;-1.6714064e+03;;-1.9009165e+03;;-2.1150136e+03;;-2.3183288e+03;;-2.5095973e+03;;-2.6778443e+03;;-2.8127179e+03;;-2.9145555e+03;;-2.9922952e+03;;-3.0544638e+03;;-3.1051157e+03;;-3.1456327e+03;;-3.1771476e+03;;-3.2018271e+03;;-3.2234904e+03;;-3.2467321e+03;;-3.2745101e+03;;-3.3063202e+03;;-3.3387429e+03;;-3.3679822e+03;;-3.3918940e+03;;-3.4095353e+03;;-3.4200536e+03;;-3.4239000e+03;;-3.4249205e+03;;-3.4288313e+03;;-3.4383302e+03;;-3.4512781e+03;;-3.4645809e+03;;-3.4780058e+03;;-3.4931455e+03;;-3.5101916e+03;;-3.5268530e+03;;-3.5398583e+03;;-3.5468409e+03;;-3.5468409e+03
-2.5636706e+01;;-2.5636706e+01;;-2.5649781e+01;;-2.5742002e+01;;-2.6665376e+01;;-3.0446005e+01;;-3.6123267e+01;;-4.3380759e+01;;-5.1919370e+01;;-6.1121233e+01;;-6.9860319e+01;;-7.4589675e+01;;-7.3767698e+01;;-7.5123394e+01;;-8.3901044e+01;;-9.8965102e+01;;-1.1938591e+02;;-1.4488282e+02;;-1.7492738e+02;;-2.0991967e+02;;-2.5512455e+02;;-3.1634013e+02;;-3.9660298e+02;;-4.9889145e+02;;-6.2656196e+02;;-7.8117508e+02;;-9.6332193e+02;;-1.1723125e+03;;-1.4033194e+03;;-1.6449639e+03;;-1.8796197e+03;;-2.0965558e+03;;-2.3004592e+03;;-2.4933386e+03;;-2.6650021e+03;;-2.8025795e+03;;-2.9040643e+03;;-2.9793899e+03;;-3.0402043e+03;;-3.0926999e+03;;-3.1379178e+03;;-3.1749616e+03;;-3.2043334e+03;;-3.2297046e+03;;-3.2560029e+03;;-3.2856943e+03;;-3.3176467e+03;;-3.3490057e+03;;-3.3772880e+03;;-3.4009102e+03;;-3.4183912e+03;;-3.4279379e+03;;-3.4291947e+03;;-3.4261659e+03;;-3.4266684e+03;;-3.4359920e+03;;-3.4518728e+03;;-3.4683047e+03;;-3.4829224e+03;;-3.4978455e+03;;-3.5146258e+03;;-3.5312602e+03;;-3.5441089e+03;;-3.5508372e+03;;-3.5508372e+03
-2.5635901e+01;;-2.5635901e+01;;-2.5637859e+01;;-2.5654952e+01;;-2.5806302e+01;;-2.7708792e+01;;-3.2120460e+01;;-3.8172666e+01;;-4.5557884e+01;;-5.3666064e+01;;-6.1477529e+01;;-6.6155166e+01;;-6.3906705e+01;;-6.2790136e+01;;-7.1426319e+01;;-8.6152081e+01;;-1.0611808e+02;;-1.3145431e+02;;-1.6263609e+02;;-2.0093299e+02;;-2.4975476e+02;;-3.1286291e+02;;-3.9386991e+02;;-4.9643417e+02;;-6.2441238e+02;;-7.7992661e+02;;-9.6389410e+02;;-1.1758284e+03;;-1.4110961e+03;;-1.6579269e+03;;-1.8961406e+03;;-2.1106870e+03;;-2.3065123e+03;;-2.4890642e+03;;-2.6514821e+03;;-2.7828847e+03;;-2.8816047e+03;;-2.9569615e+03;;-3.0200017e+03;;-3.0766607e+03;;-3.1277407e+03;;-3.1715750e+03;;-3.2074191e+03;;-3.2378395e+03;;-3.2671652e+03;;-3.2977658e+03;;-3.3289548e+03;;-3.3587894e+03;;-3.3855863e+03;;-3.4078438e+03;;-3.4234179e+03;;-3.4292721e+03;;-3.4238126e+03;;-3.4121606e+03;;-3.4071156e+03;;-3.4189316e+03;;-3.4439436e+03;;-3.4693063e+03;;-3.4877934e+03;;-3.5023547e+03;;-3.5176603e+03;;-3.5332771e+03;;-3.5455513e+03;;-3.5519676e+03;;-3.5519676e+03
-2.5635810e+01;;-2.5635810e+01;;-2.5635955e+01;;-2.5638100e+01;;-2.5670704e+01;;-2.6042528e+01;;-2.8610914e+01;;-3.3192759e+01;;-3.9170637e+01;;-4.5982268e+01;;-5.2635481e+01;;-5.6733774e+01;;-5.4458502e+01;;-5.2945413e+01;;-6.1889975e+01;;-7.6207171e+01;;-9.5615674e+01;;-1.2065557e+02;;-1.5263219e+02;;-1.9327205e+02;;-2.4519334e+02;;-3.1145962e+02;;-3.9558289e+02;;-5.0151576e+02;;-6.3305043e+02;;-7.9254861e+02;;-9.8163474e+02;;-1.1998837e+03;;-1.4423550e+03;;-1.6959388e+03;;-1.9363934e+03;;-2.1438196e+03;;-2.3245965e+03;;-2.4882885e+03;;-2.6335931e+03;;-2.7547504e+03;;-2.8513845e+03;;-2.9301099e+03;;-2.9984536e+03;;-3.0606851e+03;;-3.1178000e+03;;-3.1684734e+03;;-3.2111238e+03;;-3.2466315e+03;;-3.2782848e+03;;-3.3089705e+03;;-3.3393926e+03;;-3.3685249e+03;;-3.3945711e+03;;-3.4154611e+03;;-3.4287026e+03;;-3.4306698e+03;;-3.4185693e+03;;-3.3980018e+03;;-3.3864167e+03;;-3.3995627e+03;;-3.4331643e+03;;-3.4677841e+03;;-3.4907442e+03;;-3.5049591e+03;;-3.5178712e+03;;-3.5310345e+03;;-3.5415068e+03;;-3.5469909e+03;;-3.5469909e+03
-2.5635808e+01;;-2.5635808e+01;;-2.5635812e+01;;-2.5636022e+01;;-2.5644229e+01;;-2.5730113e+01;;-2.6361207e+01;;-2.9087649e+01;;-3.3478022e+01;;-3.8869788e+01;;-4.4317830e+01;;-4.7761356e+01;;-4.5715532e+01;;-4.5433227e+01;;-5.4428914e+01;;-6.8355364e+01;;-8.7265110e+01;;-1.1211908e+02;;-1.4448477e+02;;-1.8617373e+02;;-2.3972311e+02;;-3.0812256e+02;;-3.9492337e+02;;-5.0403123e+02;;-6.3875352e+02;;-8.0210067e+02;;-9.9618106e+02;;-1.2207478e+03;;-1.4706982e+03;;-1.7317016e+03;;-1.9748457e+03;;-2.1730618e+03;;-2.3353537e+03;;-2.4773912e+03;;-2.6048066e+03;;-2.7171114e+03;;-2.8143602e+03;;-2.8993758e+03;;-2.9754640e+03;;-3.0448046e+03;;-3.1083513e+03;;-3.1653052e+03;;-3.2137626e+03;;-3.2533761e+03;;-3.2867159e+03;;-3.3174328e+03;;-3.3476199e+03;;-3.3767856e+03;;-3.4025825e+03;;-3.4223933e+03;;-3.4340738e+03;;-3.4345677e+03;;-3.4206062e+03;;-3.3968712e+03;;-3.3815602e+03;;-3.3928406e+03;;-3.4276529e+03;;-3.4650102e+03;;-3.4897533e+03;;-3.5035639e+03;;-3.5141455e+03;;-3.5241313e+03;;-3.5318635e+03;;-3.5358767e+03;;-3.5358767e+03
-2.5635808e+01;;-2.5635808e+01;;-2.5635808e+01;;-2.5635829e+01;;-2.5637400e+01;;-2.5656974e+01;;-2.5788117e+01;;-2.6499102e+01;;-2.9039033e+01;;-3.2909739e+01;;-3.7087261e+01;;-3.9761113e+01;;-3.8147758e+01;;-3.9754549e+01;;-4.8601625e+01;;-6.1979052e+01;;-8.0218198e+01;;-1.0438843e+02;;-1.3610998e+02;;-1.7722012e+02;;-2.3027091e+02;;-2.9827627e+02;;-3.8482287e+02;;-4.9366651e+02;;-6.2821467e+02;;-7.9187739e+02;;-9.8718114e+02;;-1.2143633e+03;;-1.4688465e+03;;-1.7364493e+03;;-1.9855864e+03;;-2.1782301e+03;;-2.3245119e+03;;-2.4484053e+03;;-2.5619593e+03;;-2.6687767e+03;;-2.7689814e+03;;-2.8622138e+03;;-2.9479495e+03;;-3.0258050e+03;;-3.0959655e+03;;-3.1581154e+03;;-3.2108227e+03;;-3.2535009e+03;;-3.2884188e+03;;-3.3196238e+03;;-3.3498975e+03;;-3.3789905e+03;;-3.4044302e+03;;-3.4237483e+03;;-3.4356073e+03;;-3.4381206e+03;;-3.4284175e+03;;-3.4093973e+03;;-3.3956281e+03;;-3.4031437e+03;;-3.4312198e+03;;-3.4632767e+03;;-3.4859287e+03;;-3.4989835e+03;;-3.5077826e+03;;-3.5147819e+03;;-3.5197586e+03;;-3.5223176e+03;;-3.5223176e+03
-2.5635808e+01;;-2.5635808e+01;;-2.5635808e+01;;-2.5635809e+01;;-2.5635963e+01;;-2.5638645e+01;;-2.5662910e+01;;-2.5791966e+01;;-2.6356212e+01;;-2.8413788e+01;;-3.1299241e+01;;-3.3232694e+01;;-3.2056083e+01;;-3.5020035e+01;;-4.3397562e+01;;-5.5831595e+01;;-7.2817256e+01;;-9.5435327e+01;;-1.2519481e+02;;-1.6410884e+02;;-2.1443076e+02;;-2.7917590e+02;;-3.6186050e+02;;-4.6628643e+02;;-5.9592495e+02;;-7.5440379e+02;;-9.4468240e+02;;-1.1677611e+03;;-1.4203867e+03;;-1.6905435e+03;;-1.9490216e+03;;-2.1476335e+03;;-2.2886402e+03;;-2.4033899e+03;;-2.5087054e+03;;-2.6118142e+03;;-2.7147459e+03;;-2.8160274e+03;;-2.9117738e+03;;-2.9983562e+03;;-3.0746338e+03;;-3.1409095e+03;;-3.1968970e+03;;-3.2424190e+03;;-3.2794739e+03;;-3.3118542e+03;;-3.3423571e+03;;-3.3710506e+03;;-3.3961883e+03;;-3.4161572e+03;;-3.4302279e+03;;-3.4372534e+03;;-3.4351700e+03;;-3.4254148e+03;;-3.4173421e+03;;-3.4222560e+03;;-3.4412990e+03;;-3.4646135e+03;;-3.4828858e+03;;-3.4944971e+03;;-3.5018834e+03;;-3.5068399e+03;;-3.5101242e+03;;-3.5119111e+03;;-3.5119111e+03
-2.5635808e+01;;-2.5635808e+01;;-2.5635808e+01;;-2.5635808e+01;;-2.5635810e+01;;-2.5635970e+01;;-2.5638788e+01;;-2.5658152e+01;;-2.5731769e+01;;-2.5988720e+01;;-2.7178376e+01;;-2.8366961e+01;;-2.7647198e+01;;-3.0839260e+01;;-3.8381981e+01;;-4.9511621e+01;;-6.4764358e+01;;-8.5162477e+01;;-1.1211302e+02;;-1.4749743e+02;;-1.9341153e+02;;-2.5268726e+02;;-3.2864229e+02;;-4.2507295e+02;;-5.4545257e+02;;-6.9343999e+02;;-8.7235768e+02;;-1.0840412e+03;;-1.3269736e+03;;-1.5926220e+03;;-1.8581650e+03;;-2.0761839e+03;;-2.2278249e+03;;-2.3451292e+03;;-2.4480179e+03;;-2.5478377e+03;;-2.6513127e+03;;-2.7583076e+03;;-2.8625220e+03;;-2.9572332e+03;;-3.0398085e+03;;-3.1107551e+03;;-3.1706397e+03;;-3.2197136e+03;;-3.2597171e+03;;-3.2939766e+03;;-3.3250883e+03;;-3.3535628e+03;;-3.3788834e+03;;-3.4006289e+03;;-3.4182688e+03;;-3.4305941e+03;;-3.4362152e+03;;-3.4360159e+03;;-3.4352112e+03;;-3.4403427e+03;;-3.4530070e+03;;-3.4686613e+03;;-3.4820963e+03;;-3.4917141e+03;;-3.4984418e+03;;-3.5033611e+03;;-3.5069825e+03;;-3.5090942e+03;;-3.5090942e+03
-2.5635808e+01;;-2.5635808e+01;;-2.5635808e+01;;-2.5635808e+01;;-2.5635808e+01;;-2.5635810e+01;;-2.5635980e+01;;-2.5637487e+01;;-2.5643731e+01;;-2.5659170e+01;;-2.5697273e+01;;-2.5797492e+01;;-2.5734882e+01;;-2.7553316e+01;;-3.3854644e+01;;-4.3430669e+01;;-5.6704617e+01;;-7.4575545e+01;;-9.8297110e+01;;-1.2949009e+02;;-1.7026163e+02;;-2.2296655e+02;;-2.9071191e+02;;-3.7708044e+02;;-4.8557891e+02;;-6.1970067e+02;;-7.8296174e+02;;-9.7787643e+02;;-1.2045308e+03;;-1.4578440e+03;;-1.7221141e+03;;-1.9613646e+03;;-2.1367249e+03;;-2.2667817e+03;;-2.3739209e+03;;-2.4734230e+03;;-2.5771853e+03;;-2.6876793e+03;;-2.7982056e+03;;-2.9007850e+03;;-2.9915712e+03;;-3.0699203e+03;;-3.1357755e+03;;-3.1894054e+03;;-3.2327587e+03;;-3.2692813e+03;;-3.3016088e+03;;-3.3305861e+03;;-3.3567330e+03;;-3.3807337e+03;;-3.4021825e+03;;-3.4195537e+03;;-3.4318469e+03;;-3.4398354e+03;;-3.4459927e+03;;-3.4530949e+03;;-3.4621528e+03;;-3.4718935e+03;;-3.4807519e+03;;-3.4887093e+03;;-3.4965250e+03;;-3.5040200e+03;;-3.5099728e+03;;-3.5132159e+03;;-3.5132159e+03
-2.5635808e+01;;-2.5635808e+01;;-2.5635808e+01;;-2.5635808e+01;;-2.5635808e+01;;-2.5635808e+01;;-2.5635809e+01;;-2.5635821e+01;;-2.5635871e+01;;-2.5635993e+01;;-2.5636207e+01;;-2.5636540e+01;;-2.5636471e+01;;-2.5816053e+01;;-3.0178726e+01;;-3.8001972e+01;;-4.9255443e+01;;-6.4604579e+01;;-8.5105313e+01;;-1.1217003e+02;;-1.4766789e+02;;-1.9368118e+02;;-2.5300374e+02;;-3.2888823e+02;;-4.2482695e+02;;-5.4408495e+02;;-6.9017352e+02;;-8.6603931e+02;;-1.0729560e+03;;-1.3085533e+03;;-1.5629974e+03;;-1.8120015e+03;;-2.0135841e+03;;-2.1623695e+03;;-2.2808325e+03;;-2.3865308e+03;;-2.4936890e+03;;-2.6071293e+03;;-2.7224167e+03;;-2.8330186e+03;;-2.9342589e+03;;-3.0227841e+03;;-3.0963613e+03;;-3.1550167e+03;;-3.2016633e+03;;-3.2406731e+03;;-3.2750519e+03;;-3.3057556e+03;;-3.3336988e+03;;-3.3601761e+03;;-3.3851003e+03;;-3.4070699e+03;;-3.4252969e+03;;-3.4400171e+03;;-3.4515111e+03;;-3.4599680e+03;;-3.4659521e+03;;-3.4705118e+03;;-3.4753646e+03;;-3.4826815e+03;;-3.4932949e+03;;-3.5050044e+03;;-3.5140810e+03;;-3.5185521e+03;;-3.5185521e+03
-2.5635808e+01;;-2.5635808e+01;;-2.5635808e+01;;-2.5635808e+01;;-2.5635808e+01;;-2.5635808e+01;;-2.5635808e+01;;-2.5635808e+01;;-2.5635808e+01;;-2.5635809e+01;;-2.5635809e+01;;-2.5635810e+01;;-2.5635815e+01;;-2.5639786e+01;;-2.7276480e+01;;-3.3459204e+01;;-4.2893339e+01;;-5.5981288e+01;;-7.3597741e+01;;-9.6962318e+01;;-1.2772159e+02;;-1.6770105e+02;;-2.1939274e+02;;-2.8571443e+02;;-3.7004016e+02;;-4.7550139e+02;;-6.0544898e+02;;-7.6305652e+02;;-9.5038851e+02;;-1.1669758e+03;;-1.4071026e+03;;-1.6546911e+03;;-1.8759782e+03;;-2.0453049e+03;;-2.1788352e+03;;-2.2949410e+03;;-2.4074917e+03;;-2.5235066e+03;;-2.6428874e+03;;-2.7618497e+03;;-2.8744248e+03;;-2.9736182e+03;;-3.0547661e+03;;-3.1181060e+03;;-3.1680399e+03;;-3.2100291e+03;;-3.2474589e+03;;-3.2813161e+03;;-3.3123856e+03;;-3.3419349e+03;;-3.3702944e+03;;-3.3966961e+03;;-3.4203033e+03;;-3.4400315e+03;;-3.4542648e+03;;-3.4621577e+03;;-3.4648066e+03;;-3.4650244e+03;;-3.4667964e+03;;-3.4740550e+03;;-3.4876568e+03;;-3.5034050e+03;;-3.5152557e+03;;-3.5207036e+03;;-3.5207036e+03
-2.5635808e+01;;-2.5635808e+01;;-2.5635808e+01;;-2.5635808e+01;;-2.5635808e+01;;-2.5635808e+01;;-2.5635808e+01;;-2.5635808e+01;;-2.5635808e+01;;-2.5635808e+01;;-2.5635808e+01;;-2.5635808e+01;;-2.5635809e+01;;-2.5636013e+01;;-2.5801144e+01;;-3.0087382e+01;;-3.7864444e+01;;-4.9064084e+01;;-6.4333384e+01;;-8.4709149e+01;;-1.1165041e+02;;-1.4677449e+02;;-1.9233283e+02;;-2.5097569e+02;;-3.2585111e+02;;-4.2015730e+02;;-5.3703276e+02;;-6.7976845e+02;;-8.5095924e+02;;-1.0514078e+03;;-1.2780951e+03;;-1.5203203e+03;;-1.7531869e+03;;-1.9414644e+03;;-2.0875910e+03;;-2.2109275e+03;;-2.3261358e+03;;-2.4435629e+03;;-2.5676059e+03;;-2.6958366e+03;;-2.8195360e+03;;-2.9280582e+03;;-3.0153742e+03;;-3.0827843e+03;;-3.1361055e+03;;-3.1813192e+03;;-3.2220033e+03;;-3.2594400e+03;;-3.2942943e+03;;-3.3274343e+03;;-3.3594317e+03;;-3.3901237e+03;;-3.4182099e+03;;-3.4409304e+03;;-3.4555475e+03;;-3.4618222e+03;;-3.4621826e+03;;-3.4602241e+03;;-3.4604692e+03;;-3.4676588e+03;;-3.4828849e+03;;-3.5008127e+03;;-3.5139314e+03;;-3.5196006e+03;;-3.5196006e+03
-2.5635808e+01;;-2.5635808e+01;;-2.5635808e+01;;-2.5635808e+01;;-2.5635808e+01;;-2.5635808e+01;;-2.5635808e+01;;-2.5635808e+01;;-2.5635808e+01;;-2.5635808e+01;;-2.5635808e+01;;-2.5635808e+01;;-2.5635808e+01;;-2.5635843e+01;;-2.5645604e+01;;-2.7706439e+01;;-3.4188151e+01;;-4.3979104e+01;;-5.7522312e+01;;-7.5725839e+01;;-9.9843590e+01;;-1.3155827e+02;;-1.7273477e+02;;-2.2590503e+02;;-2.9402415e+02;;-3.8036639e+02;;-4.8796833e+02;;-6.2015048e+02;;-7.7985758e+02;;-9.6870598e+02;;-1.1853733e+03;;-1.4225071e+03;;-1.6609985e+03;;-1.8640710e+03;;-2.0170571e+03;;-2.1409947e+03;;-2.2551396e+03;;-2.3740475e+03;;-2.5045260e+03;;-2.6429475e+03;;-2.7769591e+03;;-2.8931742e+03;;-2.9854151e+03;;-3.0563434e+03;;-3.1125639e+03;;-3.1599615e+03;;-3.2023737e+03;;-3.2419063e+03;;-3.2794956e+03;;-3.3155981e+03;;-3.3506913e+03;;-3.3847415e+03;;-3.4157441e+03;;-3.4397232e+03;;-3.4538661e+03;;-3.4593992e+03;;-3.4600854e+03;;-3.4593132e+03;;-3.4605223e+03;;-3.4677547e+03;;-3.4817907e+03;;-3.4969633e+03;;-3.5061852e+03;;-3.5088035e+03;;-3.5088035e+03
-2.5635808e+01;;-2.5635808e+01;;-2.5635808e+01;;-2.5635808e+01;;-2.5635808e+01;;-2.5635808e+01;;-2.5635808e+01;;-2.5635808e+01;;-2.5635808e+01;;-2.5635808e+01;;-2.5635808e+01;;-2.5635808e+01;;-2.5635808e+01;;-2.5635817e+01;;-2.5637335e+01;;-2.6304047e+01;;-3.1763671e+01;;-4.0511021e+01;;-5.2847272e+01;;-6.9574296e+01;;-9.1843706e+01;;-1.2123186e+02;;-1.5948820e+02;;-2.0901238e+02;;-2.7261594e+02;;-3.5357042e+02;;-4.5492054e+02;;-5.7995960e+02;;-7.3184623e+02;;-9.1269605e+02;;-1.1222213e+03;;-1.3550743e+03;;-1.5956242e+03;;-1.8093211e+03;;-1.9663975e+03;;-2.0885790e+03;;-2.2021225e+03;;-2.3246158e+03;;-2.4625765e+03;;-2.6100381e+03;;-2.7520118e+03;;-2.8738340e+03;;-2.9696527e+03;;-3.0429353e+03;;-3.1003986e+03;;-3.1477315e+03;;-3.1893361e+03;;-3.2284323e+03;;-3.2664753e+03;;-3.3036688e+03;;-3.3401801e+03;;-3.3756919e+03;;-3.4076662e+03;;-3.4318498e+03;;-3.4460595e+03;;-3.4526949e+03;;-3.4561977e+03;;-3.4593740e+03;;-3.4636181e+03;;-3.4698671e+03;;-3.4760921e+03;;-3.4764914e+03;;-3.4684107e+03;;-3.4590981e+03;;-3.4590981e+03
-2.5635808e+01;;-2.5635808e+01;;-2.5635808e+01;;-2.5635808e+01;;-2.5635808e+01;;-2.5635808e+01;;-2.5635808e+01;;-2.5635808e+01;;-2.5635808e+01;;-2.5635808e+01;;-2.5635808e+01;;-2.5635808e+01;;-2.5635808e+01;;-2.5635810e+01;;-2.5636099e+01;;-2.5793159e+01;;-3.0161516e+01;;-3.8105962e+01;;-4.9592309e+01;;-6.5301705e+01;;-8.6307811e+01;;-1.1404164e+02;;-1.5031764e+02;;-1.9737864e+02;;-2.5801632e+02;;-3.3529391e+02;;-4.3240001e+02;;-5.5259216e+02;;-6.9917791e+02;;-8.7461090e+02;;-1.0792917e+03;;-1.3092024e+03;;-1.5511640e+03;;-1.7740658e+03;;-1.9378035e+03;;-2.0613740e+03;;-2.1773950e+03;;-2.3044472e+03;;-2.4476667e+03;;-2.5997993e+03;;-2.7453050e+03;;-2.8694421e+03;;-2.9664405e+03;;-3.0397910e+03;;-3.0961042e+03;;-3.1411983e+03;;-3.1801240e+03;;-3.2168990e+03;;-3.2533699e+03;;-3.2896774e+03;;-3.3256911e+03;;-3.3607013e+03;;-3.3920527e+03;;-3.4160348e+03;;-3.4311984e+03;;-3.4400459e+03;;-3.4466803e+03;;-3.4534730e+03;;-3.4596783e+03;;-3.4603588e+03;;-3.4464461e+03;;-3.4116709e+03;;-3.3641441e+03;;-3.3284220e+03;;-3.3284220e+03
-2.5635808e+01;;-2.5635808e+01;;-2.5635808e+01;;-2.5635808e+01;;-2.5635808e+01;;-2.5635808e+01;;-2.5635808e+01;;-2.5635808e+01;;-2.5635808e+01;;-2.5635808e+01;;-2.5635808e+01;;-2.5635808e+01;;-2.5635808e+01;;-2.5635808e+01;;-2.5635846e+01;;-2.5677160e+01;;-2.9085550e+01;;-3.6480680e+01;;-4.7402434e+01;;-6.2444920e+01;;-8.2636242e+01;;-1.0936469e+02;;-1.4439788e+02;;-1.8992798e+02;;-2.4862018e+02;;-3.2372149e+02;;-4.1827290e+02;;-5.3560013e+02;;-6.7913905e+02;;-8.5160714e+02;;-1.0539160e+03;;-1.2830316e+03;;-1.5276884e+03;;-1.7601736e+03;;-1.9352246e+03;;-2.0645722e+03;;-2.1844712e+03;;-2.3136004e+03;;-2.4567388e+03;;-2.6074378e+03;;-2.7513588e+03;;-2.8741243e+03;;-2.9695173e+03;;-3.0405754e+03;;-3.0939632e+03;;-3.1358643e+03;;-3.1716479e+03;;-3.2055328e+03;;-3.2395479e+03;;-3.2739083e+03;;-3.3082488e+03;;-3.3415611e+03;;-3.3715072e+03;;-3.3953379e+03;;-3.4119677e+03;;-3.4226863e+03;;-3.4301006e+03;;-3.4365922e+03;;-3.4404925e+03;;-3.4297177e+03;;-3.3843563e+03;;-3.2971215e+03;;-3.1927924e+03;;-3.1204313e+03;;-3.1204313e+03
-2.5635808e+01;;-2.5635808e+01;;-2.5635808e+01;;-2.5635808e+01;;-2.5635808e+01;;-2.5635808e+01;;-2.5635808e+01;;-2.5635808e+01;;-2.5635808e+01;;-2.5635808e+01;;-2.5635808e+01;;-2.5635808e+01;;-2.5635808e+01;;-2.5635808e+01;;-2.5635813e+01;;-2.5650537e+01;;-2.8366630e+01;;-3.5395833e+01;;-4.5937593e+01;;-6.0535275e+01;;-8.0191791e+01;;-1.0627033e+02;;-1.4051090e+02;;-1.8514711e+02;;-2.4260640e+02;;-3.1625001e+02;;-4.0936005e+02;;-5.2503920e+02;;-6.6691308e+02;;-8.3792238e+02;;-1.0393935e+03;;-1.2690880e+03;;-1.5173203e+03;;-1.7593995e+03;;-1.9491142e+03;;-2.0876233e+03;;-2.2114007e+03;;-2.3392502e+03;;-2.4772318e+03;;-2.6216144e+03;;-2.7604157e+03;;-2.8796699e+03;;-2.9721815e+03;;-3.0402575e+03;;-3.0906885e+03;;-3.1298623e+03;;-3.1629924e+03;;-3.1942188e+03;;-3.2258094e+03;;-3.2580915e+03;;-3.2904056e+03;;-3.3216096e+03;;-3.3500450e+03;;-3.3739707e+03;;-3.3921063e+03;;-3.4035530e+03;;-3.4086520e+03;;-3.4104275e+03;;-3.4087571e+03;;-3.3867438e+03;;-3.3136228e+03;;-3.1800866e+03;;-3.0259154e+03;;-2.9214802e+03;;-2.9214802e+03
-2.5635808e+01;;-2.5635808e+01;;-2.5635808e+01;;-2.5635808e+01;;-2.5635808e+01;;-2.5635808e+01;;-2.5635808e+01;;-2.5635808e+01;;-2.5635808e+01;;-2.5635808e+01;;-2.5635808e+01;;-2.5635808e+01;;-2.5635808e+01;;-2.5635808e+01;;-2.5635809e+01;;-2.5641279e+01;;-2.7723275e+01;;-3.4397753e+01;;-4.4548583e+01;;-5.8674839e+01;;-7.7751775e+01;;-1.0311229e+02;;-1.3653168e+02;;-1.8000134e+02;;-2.3619047e+02;;-3.0814811e+02;;-3.9945426e+02;;-5.1313026e+02;;-6.5287573e+02;;-8.2183212e+02;;-1.0217124e+03;;-1.2510420e+03;;-1.5016747e+03;;-1.7519548e+03;;-1.9577700e+03;;-2.1080581e+03;;-2.2365083e+03;;-2.3620886e+03;;-2.4930071e+03;;-2.6294955e+03;;-2.7627255e+03;;-2.8791443e+03;;-2.9700863e+03;;-3.0367572e+03;;-3.0858427e+03;;-3.1235953e+03;;-3.1548339e+03;;-3.1837625e+03;;-3.2131256e+03;;-3.2433579e+03;;-3.2734978e+03;;-3.3025413e+03;;-3.3297280e+03;;-3.3540490e+03;;-3.3735708e+03;;-3.3851882e+03;;-3.3872393e+03;;-3.3837419e+03;;-3.3781795e+03;;-3.3544886e+03;;-3.2772532e+03;;-3.1337288e+03;;-2.9669263e+03;;-2.8534039e+03;;-2.8534039e+03
-2.5635808e+01;;-2.5635808e+01;;-2.5635808e+01;;-2.5635808e+01;;-2.5635808e+01;;-2.5635808e+01;;-2.5635808e+01;;-2.5635808e+01;;-2.5635808e+01;;-2.5635808e+01;;-2.5635808e+01;;-2.5635808e+01;;-2.5635808e+01;;-2.5635808e+01;;-2.5635808e+01;;-2.5637293e+01;;-2.6960000e+01;;-3.3145974e+01;;-4.2744455e+01;;-5.6197809e+01;;-7.4434004e+01;;-9.8734154e+01;;-1.3081715e+02;;-1.7261304e+02;;-2.2672399e+02;;-2.9620636e+02;;-3.8449567e+02;;-4.9481620e+02;;-6.3080014e+02;;-7.9577642e+02;;-9.9184954e+02;;-1.2183484e+03;;-1.4687487e+03;;-1.7245745e+03;;-1.9456393e+03;;-2.1082746e+03;;-2.2415576e+03;;-2.3654449e+03;;-2.4906166e+03;;-2.6213800e+03;;-2.7519267e+03;;-2.8687923e+03;;-2.9614937e+03;;-3.0297113e+03;;-3.0796577e+03;;-3.1173583e+03;;-3.1474095e+03;;-3.1741970e+03;;-3.2008184e+03;;-3.2278180e+03;;-3.2545578e+03;;-3.2811168e+03;;-3.3078584e+03;;-3.3336867e+03;;-3.3553715e+03;;-3.3684117e+03;;-3.3704813e+03;;-3.3662991e+03;;-3.3625452e+03;;-3.3490269e+03;;-3.2954293e+03;;-3.1869174e+03;;-3.0563376e+03;;-2.9669222e+03;;-2.9669222e+03
-2.5635808e+01;;-2.5635808e+01;;-2.5635808e+01;;-2.5635808e+01;;-2.5635808e+01;;-2.5635808e+01;;-2.5635808e+01;;-2.5635808e+01;;-2.5635808e+01;;-2.5635808e+01;;-2.5635808e+01;;-2.5635808e+01;;-2.5635808e+01;;-2.5635808e+01;;-2.5635808e+01;;-2.5636087e+01;;-2.6203276e+01;;-3.1663377e+01;;-4.0521982e+01;;-5.3106321e+01;;-7.0258599e+01;;-9.3182797e+01;;-1.2345091e+02;;-1.6304390e+02;;-2.1447355e+02;;-2.8054677e+02;;-3.6479513e+02;;-4.7047402e+02;;-6.0113930e+02;;-7.6028136e+02;;-9.5038208e+02;;-1.1715663e+03;;-1.4189148e+03;;-1.6770935e+03;;-1.9108115e+03;;-2.0840484e+03;;-2.2197789e+03;;-2.3417315e+03;;-2.4638242e+03;;-2.5933488e+03;;-2.7259850e+03;;-2.8476247e+03;;-2.9458279e+03;;-3.0184886e+03;;-3.0711072e+03;;-3.1097861e+03;;-3.1392905e+03;;-3.1637664e+03;;-3.1856490e+03;;-3.2054490e+03;;-3.2246705e+03;;-3.2471742e+03;;-3.2753566e+03;;-3.3062985e+03;;-3.3335233e+03;;-3.3514789e+03;;-3.3588097e+03;;-3.3605326e+03;;-3.3639997e+03;;-3.3653073e+03;;-3.3447575e+03;;-3.2890572e+03;;-3.2152028e+03;;-3.1625185e+03;;-3.1625185e+03
-2.5635808e+01;;-2.5635808e+01;;-2.5635808e+01;;-2.5635808e+01;;-2.5635808e+01;;-2.5635808e+01;;-2.5635808e+01;;-2.5635808e+01;;-2.5635808e+01;;-2.5635808e+01;;-2.5635808e+01;;-2.5635808e+01;;-2.5635808e+01;;-2.5635808e+01;;-2.5635808e+01;;-2.5635848e+01;;-2.5765858e+01;;-3.0064427e+01;;-3.8030433e+01;;-4.9610154e+01;;-6.5504949e+01;;-8.6821772e+01;;-1.1503709e+02;;-1.5202581e+02;;-2.0018127e+02;;-2.6218251e+02;;-3.4145763e+02;;-4.4139077e+02;;-5.6538409e+02;;-7.1702868e+02;;-8.9914235e+02;;-1.1125950e+03;;-1.3540145e+03;;-1.6111980e+03;;-1.8544537e+03;;-2.0381686e+03;;-2.1743324e+03;;-2.2938481e+03;;-2.4152780e+03;;-2.5477222e+03;;-2.6866683e+03;;-2.8165915e+03;;-2.9230559e+03;;-3.0020874e+03;;-3.0584795e+03;;-3.0988472e+03;;-3.1283208e+03;;-3.1498892e+03;;-3.1637590e+03;;-3.1700666e+03;;-3.1749706e+03;;-3.1902713e+03;;-3.2223074e+03;;-3.2642747e+03;;-3.3031496e+03;;-3.3310674e+03;;-3.3483145e+03;;-3.3603085e+03;;-3.3729483e+03;;-3.3855330e+03;;-3.3881871e+03;;-3.3724787e+03;;-3.3445426e+03;;-3.3227572e+03;;-3.3227572e+03
-2.5635808e+01;;-2.5635808e+01;;-2.5635808e+01;;-2.5635808e+01;;-2.5635808e+01;;-2.5635808e+01;;-2.5635808e+01;;-2.5635808e+01;;-2.5635808e+01;;-2.5635808e+01;;-2.5635808e+01;;-2.5635808e+01;;-2.5635808e+01;;-2.5635808e+01;;-2.5635808e+01;;-2.5635812e+01;;-2.5651072e+01;;-2.8360529e+01;;-3.5344961e+01;;-4.5807231e+01;;-6.0286221e+01;;-7.9782453e+01;;-1.0565988e+02;;-1.3973312e+02;;-1.8403518e+02;;-2.4129175e+02;;-3.1469224e+02;;-4.0771072e+02;;-5.2360523e+02;;-6.6596362e+02;;-8.3788521e+02;;-1.0409319e+03;;-1.2732498e+03;;-1.5258185e+03;;-1.7750006e+03;;-1.9733947e+03;;-2.1135793e+03;;-2.2330610e+03;;-2.3560271e+03;;-2.4931447e+03;;-2.6396675e+03;;-2.7789723e+03;;-2.8948057e+03;;-2.9811872e+03;;-3.0420653e+03;;-3.0845703e+03;;-3.1140073e+03;;-3.1316731e+03;;-3.1350221e+03;;-3.1239035e+03;;-3.1103089e+03;;-3.1159611e+03;;-3.1525262e+03;;-3.2089918e+03;;-3.2642027e+03;;-3.3061135e+03;;-3.3355026e+03;;-3.3582235e+03;;-3.3786389e+03;;-3.3966380e+03;;-3.4080825e+03;;-3.4097298e+03;;-3.4041462e+03;;-3.3984518e+03;;-3.3984518e+03
-2.5635808e+01;;-2.5635808e+01;;-2.5635808e+01;;-2.5635808e+01;;-2.5635808e+01;;-2.5635808e+01;;-2.5635808e+01;;-2.5635808e+01;;-2.5635808e+01;;-2.5635808e+01;;-2.5635808e+01;;-2.5635808e+01;;-2.5635808e+01;;-2.5635808e+01;;-2.5635808e+01;;-2.5635808e+01;;-2.5636926e+01;;-2.6726662e+01;;-3.2644573e+01;;-4.1885448e+01;;-5.4841962e+01;;-7.2393871e+01;;-9.5772551e+01;;-1.2664271e+02;;-1.6686830e+02;;-2.1898020e+02;;-2.8595195e+02;;-3.7124468e+02;;-4.7807549e+02;;-6.0991055e+02;;-7.7007046e+02;;-9.6074449e+02;;-1.1815083e+03;;-1.4263779e+03;;-1.6778198e+03;;-1.8960860e+03;;-2.0509619e+03;;-2.1767571e+03;;-2.3031641e+03;;-2.4433973e+03;;-2.5944864e+03;;-2.7405876e+03;;-2.8644434e+03;;-2.9579849e+03;;-3.0238045e+03;;-3.0688408e+03;;-3.0980296e+03;;-3.1114689e+03;;-3.1056371e+03;;-3.0814096e+03;;-3.0546394e+03;;-3.0527664e+03;;-3.0912717e+03;;-3.1577426e+03;;-3.2264562e+03;;-3.2813237e+03;;-3.3213944e+03;;-3.3521111e+03;;-3.3773372e+03;;-3.3970717e+03;;-3.4095313e+03;;-3.4146526e+03;;-3.4151296e+03;;-3.4143721e+03;;-3.4143721e+03
-2.5635808e+01;;-2.5635808e+01;;-2.5635808e+01;;-2.5635808e+01;;-2.5635808e+01;;-2.5635808e+01;;-2.5635808e+01;;-2.5635808e+01;;-2.5635808e+01;;-2.5635808e+01;;-2.5635808e+01;;-2.5635808e+01;;-2.5635808e+01;;-2.5635808e+01;;-2.5635808e+01;;-2.5635808e+01;;-2.5635948e+01;;-2.5818970e+01;;-3.0252505e+01;;-3.8210006e+01;;-4.9689962e+01;;-6.5385533e+01;;-8.6383276e+01;;-1.1420094e+02;;-1.5053965e+02;;-1.9774584e+02;;-2.5859097e+02;;-3.3637125e+02;;-4.3446831e+02;;-5.5617138e+02;;-7.0496494e+02;;-8.8360266e+02;;-1.0929314e+03;;-1.3296636e+03;;-1.5819474e+03;;-1.8211135e+03;;-2.0033973e+03;;-2.1424690e+03;;-2.2728880e+03;;-2.4122757e+03;;-2.5616923e+03;;-2.7079288e+03;;-2.8339515e+03;;-2.9307589e+03;;-3.0005057e+03;;-3.0495239e+03;;-3.0809006e+03;;-3.0934679e+03;;-3.0853559e+03;;-3.0603529e+03;;-3.0343919e+03;;-3.0322915e+03;;-3.0687315e+03;;-3.1342499e+03;;-3.2056960e+03;;-3.2659161e+03;;-3.3110163e+03;;-3.3448945e+03;;-3.3716430e+03;;-3.3918649e+03;;-3.4043877e+03;;-3.4098732e+03;;-3.4112582e+03;;-3.4113359e+03;;-3.4113359e+03
-2.5635808e+01;;-2.5635808e+01;;-2.5635808e+01;;-2.5635808e+01;;-2.5635808e+01;;-2.5635808e+01;;-2.5635808e+01;;-2.5635808e+01;;-2.5635808e+01;;-2.5635808e+01;;-2.5635808e+01;;-2.5635808e+01;;-2.5635808e+01;;-2.5635808e+01;;-2.5635808e+01;;-2.5635808e+01;;-2.5635876e+01;;-2.5659375e+01;;-2.8312388e+01;;-3.5170886e+01;;-4.5422133e+01;;-5.9581766e+01;;-7.8624847e+01;;-1.0388661e+02;;-1.3714737e+02;;-1.8040389e+02;;-2.3634077e+02;;-3.0810485e+02;;-3.9927151e+02;;-5.1312530e+02;;-6.5323631e+02;;-8.2286739e+02;;-1.0239300e+03;;-1.2552900e+03;;-1.5094369e+03;;-1.7658980e+03;;-1.9814632e+03;;-2.1380429e+03;;-2.2717307e+03;;-2.4068058e+03;;-2.5483710e+03;;-2.6850222e+03;;-2.8005921e+03;;-2.8893279e+03;;-2.9586892e+03;;-3.0160400e+03;;-3.0587371e+03;;-3.0803374e+03;;-3.0805769e+03;;-3.0675309e+03;;-3.0552827e+03;;-3.0604265e+03;;-3.0930935e+03;;-3.1487008e+03;;-3.2117130e+03;;-3.2674232e+03;;-3.3098967e+03;;-3.3413947e+03;;-3.3664326e+03;;-3.3864857e+03;;-3.4002334e+03;;-3.4072364e+03;;-3.4094756e+03;;-3.4097349e+03;;-3.4097349e+03
-2.5635808e+01;;-2.5635808e+01;;-2.5635808e+01;;-2.5635808e+01;;-2.5635808e+01;;-2.5635808e+01;;-2.5635808e+01;;-2.5635808e+01;;-2.5635808e+01;;-2.5635808e+01;;-2.5635808e+01;;-2.5635808e+01;;-2.5635808e+01;;-2.5635808e+01;;-2.5635808e+01;;-2.5635808e+01;;-2.5635845e+01;;-2.5642249e+01;;-2.6969801e+01;;-3.3002493e+01;;-4.2336463e+01;;-5.5384308e+01;;-7.3046853e+01;;-9.6582961e+01;;-1.2769198e+02;;-1.6828750e+02;;-2.2096759e+02;;-2.8879443e+02;;-3.7539536e+02;;-4.8436791e+02;;-6.1926350e+02;;-7.8373460e+02;;-9.8046768e+02;;-1.2097629e+03;;-1.4667767e+03;;-1.7358964e+03;;-1.9801163e+03;;-2.1558528e+03;;-2.2930541e+03;;-2.4241453e+03;;-2.5551213e+03;;-2.6723495e+03;;-2.7604641e+03;;-2.8241791e+03;;-2.8864937e+03;;-2.9590020e+03;;-3.0273063e+03;;-3.0716866e+03;;-3.0897079e+03;;-3.0940026e+03;;-3.0985644e+03;;-3.1132949e+03;;-3.1437475e+03;;-3.1886823e+03;;-3.2394284e+03;;-3.2850847e+03;;-3.3197673e+03;;-3.3451222e+03;;-3.3660692e+03;;-3.3848858e+03;;-3.4000135e+03;;-3.4093333e+03;;-3.4130968e+03;;-3.4137994e+03;;-3.4137994e+03
-2.5635808e+01;;-2.5635808e+01;;-2.5635808e+01;;-2.5635808e+01;;-2.5635808e+01;;-2.5635808e+01;;-2.5635808e+01;;-2.5635808e+01;;-2.5635808e+01;;-2.5635808e+01;;-2.5635808e+01;;-2.5635808e+01;;-2.5635808e+01;;-2.5635808e+01;;-2.5635808e+01;;-2.5635808e+01;;-2.5635823e+01;;-2.5637988e+01;;-2.6217887e+01;;-3.1536807e+01;;-4.0178209e+01;;-5.2440351e+01;;-6.9153117e+01;;-9.1519788e+01;;-1.2118808e+02;;-1.6002143e+02;;-2.1056592e+02;;-2.7583960e+02;;-3.5945094e+02;;-4.6528943e+02;;-5.9692923e+02;;-7.5822937e+02;;-9.5237838e+02;;-1.1805705e+03;;-1.4396108e+03;;-1.7170471e+03;;-1.9814874e+03;;-2.1778004e+03;;-2.3221002e+03;;-2.4535718e+03;;-2.5759354e+03;;-2.6696755e+03;;-2.7200378e+03;;-2.7479938e+03;;-2.7990968e+03;;-2.8904178e+03;;-2.9922956e+03;;-3.0664586e+03;;-3.1045758e+03;;-3.1234139e+03;;-3.1400140e+03;;-3.1623450e+03;;-3.1931872e+03;;-3.2318728e+03;;-3.2731712e+03;;-3.3094575e+03;;-3.3363111e+03;;-3.3555460e+03;;-3.3721707e+03;;-3.3889822e+03;;-3.4045562e+03;;-3.4156786e+03;;-3.4210236e+03;;-3.4224173e+03;;-3.4224173e+03
-2.5635808e+01;;-2.5635808e+01;;-2.5635808e+01;;-2.5635808e+01;;-2.5635808e+01;;-2.5635808e+01;;-2.5635808e+01;;-2.5635808e+01;;-2.5635808e+01;;-2.5635808e+01;;-2.5635808e+01;;-2.5635808e+01;;-2.5635808e+01;;-2.5635809e+01;;-2.5635815e+01;;-2.5635843e+01;;-2.5635929e+01;;-2.5636688e+01;;-2.5848579e+01;;-3.0347300e+01;;-3.8353837e+01;;-4.9917834e+01;;-6.5779228e+01;;-8.7149455e+01;;-1.1542807e+02;;-1.5262092e+02;;-2.0114572e+02;;-2.6395484e+02;;-3.4459521e+02;;-4.4709765e+02;;-5.7510130e+02;;-7.3252346e+02;;-9.2288486e+02;;-1.1480280e+03;;-1.4060324e+03;;-1.6870150e+03;;-1.9645439e+03;;-2.1834136e+03;;-2.3408060e+03;;-2.4789698e+03;;-2.5995745e+03;;-2.6777556e+03;;-2.6996254e+03;;-2.7001187e+03;;-2.7422308e+03;;-2.8462842e+03;;-2.9711718e+03;;-3.0651452e+03;;-3.1148717e+03;;-3.1404126e+03;;-3.1631904e+03;;-3.1915701e+03;;-3.2256045e+03;;-3.2628302e+03;;-3.2993273e+03;;-3.3302513e+03;;-3.3528621e+03;;-3.3689620e+03;;-3.3830867e+03;;-3.3982152e+03;;-3.4134069e+03;;-3.4252426e+03;;-3.4315258e+03;;-3.4334408e+03;;-3.4334408e+03
