-9.5572005e+01;;-9.5572005e+01;;-1.0297560e+02;;-1.1397327e+02;;-1.2665012e+02;;-1.4085768e+02;;-1.5592077e+02;;-1.6965697e+02;;-1.7997738e+02;;-1.8688597e+02;;-1.9238371e+02;;-1.9840113e+02;;-2.0513249e+02;;-2.1113997e+02;;-2.2315279e+02;;-2.6938774e+02;;-3.3872615e+02;;-4.3066312e+02;;-5.4749394e+02;;-6.9124034e+02;;-8.6255780e+02;;-1.0619635e+03;;-1.2856547e+03;;-1.5217726e+03;;-1.7442520e+03;;-1.9212066e+03;;-2.0569275e+03;;-2.1724197e+03;;-2.2825927e+03;;-2.3932146e+03;;-2.5023219e+03;;-2.6044925e+03;;-2.6956326e+03;;-2.7759060e+03;;-2.8488963e+03;;-2.9181650e+03;;-2.9846683e+03;;-3.0467499e+03;;-3.1028237e+03;;-3.1554155e+03;;-3.2112549e+03;;-3.2749764e+03;;-3.3447082e+03;;-3.4160857e+03;;-3.4882352e+03;;-3.5635608e+03;;-3.6434817e+03;;-3.7261967e+03;;-3.8077914e+03;;-3.8847305e+03;;-3.9557711e+03;;-4.0221972e+03;;-4.0861948e+03;;-4.1486517e+03;;-4.2083603e+03;;-4.2625366e+03;;-4.3071090e+03;;-4.3378752e+03;;-4.3544227e+03;;-4.3631910e+03;;-4.3734693e+03;;-4.3888779e+03;;-4.4048903e+03;;-4.4147283e+03;;-4.4147283e+03
-8.8748408e+01;;-8.8748408e+01;;-9.8202186e+01;;-1.1148672e+02;;-1.2595238e+02;;-1.4116389e+02;;-1.5708354e+02;;-1.7205808e+02;;-1.8398499e+02;;-1.9233611e+02;;-1.9853570e+02;;-2.0414561e+02;;-2.0913274e+02;;-2.1216740e+02;;-2.2050728e+02;;-2.6474260e+02;;-3.3199991e+02;;-4.2133788e+02;;-5.3480963e+02;;-6.7426517e+02;;-8.4031407e+02;;-1.0335555e+03;;-1.2506984e+03;;-1.4815962e+03;;-1.7051552e+03;;-1.8959727e+03;;-2.0500122e+03;;-2.1792998e+03;;-2.2968820e+03;;-2.4101029e+03;;-2.5191839e+03;;-2.6208027e+03;;-2.7122698e+03;;-2.7935585e+03;;-2.8668143e+03;;-2.9339852e+03;;-2.9943041e+03;;-3.0446738e+03;;-3.0849789e+03;;-3.1233482e+03;;-3.1715706e+03;;-3.2337883e+03;;-3.3046085e+03;;-3.3786902e+03;;-3.4567834e+03;;-3.5416095e+03;;-3.6323286e+03;;-3.7242654e+03;;-3.8118992e+03;;-3.8917235e+03;;-3.9634583e+03;;-4.0293170e+03;;-4.0920436e+03;;-4.1529935e+03;;-4.2114060e+03;;-4.2647738e+03;;-4.3092587e+03;;-4.3407806e+03;;-4.3583241e+03;;-4.3670154e+03;;-4.3754853e+03;;-4.3884101e+03;;-4.4028666e+03;;-4.4123243e+03;;-4.4123243e+03
-8.5519043e+01;;-8.5519043e+01;;-9.6250737e+01;;-1.1099454e+02;;-1.2671815e+02;;-1.4255541e+02;;-1.5873363e+02;;-1.7412578e+02;;-1.8688733e+02;;-1.9629492e+02;;-2.0319901e+02;;-2.0859843e+02;;-2.1222266e+02;;-2.1315207e+02;;-2.1779265e+02;;-2.5831063e+02;;-3.2203074e+02;;-4.0721103e+02;;-5.1547626e+02;;-6.4855447e+02;;-8.0682088e+02;;-9.9096547e+02;;-1.1983533e+03;;-1.4208868e+03;;-1.6427301e+03;;-1.8446780e+03;;-2.0173248e+03;;-2.1636589e+03;;-2.2925681e+03;;-2.4113652e+03;;-2.5225444e+03;;-2.6257468e+03;;-2.7202541e+03;;-2.8056951e+03;;-2.8819428e+03;;-2.9480676e+03;;-3.0002119e+03;;-3.0333328e+03;;-3.0508683e+03;;-3.0709455e+03;;-3.1132001e+03;;-3.1796183e+03;;-3.2574872e+03;;-3.3383433e+03;;-3.4246190e+03;;-3.5196239e+03;;-3.6200761e+03;;-3.7190184e+03;;-3.8111522e+03;;-3.8944039e+03;;-3.9689357e+03;;-4.0362776e+03;;-4.0985901e+03;;-4.1571794e+03;;-4.2116688e+03;;-4.2609666e+03;;-4.3038143e+03;;-4.3378841e+03;;-4.3607565e+03;;-4.3735768e+03;;-4.3820431e+03;;-4.3917132e+03;;-4.4028283e+03;;-4.4106845e+03;;-4.4106845e+03
-8.4113262e+01;;-8.4113262e+01;;-9.5624304e+01;;-1.1130717e+02;;-1.2793457e+02;;-1.4403851e+02;;-1.5975619e+02;;-1.7458599e+02;;-1.8731794e+02;;-1.9750485e+02;;-2.0558741e+02;;-2.1190676e+02;;-2.1597269e+02;;-2.1739645e+02;;-2.2057539e+02;;-2.5423964e+02;;-3.1300404e+02;;-3.9296589e+02;;-4.9496205e+02;;-6.2077913e+02;;-7.7021334e+02;;-9.4388281e+02;;-1.1397028e+03;;-1.3513226e+03;;-1.5670693e+03;;-1.7727456e+03;;-1.9578593e+03;;-2.1194582e+03;;-2.2612511e+03;;-2.3887599e+03;;-2.5060031e+03;;-2.6153644e+03;;-2.7176176e+03;;-2.8115518e+03;;-2.8946043e+03;;-2.9628717e+03;;-3.0092593e+03;;-3.0270228e+03;;-3.0237191e+03;;-3.0276752e+03;;-3.0659116e+03;;-3.1378098e+03;;-3.2230094e+03;;-3.3093233e+03;;-3.4005818e+03;;-3.5014195e+03;;-3.6075476e+03;;-3.7110489e+03;;-3.8074256e+03;;-3.8955023e+03;;-3.9745590e+03;;-4.0443159e+03;;-4.1057773e+03;;-4.1599075e+03;;-4.2071844e+03;;-4.2496904e+03;;-4.2904922e+03;;-4.3288660e+03;;-4.3593218e+03;;-4.3779301e+03;;-4.3876280e+03;;-4.3951673e+03;;-4.4037466e+03;;-4.4103241e+03;;-4.4103241e+03
-8.1615631e+01;;-8.1615631e+01;;-9.3705121e+01;;-1.1016387e+02;;-1.2771526e+02;;-1.4414126e+02;;-1.5897496e+02;;-1.7262591e+02;;-1.8493766e+02;;-1.9600374e+02;;-2.0601943e+02;;-2.1473053e+02;;-2.2151755e+02;;-2.2640440e+02;;-2.3264049e+02;;-2.5673538e+02;;-3.0814610e+02;;-3.8100667e+02;;-4.7508977e+02;;-5.9201671e+02;;-7.3173658e+02;;-8.9391736e+02;;-1.0769609e+03;;-1.2759515e+03;;-1.4822895e+03;;-1.6854566e+03;;-1.8760257e+03;;-2.0484774e+03;;-2.2022778e+03;;-2.3402649e+03;;-2.4668585e+03;;-2.5863498e+03;;-2.7004848e+03;;-2.8072757e+03;;-2.9021268e+03;;-2.9784754e+03;;-3.0270763e+03;;-3.0412617e+03;;-3.0316462e+03;;-3.0305563e+03;;-3.0665490e+03;;-3.1373140e+03;;-3.2203180e+03;;-3.3030779e+03;;-3.3908831e+03;;-3.4899502e+03;;-3.5966941e+03;;-3.7032623e+03;;-3.8049554e+03;;-3.8996695e+03;;-3.9846895e+03;;-4.0574937e+03;;-4.1174399e+03;;-4.1650078e+03;;-4.2025909e+03;;-4.2369657e+03;;-4.2756505e+03;;-4.3181950e+03;;-4.3553179e+03;;-4.3790677e+03;;-4.3909078e+03;;-4.3983588e+03;;-4.4060302e+03;;-4.4119185e+03;;-4.4119185e+03
-7.7583658e+01;;-7.7583658e+01;;-8.9893250e+01;;-1.0675615e+02;;-1.2507915e+02;;-1.4219062e+02;;-1.5634934e+02;;-1.6891283e+02;;-1.8103722e+02;;-1.9329281e+02;;-2.0568395e+02;;-2.1763386e+02;;-2.2854663e+02;;-2.3866834e+02;;-2.5060880e+02;;-2.7202365e+02;;-3.1322637e+02;;-3.7567247e+02;;-4.5894959e+02;;-5.6393917e+02;;-6.9213330e+02;;-8.4216795e+02;;-1.0123435e+03;;-1.1990474e+03;;-1.3959436e+03;;-1.5947948e+03;;-1.7872705e+03;;-1.9670530e+03;;-2.1309793e+03;;-2.2793238e+03;;-2.4158704e+03;;-2.5458473e+03;;-2.6720552e+03;;-2.7927865e+03;;-2.9023806e+03;;-2.9921306e+03;;-3.0519734e+03;;-3.0772791e+03;;-3.0797973e+03;;-3.0874514e+03;;-3.1225524e+03;;-3.1826102e+03;;-3.2507042e+03;;-3.3194244e+03;;-3.3958725e+03;;-3.4872764e+03;;-3.5914146e+03;;-3.7006063e+03;;-3.8084292e+03;;-3.9102707e+03;;-4.0011612e+03;;-4.0766524e+03;;-4.1346025e+03;;-4.1755414e+03;;-4.2045562e+03;;-4.2324986e+03;;-4.2691101e+03;;-4.3129141e+03;;-4.3524276e+03;;-4.3786100e+03;;-4.3926860e+03;;-4.4016286e+03;;-4.4095718e+03;;-4.4150809e+03;;-4.4150809e+03
-7.3510110e+01;;-7.3510110e+01;;-8.5702309e+01;;-1.0253372e+02;;-1.2123183e+02;;-1.3915580e+02;;-1.5328268e+02;;-1.6530585e+02;;-1.7766242e+02;;-1.9115097e+02;;-2.0562953e+02;;-2.2050492e+02;;-2.3541259e+02;;-2.5076437e+02;;-2.6854309e+02;;-2.9310089e+02;;-3.2942061e+02;;-3.8092809e+02;;-4.5103464e+02;;-5.4228307e+02;;-6.5628979e+02;;-7.9417579e+02;;-9.5372339e+02;;-1.1317569e+03;;-1.3233504e+03;;-1.5212785e+03;;-1.7172326e+03;;-1.9039587e+03;;-2.0765763e+03;;-2.2335610e+03;;-2.3776948e+03;;-2.5144018e+03;;-2.6478660e+03;;-2.7781136e+03;;-2.8998487e+03;;-3.0031895e+03;;-3.0781435e+03;;-3.1224195e+03;;-3.1466899e+03;;-3.1697835e+03;;-3.2046437e+03;;-3.2499321e+03;;-3.2982703e+03;;-3.3497610e+03;;-3.4131854e+03;;-3.4959217e+03;;-3.5966721e+03;;-3.7075312e+03;;-3.8197432e+03;;-3.9259679e+03;;-4.0195859e+03;;-4.0953182e+03;;-4.1508265e+03;;-4.1878379e+03;;-4.2136532e+03;;-4.2399976e+03;;-4.2750243e+03;;-4.3156610e+03;;-4.3514903e+03;;-4.3760951e+03;;-4.3915769e+03;;-4.4030695e+03;;-4.4125502e+03;;-4.4183583e+03;;-4.4183583e+03
-7.0775328e+01;;-7.0775328e+01;;-8.2817503e+01;;-9.9538630e+01;;-1.1844879e+02;;-1.3705589e+02;;-1.5167568e+02;;-1.6357200e+02;;-1.7623059e+02;;-1.9047910e+02;;-2.0608149e+02;;-2.2267399e+02;;-2.4031012e+02;;-2.5962171e+02;;-2.8209826e+02;;-3.1022568e+02;;-3.4619935e+02;;-3.9134204e+02;;-4.4932835e+02;;-5.2731004e+02;;-6.2951545e+02;;-7.5729751e+02;;-9.1103823e+02;;-1.0869961e+03;;-1.2804987e+03;;-1.4844017e+03;;-1.6890308e+03;;-1.8847389e+03;;-2.0647451e+03;;-2.2269808e+03;;-2.3742093e+03;;-2.5120250e+03;;-2.6459218e+03;;-2.7781663e+03;;-2.9048832e+03;;-3.0164719e+03;;-3.1037768e+03;;-3.1655205e+03;;-3.2093356e+03;;-3.2455200e+03;;-3.2802240e+03;;-3.3143469e+03;;-3.3485102e+03;;-3.3881602e+03;;-3.4426333e+03;;-3.5187950e+03;;-3.6156194e+03;;-3.7249456e+03;;-3.8365231e+03;;-3.9414736e+03;;-4.0327165e+03;;-4.1054524e+03;;-4.1585608e+03;;-4.1955386e+03;;-4.2242373e+03;;-4.2536532e+03;;-4.2876270e+03;;-4.3219637e+03;;-4.3500721e+03;;-4.3704801e+03;;-4.3867034e+03;;-4.4014420e+03;;-4.4136765e+03;;-4.4206890e+03;;-4.4206890e+03
-6.9791015e+01;;-6.9791015e+01;;-8.1840716e+01;;-9.8633838e+01;;-1.1784206e+02;;-1.3703322e+02;;-1.5221091e+02;;-1.6389579e+02;;-1.7647160e+02;;-1.9077782e+02;;-2.0646984e+02;;-2.2348868e+02;;-2.4239147e+02;;-2.6404347e+02;;-2.8955339e+02;;-3.2018699e+02;;-3.5651892e+02;;-3.9833035e+02;;-4.4801991e+02;;-5.1615857e+02;;-6.1169260e+02;;-7.3604215e+02;;-8.8952893e+02;;-1.0705140e+03;;-1.2728481e+03;;-1.4892587e+03;;-1.7078909e+03;;-1.9147986e+03;;-2.1004276e+03;;-2.2635175e+03;;-2.4086778e+03;;-2.5425682e+03;;-2.6716839e+03;;-2.7997410e+03;;-2.9243739e+03;;-3.0376688e+03;;-3.1320744e+03;;-3.2057601e+03;;-3.2620596e+03;;-3.3056362e+03;;-3.3405247e+03;;-3.3704738e+03;;-3.4000822e+03;;-3.4360501e+03;;-3.4866509e+03;;-3.5577707e+03;;-3.6484564e+03;;-3.7510393e+03;;-3.8555285e+03;;-3.9533240e+03;;-4.0381199e+03;;-4.1063134e+03;;-4.1581175e+03;;-4.1978160e+03;;-4.2318990e+03;;-4.2652817e+03;;-4.2979055e+03;;-4.3258318e+03;;-4.3468802e+03;;-4.3638890e+03;;-4.3810767e+03;;-4.3988423e+03;;-4.4137108e+03;;-4.4220082e+03;;-4.4220082e+03
-6.9674705e+01;;-6.9674705e+01;;-8.1812723e+01;;-9.8738015e+01;;-1.1829040e+02;;-1.3794952e+02;;-1.5353324e+02;;-1.6472093e+02;;-1.7680194e+02;;-1.9074121e+02;;-2.0601465e+02;;-2.2273203e+02;;-2.4189238e+02;;-2.6456807e+02;;-2.9153809e+02;;-3.2323654e+02;;-3.5928865e+02;;-3.9854826e+02;;-4.4299673e+02;;-5.0644359e+02;;-6.0137882e+02;;-7.2802412e+02;;-8.8640332e+02;;-1.0757428e+03;;-1.2896160e+03;;-1.5207684e+03;;-1.7556301e+03;;-1.9755768e+03;;-2.1667256e+03;;-2.3282845e+03;;-2.4677778e+03;;-2.5942457e+03;;-2.7155345e+03;;-2.8361533e+03;;-2.9550115e+03;;-3.0665437e+03;;-3.1648591e+03;;-3.2463667e+03;;-3.3099413e+03;;-3.3574167e+03;;-3.3939825e+03;;-3.4260518e+03;;-3.4588274e+03;;-3.4971086e+03;;-3.5467658e+03;;-3.6124759e+03;;-3.6937833e+03;;-3.7846855e+03;;-3.8770582e+03;;-3.9639607e+03;;-4.0406510e+03;;-4.1047256e+03;;-4.1566052e+03;;-4.1993589e+03;;-4.2369127e+03;;-4.2713624e+03;;-4.3015584e+03;;-4.3252209e+03;;-4.3431168e+03;;-4.3596659e+03;;-4.3783246e+03;;-4.3977862e+03;;-4.4136232e+03;;-4.4222317e+03;;-4.4222317e+03
-6.8690295e+01;;-6.8690295e+01;;-8.0761787e+01;;-9.7637212e+01;;-1.1728860e+02;;-1.3726522e+02;;-1.5349538e+02;;-1.6443031e+02;;-1.7601135e+02;;-1.8957407e+02;;-2.0445566e+02;;-2.2074603e+02;;-2.3967448e+02;;-2.6244349e+02;;-2.8960194e+02;;-3.2106616e+02;;-3.5590432e+02;;-3.9264580e+02;;-4.3386841e+02;;-4.9750508e+02;;-5.9564582e+02;;-7.2684556e+02;;-8.9131273e+02;;-1.0885395e+03;;-1.3127868e+03;;-1.5572863e+03;;-1.8077718e+03;;-2.0420234e+03;;-2.2407698e+03;;-2.4017692e+03;;-2.5348533e+03;;-2.6521449e+03;;-2.7637070e+03;;-2.8753575e+03;;-2.9877271e+03;;-3.0974927e+03;;-3.1992641e+03;;-3.2867736e+03;;-3.3554166e+03;;-3.4063739e+03;;-3.4470896e+03;;-3.4856817e+03;;-3.5260376e+03;;-3.5695696e+03;;-3.6191526e+03;;-3.6784951e+03;;-3.7483811e+03;;-3.8252926e+03;;-3.9036337e+03;;-3.9785875e+03;;-4.0471552e+03;;-4.1077209e+03;;-4.1596688e+03;;-4.2034618e+03;;-4.2405525e+03;;-4.2724531e+03;;-4.2994987e+03;;-4.3214453e+03;;-4.3398551e+03;;-4.3581642e+03;;-4.3781267e+03;;-4.3975723e+03;;-4.4125303e+03;;-4.4203812e+03;;-4.4203812e+03
-6.5944783e+01;;-6.5944783e+01;;-7.7678002e+01;;-9.4146758e+01;;-1.1358017e+02;;-1.3373685e+02;;-1.5118570e+02;;-1.6283009e+02;;-1.7429526e+02;;-1.8764922e+02;;-2.0234933e+02;;-2.1837997e+02;;-2.3688347e+02;;-2.5904012e+02;;-2.8532885e+02;;-3.1548955e+02;;-3.4837059e+02;;-3.8262424e+02;;-4.2242898e+02;;-4.8941398e+02;;-5.9138611e+02;;-7.2652812e+02;;-8.9560437e+02;;-1.0982143e+03;;-1.3297247e+03;;-1.5840899e+03;;-1.8473104e+03;;-2.0954907e+03;;-2.3043969e+03;;-2.4682449e+03;;-2.5974272e+03;;-2.7065686e+03;;-2.8082771e+03;;-2.9106904e+03;;-3.0170637e+03;;-3.1258696e+03;;-3.2308577e+03;;-3.3230293e+03;;-3.3960486e+03;;-3.4517018e+03;;-3.4989328e+03;;-3.5460330e+03;;-3.5948768e+03;;-3.6436823e+03;;-3.6929173e+03;;-3.7459929e+03;;-3.8052149e+03;;-3.8692846e+03;;-3.9348136e+03;;-3.9990039e+03;;-4.0603076e+03;;-4.1171767e+03;;-4.1673439e+03;;-4.2089736e+03;;-4.2424217e+03;;-4.2701877e+03;;-4.2946595e+03;;-4.3167276e+03;;-4.3371132e+03;;-4.3572179e+03;;-4.3773346e+03;;-4.3954244e+03;;-4.4086918e+03;;-4.4155187e+03;;-4.4155187e+03
-6.2371738e+01;;-6.2371738e+01;;-7.3641465e+01;;-8.9537291e+01;;-1.0859958e+02;;-1.2883619e+02;;-1.4760544e+02;;-1.6084402e+02;;-1.7262704e+02;;-1.8596194e+02;;-2.0071119e+02;;-2.1674181e+02;;-2.3476293e+02;;-2.5568030e+02;;-2.8003347e+02;;-3.0778501e+02;;-3.3806993e+02;;-3.7008431e+02;;-4.1050602e+02;;-4.8183311e+02;;-5.8674408e+02;;-7.2419507e+02;;-8.9557060e+02;;-1.1004696e+03;;-1.3354206e+03;;-1.5951129e+03;;-1.8664035e+03;;-2.1256414e+03;;-2.3458864e+03;;-2.5170960e+03;;-2.6479369e+03;;-2.7535981e+03;;-2.8484721e+03;;-2.9433965e+03;;-3.0445490e+03;;-3.1517170e+03;;-3.2577161e+03;;-3.3523891e+03;;-3.4296417e+03;;-3.4917287e+03;;-3.5467684e+03;;-3.6013844e+03;;-3.6558783e+03;;-3.7071898e+03;;-3.7551487e+03;;-3.8034797e+03;;-3.8552609e+03;;-3.9100704e+03;;-3.9659162e+03;;-4.0217970e+03;;-4.0771547e+03;;-4.1298178e+03;;-4.1760689e+03;;-4.2133086e+03;;-4.2424161e+03;;-4.2670884e+03;;-4.2905871e+03;;-4.3135729e+03;;-4.3353406e+03;;-4.3556794e+03;;-4.3744399e+03;;-4.3905334e+03;;-4.4023643e+03;;-4.4086382e+03;;-4.4086382e+03
-5.9408593e+01;;-5.9408593e+01;;-7.0290994e+01;;-8.5702922e+01;;-1.0442954e+02;;-1.2464843e+02;;-1.4425522e+02;;-1.5914386e+02;;-1.7155250e+02;;-1.8513280e+02;;-2.0020831e+02;;-2.1648631e+02;;-2.3400733e+02;;-2.5318448e+02;;-2.7467490e+02;;-2.9902920e+02;;-3.2613958e+02;;-3.5623283e+02;;-3.9908714e+02;;-4.7425908e+02;;-5.8093366e+02;;-7.1900823e+02;;-8.9033249e+02;;-1.0942380e+03;;-1.3283181e+03;;-1.5878772e+03;;-1.8610346e+03;;-2.1262611e+03;;-2.3576018e+03;;-2.5415170e+03;;-2.6820676e+03;;-2.7920214e+03;;-2.8860884e+03;;-2.9773495e+03;;-3.0743045e+03;;-3.1778043e+03;;-3.2812256e+03;;-3.3759397e+03;;-3.4575285e+03;;-3.5273557e+03;;-3.5898713e+03;;-3.6486267e+03;;-3.7037510e+03;;-3.7536987e+03;;-3.7995348e+03;;-3.8452150e+03;;-3.8931757e+03;;-3.9424416e+03;;-3.9917050e+03;;-4.0414620e+03;;-4.0918140e+03;;-4.1399973e+03;;-4.1818125e+03;;-4.2152825e+03;;-4.2422716e+03;;-4.2666094e+03;;-4.2907589e+03;;-4.3143219e+03;;-4.3357471e+03;;-4.3545514e+03;;-4.3711252e+03;;-4.3853829e+03;;-4.3963639e+03;;-4.4025239e+03;;-4.4025239e+03
-5.7105886e+01;;-5.7105886e+01;;-6.7656570e+01;;-8.2644388e+01;;-1.0098937e+02;;-1.2101728e+02;;-1.4096944e+02;;-1.5717924e+02;;-1.7051707e+02;;-1.8466636e+02;;-2.0027503e+02;;-2.1687709e+02;;-2.3386786e+02;;-2.5114242e+02;;-2.6949149e+02;;-2.9018834e+02;;-3.1405395e+02;;-3.4253821e+02;;-3.8863040e+02;;-4.6653904e+02;;-5.7396684e+02;;-7.1137868e+02;;-8.8077356e+02;;-1.0807710e+03;;-1.3099027e+03;;-1.5638620e+03;;-1.8323763e+03;;-2.0977978e+03;;-2.3387519e+03;;-2.5400974e+03;;-2.6986332e+03;;-2.8214165e+03;;-2.9216541e+03;;-3.0136597e+03;;-3.1075276e+03;;-3.2056350e+03;;-3.3039668e+03;;-3.3974205e+03;;-3.4833558e+03;;-3.5606410e+03;;-3.6284706e+03;;-3.6872948e+03;;-3.7388070e+03;;-3.7850361e+03;;-3.8288759e+03;;-3.8735286e+03;;-3.9196429e+03;;-3.9652655e+03;;-4.0096178e+03;;-4.0542902e+03;;-4.0998587e+03;;-4.1436785e+03;;-4.1822865e+03;;-4.2148902e+03;;-4.2436023e+03;;-4.2707772e+03;;-4.2966798e+03;;-4.3197388e+03;;-4.3389114e+03;;-4.3551020e+03;;-4.3697428e+03;;-4.3829311e+03;;-4.3934203e+03;;-4.3993996e+03;;-4.3993996e+03
-5.4180699e+01;;-5.4180699e+01;;-6.4266500e+01;;-7.8634893e+01;;-9.6293127e+01;;-1.1587948e+02;;-1.3591645e+02;;-1.5348004e+02;;-1.6808576e+02;;-1.8287060e+02;;-1.9882010e+02;;-2.1550010e+02;;-2.3196769e+02;;-2.4775872e+02;;-2.6371558e+02;;-2.8164528e+02;;-3.0301400e+02;;-3.3029529e+02;;-3.7921784e+02;;-4.5880664e+02;;-5.6645386e+02;;-7.0289211e+02;;-8.6974238e+02;;-1.0649176e+03;;-1.2873787e+03;;-1.5328831e+03;;-1.7928535e+03;;-2.0544787e+03;;-2.3024081e+03;;-2.5216137e+03;;-2.7019739e+03;;-2.8430416e+03;;-2.9544017e+03;;-3.0501575e+03;;-3.1417789e+03;;-3.2343170e+03;;-3.3276569e+03;;-3.4201228e+03;;-3.5096192e+03;;-3.5919256e+03;;-3.6618058e+03;;-3.7179340e+03;;-3.7644701e+03;;-3.8071315e+03;;-3.8498383e+03;;-3.8939746e+03;;-3.9382038e+03;;-3.9802445e+03;;-4.0201774e+03;;-4.0602793e+03;;-4.1013133e+03;;-4.1411708e+03;;-4.1777655e+03;;-4.2116803e+03;;-4.2448371e+03;;-4.2771151e+03;;-4.3055847e+03;;-4.3275076e+03;;-4.3435611e+03;;-4.3572464e+03;;-4.3710303e+03;;-4.3842008e+03;;-4.3944930e+03;;-4.4001010e+03;;-4.4001010e+03
-5.0086458e+01;;-5.0086458e+01;;-5.9506089e+01;;-7.2975901e+01;;-8.9650931e+01;;-1.0846361e+02;;-1.2834059e+02;;-1.4713107e+02;;-1.6295151e+02;;-1.7778237e+02;;-1.9323035e+02;;-2.0940913e+02;;-2.2549648e+02;;-2.4079649e+02;;-2.5595273e+02;;-2.7284498e+02;;-2.9305196e+02;;-3.1958166e+02;;-3.7046569e+02;;-4.5111322e+02;;-5.5907906e+02;;-6.9529692e+02;;-8.6070616e+02;;-1.0532927e+03;;-1.2717553e+03;;-1.5114931e+03;;-1.7647223e+03;;-2.0222250e+03;;-2.2734780e+03;;-2.5050084e+03;;-2.7031760e+03;;-2.8613723e+03;;-2.9843245e+03;;-3.0844328e+03;;-3.1744736e+03;;-3.2629145e+03;;-3.3532109e+03;;-3.4452333e+03;;-3.5360364e+03;;-3.6194837e+03;;-3.6887189e+03;;-3.7421337e+03;;-3.7853731e+03;;-3.8259546e+03;;-3.8677450e+03;;-3.9104541e+03;;-3.9517423e+03;;-3.9899580e+03;;-4.0261536e+03;;-4.0627237e+03;;-4.1000588e+03;;-4.1361575e+03;;-4.1700098e+03;;-4.2039532e+03;;-4.2407365e+03;;-4.2783309e+03;;-4.3102540e+03;;-4.3322387e+03;;-4.3467899e+03;;-4.3599072e+03;;-4.3745417e+03;;-4.3887616e+03;;-4.3993160e+03;;-4.4046685e+03;;-4.4046685e+03
-4.5681148e+01;;-4.5681148e+01;;-5.4375699e+01;;-6.6858306e+01;;-8.2424565e+01;;-1.0026993e+02;;-1.1960441e+02;;-1.3875948e+02;;-1.5495185e+02;;-1.6859261e+02;;-1.8227760e+02;;-1.9723858e+02;;-2.1315003e+02;;-2.2911520e+02;;-2.4523095e+02;;-2.6286701e+02;;-2.8320042e+02;;-3.0960733e+02;;-3.6255447e+02;;-4.4452856e+02;;-5.5358553e+02;;-6.9099364e+02;;-8.5754486e+02;;-1.0516889e+03;;-1.2720592e+03;;-1.5135312e+03;;-1.7672589e+03;;-2.0236986e+03;;-2.2744155e+03;;-2.5089230e+03;;-2.7145415e+03;;-2.8822446e+03;;-3.0127537e+03;;-3.1160865e+03;;-3.2056925e+03;;-3.2925567e+03;;-3.3818193e+03;;-3.4728352e+03;;-3.5615847e+03;;-3.6424359e+03;;-3.7099516e+03;;-3.7628285e+03;;-3.8058222e+03;;-3.8455804e+03;;-3.8854111e+03;;-3.9248269e+03;;-3.9622349e+03;;-3.9972951e+03;;-4.0315021e+03;;-4.0664291e+03;;-4.1013106e+03;;-4.1333762e+03;;-4.1619007e+03;;-4.1914016e+03;;-4.2274502e+03;;-4.2681654e+03;;-4.3042020e+03;;-4.3291769e+03;;-4.3461158e+03;;-4.3619208e+03;;-4.3790584e+03;;-4.3947090e+03;;-4.4055372e+03;;-4.4106811e+03;;-4.4106811e+03
-4.2042934e+01;;-4.2042934e+01;;-5.0110905e+01;;-6.1722937e+01;;-7.6265648e+01;;-9.3077092e+01;;-1.1146782e+02;;-1.2989968e+02;;-1.4506903e+02;;-1.5621519e+02;;-1.6724863e+02;;-1.8059849e+02;;-1.9641582e+02;;-2.1370852e+02;;-2.3190835e+02;;-2.5143423e+02;;-2.7269783e+02;;-3.0022331e+02;;-3.5675148e+02;;-4.4125411e+02;;-5.5285490e+02;;-6.9342866e+02;;-8.6398691e+02;;-1.0637265e+03;;-1.2915282e+03;;-1.5418400e+03;;-1.8035048e+03;;-2.0625472e+03;;-2.3094032e+03;;-2.5378346e+03;;-2.7397849e+03;;-2.9075738e+03;;-3.0402973e+03;;-3.1460111e+03;;-3.2374569e+03;;-3.3255847e+03;;-3.4148460e+03;;-3.5033293e+03;;-3.5871231e+03;;-3.6631886e+03;;-3.7289537e+03;;-3.7831334e+03;;-3.8278016e+03;;-3.8670919e+03;;-3.9037982e+03;;-3.9386918e+03;;-3.9722440e+03;;-4.0056271e+03;;-4.0400892e+03;;-4.0755142e+03;;-4.1093058e+03;;-4.1373200e+03;;-4.1584957e+03;;-4.1794871e+03;;-4.2098962e+03;;-4.2501308e+03;;-4.2896050e+03;;-4.3196366e+03;;-4.3419361e+03;;-4.3622570e+03;;-4.3818361e+03;;-4.3977682e+03;;-4.4078370e+03;;-4.4123285e+03;;-4.4123285e+03
-3.9488381e+01;;-3.9488381e+01;;-4.7057121e+01;;-5.7953301e+01;;-7.1602651e+01;;-8.7375560e+01;;-1.0456940e+02;;-1.2155795e+02;;-1.3446607e+02;;-1.4246545e+02;;-1.5086975e+02;;-1.6280869e+02;;-1.7859663e+02;;-1.9719650e+02;;-2.1759603e+02;;-2.3925897e+02;;-2.6178334e+02;;-2.9274827e+02;;-3.5426638e+02;;-4.4254663e+02;;-5.5802223e+02;;-7.0333008e+02;;-8.7971193e+02;;-1.0872271e+03;;-1.3249833e+03;;-1.5869726e+03;;-1.8594836e+03;;-2.1221901e+03;;-2.3623031e+03;;-2.5789396e+03;;-2.7704167e+03;;-2.9324774e+03;;-3.0647566e+03;;-3.1739447e+03;;-3.2703112e+03;;-3.3619932e+03;;-3.4513706e+03;;-3.5361707e+03;;-3.6141993e+03;;-3.6854387e+03;;-3.7495465e+03;;-3.8048311e+03;;-3.8508031e+03;;-3.8893191e+03;;-3.9229751e+03;;-3.9541133e+03;;-3.9851342e+03;;-4.0182094e+03;;-4.0540296e+03;;-4.0908158e+03;;-4.1242928e+03;;-4.1491916e+03;;-4.1640991e+03;;-4.1768459e+03;;-4.1999479e+03;;-4.2365694e+03;;-4.2767511e+03;;-4.3104144e+03;;-4.3370335e+03;;-4.3601383e+03;;-4.3798257e+03;;-4.3939401e+03;;-4.4020183e+03;;-4.4054413e+03;;-4.4054413e+03
-3.7443914e+01;;-3.7443914e+01;;-4.4560344e+01;;-5.4796989e+01;;-6.7598930e+01;;-8.2334611e+01;;-9.8258446e+01;;-1.1361161e+02;;-1.2399463e+02;;-1.2940305e+02;;-1.3609407e+02;;-1.4726274e+02;;-1.6307249e+02;;-1.8243572e+02;;-2.0424723e+02;;-2.2745623e+02;;-2.5128854e+02;;-2.8786453e+02;;-3.5388475e+02;;-4.4583005e+02;;-5.6511161e+02;;-7.1500067e+02;;-8.9686710e+02;;-1.1115342e+03;;-1.3581970e+03;;-1.6303486e+03;;-1.9119705e+03;;-2.1763648e+03;;-2.4075549e+03;;-2.6112526e+03;;-2.7919058e+03;;-2.9485861e+03;;-3.0819332e+03;;-3.1970827e+03;;-3.3005335e+03;;-3.3964832e+03;;-3.4857333e+03;;-3.5672887e+03;;-3.6413438e+03;;-3.7096098e+03;;-3.7723433e+03;;-3.8274693e+03;;-3.8733850e+03;;-3.9109541e+03;;-3.9428822e+03;;-3.9724970e+03;;-4.0028881e+03;;-4.0360263e+03;;-4.0719021e+03;;-4.1081262e+03;;-4.1401911e+03;;-4.1629458e+03;;-4.1750650e+03;;-4.1840878e+03;;-4.2024757e+03;;-4.2345986e+03;;-4.2722663e+03;;-4.3057010e+03;;-4.3327554e+03;;-4.3551228e+03;;-4.3725032e+03;;-4.3838569e+03;;-4.3900698e+03;;-4.3928099e+03;;-4.3928099e+03
-3.5157145e+01;;-3.5157145e+01;;-4.1765583e+01;;-5.1274093e+01;;-6.3166043e+01;;-7.6830972e+01;;-9.1614642e+01;;-1.0572251e+02;;-1.1481258e+02;;-1.1917551e+02;;-1.2531364e+02;;-1.3625226e+02;;-1.5187740e+02;;-1.7114800e+02;;-1.9316698e+02;;-2.1689140e+02;;-2.4177703e+02;;-2.8308969e+02;;-3.5158296e+02;;-4.4537639e+02;;-5.6652183e+02;;-7.1867438e+02;;-9.0331526e+02;;-1.1217651e+03;;-1.3732855e+03;;-1.6510776e+03;;-1.9376075e+03;;-2.2011941e+03;;-2.4237969e+03;;-2.6181648e+03;;-2.7933991e+03;;-2.9502202e+03;;-3.0889053e+03;;-3.2120881e+03;;-3.3224920e+03;;-3.4216548e+03;;-3.5106945e+03;;-3.5909266e+03;;-3.6641427e+03;;-3.7319038e+03;;-3.7939521e+03;;-3.8484094e+03;;-3.8939685e+03;;-3.9313544e+03;;-3.9632310e+03;;-3.9931468e+03;;-4.0238219e+03;;-4.0559888e+03;;-4.0887548e+03;;-4.1203266e+03;;-4.1477715e+03;;-4.1673807e+03;;-4.1785210e+03;;-4.1879693e+03;;-4.2061594e+03;;-4.2363505e+03;;-4.2713177e+03;;-4.3024243e+03;;-4.3272906e+03;;-4.3471290e+03;;-4.3620990e+03;;-4.3720303e+03;;-4.3780504e+03;;-4.3811354e+03;;-4.3811354e+03
-3.2587295e+01;;-3.2587295e+01;;-3.8609493e+01;;-4.7309913e+01;;-5.8244399e+01;;-7.0939947e+01;;-8.4816824e+01;;-9.8403280e+01;;-1.0817885e+02;;-1.1338576e+02;;-1.1995193e+02;;-1.3064223e+02;;-1.4540786e+02;;-1.6359818e+02;;-1.8472892e+02;;-2.0800316e+02;;-2.3312756e+02;;-2.7574088e+02;;-3.4398839e+02;;-4.3689311e+02;;-5.5679325e+02;;-7.0749562e+02;;-8.9067626e+02;;-1.1078708e+03;;-1.3585742e+03;;-1.6362552e+03;;-1.9233192e+03;;-2.1859895e+03;;-2.4043543e+03;;-2.5963626e+03;;-2.7740501e+03;;-2.9380809e+03;;-3.0865884e+03;;-3.2188193e+03;;-3.3347596e+03;;-3.4356691e+03;;-3.5247276e+03;;-3.6054649e+03;;-3.6799477e+03;;-3.7485152e+03;;-3.8103935e+03;;-3.8646470e+03;;-3.9109093e+03;;-3.9496862e+03;;-3.9828467e+03;;-4.0134207e+03;;-4.0435552e+03;;-4.0728702e+03;;-4.0997696e+03;;-4.1233456e+03;;-4.1424189e+03;;-4.1547717e+03;;-4.1614548e+03;;-4.1709127e+03;;-4.1929202e+03;;-4.2275564e+03;;-4.2649511e+03;;-4.2960536e+03;;-4.3193371e+03;;-4.3372972e+03;;-4.3514332e+03;;-4.3620772e+03;;-4.3696133e+03;;-4.3738229e+03;;-4.3738229e+03
-3.0435960e+01;;-3.0435960e+01;;-3.5818441e+01;;-4.3733170e+01;;-5.3814360e+01;;-6.5783392e+01;;-7.9106259e+01;;-9.2738328e+01;;-1.0429366e+02;;-1.1159871e+02;;-1.1884865e+02;;-1.2888504e+02;;-1.4222955e+02;;-1.5886635e+02;;-1.7868132e+02;;-2.0103791e+02;;-2.2534923e+02;;-2.6548516e+02;;-3.3080932e+02;;-4.2016682e+02;;-5.3581027e+02;;-6.8150031e+02;;-8.5926157e+02;;-1.0705979e+03;;-1.3154779e+03;;-1.5882792e+03;;-1.8730120e+03;;-2.1375097e+03;;-2.3588309e+03;;-2.5555987e+03;;-2.7418742e+03;;-2.9178417e+03;;-3.0788454e+03;;-3.2206214e+03;;-3.3414740e+03;;-3.4437854e+03;;-3.5331969e+03;;-3.6148511e+03;;-3.6905815e+03;;-3.7596442e+03;;-3.8211726e+03;;-3.8754516e+03;;-3.9231162e+03;;-3.9642360e+03;;-3.9992695e+03;;-4.0301104e+03;;-4.0585229e+03;;-4.0840147e+03;;-4.1048891e+03;;-4.1202218e+03;;-4.1284952e+03;;-4.1275811e+03;;-4.1220843e+03;;-4.1272436e+03;;-4.1559744e+03;;-4.2033172e+03;;-4.2513809e+03;;-4.2874264e+03;;-4.3112790e+03;;-4.3284448e+03;;-4.3426837e+03;;-4.3548514e+03;;-4.3643122e+03;;-4.3696896e+03;;-4.3696896e+03
-2.9318359e+01;;-2.9318359e+01;;-3.4058593e+01;;-4.1378726e+01;;-5.0885260e+01;;-6.2436839e+01;;-7.5495562e+01;;-8.9291982e+01;;-1.0206656e+02;;-1.1102106e+02;;-1.1853625e+02;;-1.2782334e+02;;-1.4004402e+02;;-1.5561940e+02;;-1.7451326e+02;;-1.9603636e+02;;-2.1912191e+02;;-2.5358032e+02;;-3.1364719e+02;;-3.9728461e+02;;-5.0633404e+02;;-6.4432949e+02;;-8.1384310e+02;;-1.0161269e+03;;-1.2518339e+03;;-1.5167951e+03;;-1.7979415e+03;;-2.0678436e+03;;-2.3001099e+03;;-2.5076986e+03;;-2.7058287e+03;;-2.8950980e+03;;-3.0690084e+03;;-3.2205777e+03;;-3.3469450e+03;;-3.4514868e+03;;-3.5416682e+03;;-3.6239334e+03;;-3.7002616e+03;;-3.7692633e+03;;-3.8298877e+03;;-3.8832897e+03;;-3.9311252e+03;;-3.9734964e+03;;-4.0098322e+03;;-4.0408567e+03;;-4.0679685e+03;;-4.0910759e+03;;-4.1086185e+03;;-4.1183729e+03;;-4.1160443e+03;;-4.0983385e+03;;-4.0751250e+03;;-4.0722825e+03;;-4.1086604e+03;;-4.1732457e+03;;-4.2368480e+03;;-4.2808393e+03;;-4.3064845e+03;;-4.3231784e+03;;-4.3373702e+03;;-4.3506092e+03;;-4.3614986e+03;;-4.3677457e+03;;-4.3677457e+03
-2.8938321e+01;;-2.8938321e+01;;-3.3259444e+01;;-4.0277353e+01;;-4.9503691e+01;;-6.0814283e+01;;-7.3680623e+01;;-8.7387374e+01;;-1.0029110e+02;;-1.0935066e+02;;-1.1651934e+02;;-1.2546629e+02;;-1.3758674e+02;;-1.5312662e+02;;-1.7175096e+02;;-1.9268741e+02;;-2.1474724e+02;;-2.4207750e+02;;-2.9433444e+02;;-3.7033791e+02;;-4.7098742e+02;;-5.9928783e+02;;-7.5851424e+02;;-9.4958533e+02;;-1.1738511e+03;;-1.4289453e+03;;-1.7054550e+03;;-1.9824095e+03;;-2.2325027e+03;;-2.4566793e+03;;-2.6688808e+03;;-2.8713800e+03;;-3.0576047e+03;;-3.2190670e+03;;-3.3519106e+03;;-3.4599329e+03;;-3.5519122e+03;;-3.6355649e+03;;-3.7131416e+03;;-3.7824013e+03;;-3.8415808e+03;;-3.8923537e+03;;-3.9376517e+03;;-3.9784797e+03;;-4.0143686e+03;;-4.0456527e+03;;-4.0733367e+03;;-4.0971500e+03;;-4.1150890e+03;;-4.1232350e+03;;-4.1144157e+03;;-4.0842495e+03;;-4.0469569e+03;;-4.0368373e+03;;-4.0776571e+03;;-4.1541936e+03;;-4.2289095e+03;;-4.2785718e+03;;-4.3054096e+03;;-4.3217793e+03;;-4.3361058e+03;;-4.3503900e+03;;-4.3626625e+03;;-4.3698270e+03;;-4.3698270e+03
-2.8735629e+01;;-2.8735629e+01;;-3.2658278e+01;;-3.9400395e+01;;-4.8354116e+01;;-5.9363763e+01;;-7.1879149e+01;;-8.5244811e+01;;-9.7707604e+01;;-1.0611625e+02;;-1.1290509e+02;;-1.2218687e+02;;-1.3511479e+02;;-1.5131295e+02;;-1.6999504e+02;;-1.9032149e+02;;-2.1148632e+02;;-2.3395450e+02;;-2.7479356e+02;;-3.4149985e+02;;-4.3247400e+02;;-5.4975723e+02;;-6.9689743e+02;;-8.7531957e+02;;-1.0864786e+03;;-1.3299221e+03;;-1.5999330e+03;;-1.8820740e+03;;-2.1525158e+03;;-2.3984564e+03;;-2.6272766e+03;;-2.8434472e+03;;-3.0421303e+03;;-3.2143550e+03;;-3.3551862e+03;;-3.4685592e+03;;-3.5645618e+03;;-3.6518967e+03;;-3.7323621e+03;;-3.8023304e+03;;-3.8593076e+03;;-3.9057296e+03;;-3.9460652e+03;;-3.9826531e+03;;-4.0160361e+03;;-4.0472273e+03;;-4.0770545e+03;;-4.1041468e+03;;-4.1252693e+03;;-4.1357010e+03;;-4.1278828e+03;;-4.0974378e+03;;-4.0587286e+03;;-4.0461880e+03;;-4.0841303e+03;;-4.1582274e+03;;-4.2313570e+03;;-4.2800223e+03;;-4.3062995e+03;;-4.3228391e+03;;-4.3383228e+03;;-4.3545431e+03;;-4.3688712e+03;;-4.3773676e+03;;-4.3773676e+03
-2.8512162e+01;;-2.8512162e+01;;-3.1313245e+01;;-3.7344382e+01;;-4.5608040e+01;;-5.5889632e+01;;-6.7740984e+01;;-8.0525786e+01;;-9.2723340e+01;;-1.0146711e+02;;-1.0867311e+02;;-1.1862725e+02;;-1.3226999e+02;;-1.4884965e+02;;-1.6732407e+02;;-1.8706924e+02;;-2.0775893e+02;;-2.2907098e+02;;-2.5811728e+02;;-3.1420938e+02;;-3.9467521e+02;;-5.0047737e+02;;-6.3465840e+02;;-8.0001604e+02;;-9.9746726e+02;;-1.2281409e+03;;-1.4893975e+03;;-1.7721345e+03;;-2.0581665e+03;;-2.3267954e+03;;-2.5738678e+03;;-2.8045676e+03;;-3.0171917e+03;;-3.2030261e+03;;-3.3554950e+03;;-3.4778578e+03;;-3.5810247e+03;;-3.6740477e+03;;-3.7577685e+03;;-3.8275939e+03;;-3.8812845e+03;;-3.9225141e+03;;-3.9570477e+03;;-3.9883064e+03;;-4.0181278e+03;;-4.0488295e+03;;-4.0813539e+03;;-4.1128627e+03;;-4.1386149e+03;;-4.1542297e+03;;-4.1543590e+03;;-4.1356248e+03;;-4.1082773e+03;;-4.0986038e+03;;-4.1269152e+03;;-4.1844737e+03;;-4.2432555e+03;;-4.2841771e+03;;-4.3082067e+03;;-4.3254269e+03;;-4.3428861e+03;;-4.3615092e+03;;-4.3780071e+03;;-4.3878121e+03;;-4.3878121e+03
-2.8419299e+01;;-2.8419299e+01;;-2.9417031e+01;;-3.4061280e+01;;-4.1082194e+01;;-5.0116577e+01;;-6.0918367e+01;;-7.2882160e+01;;-8.5001546e+01;;-9.5384521e+01;;-1.0382702e+02;;-1.1366388e+02;;-1.2623849e+02;;-1.4106390e+02;;-1.5817292e+02;;-1.7816948e+02;;-2.0031489e+02;;-2.2347577e+02;;-2.4846281e+02;;-2.9234497e+02;;-3.6231923e+02;;-4.5722670e+02;;-5.7918773e+02;;-7.3175933e+02;;-9.1622475e+02;;-1.1340085e+03;;-1.3846449e+03;;-1.6627127e+03;;-1.9549769e+03;;-2.2402850e+03;;-2.5042234e+03;;-2.7493455e+03;;-2.9775217e+03;;-3.1811948e+03;;-3.3512491e+03;;-3.4878121e+03;;-3.6005497e+03;;-3.6985404e+03;;-3.7830722e+03;;-3.8507008e+03;;-3.9007146e+03;;-3.9376826e+03;;-3.9676168e+03;;-3.9945287e+03;;-4.0215656e+03;;-4.0522419e+03;;-4.0875544e+03;;-4.1235396e+03;;-4.1543740e+03;;-4.1763326e+03;;-4.1867823e+03;;-4.1837316e+03;;-4.1722757e+03;;-4.1679896e+03;;-4.1851320e+03;;-4.2212725e+03;;-4.2605063e+03;;-4.2906040e+03;;-4.3115751e+03;;-4.3296287e+03;;-4.3489468e+03;;-4.3691331e+03;;-4.3865385e+03;;-4.3967054e+03;;-4.3967054e+03
-2.8392655e+01;;-2.8392655e+01;;-2.8606416e+01;;-3.0822098e+01;;-3.6251572e+01;;-4.3859926e+01;;-5.3373843e+01;;-6.4391134e+01;;-7.6344802e+01;;-8.8140694e+01;;-9.8111378e+01;;-1.0636187e+02;;-1.1511371e+02;;-1.2548637e+02;;-1.4009128e+02;;-1.6018009e+02;;-1.8505388e+02;;-2.1283735e+02;;-2.4154860e+02;;-2.7770990e+02;;-3.3848594e+02;;-4.2386410e+02;;-5.3540073e+02;;-6.7632538e+02;;-8.4937210e+02;;-1.0552748e+03;;-1.2948114e+03;;-1.5648533e+03;;-1.8556934e+03;;-2.1490243e+03;;-2.4257033e+03;;-2.6832715e+03;;-2.9263012e+03;;-3.1496533e+03;;-3.3413478e+03;;-3.4952954e+03;;-3.6170513e+03;;-3.7162868e+03;;-3.7979067e+03;;-3.8622870e+03;;-3.9104883e+03;;-3.9463671e+03;;-3.9747347e+03;;-3.9999790e+03;;-4.0266088e+03;;-4.0586321e+03;;-4.0965255e+03;;-4.1358687e+03;;-4.1707934e+03;;-4.1980445e+03;;-4.2164177e+03;;-4.2249117e+03;;-4.2253851e+03;;-4.2256980e+03;;-4.2349330e+03;;-4.2544867e+03;;-4.2776752e+03;;-4.2983692e+03;;-4.3165016e+03;;-4.3351709e+03;;-4.3557412e+03;;-4.3763466e+03;;-4.3932104e+03;;-4.4026849e+03;;-4.4026849e+03
-2.8380543e+01;;-2.8380543e+01;;-2.8447108e+01;;-2.8966644e+01;;-3.2325505e+01;;-3.8498881e+01;;-4.6760691e+01;;-5.6891605e+01;;-6.8383010e+01;;-8.0508440e+01;;-9.1449801e+01;;-9.7902315e+01;;-1.0152338e+02;;-1.0735354e+02;;-1.1973541e+02;;-1.3910561e+02;;-1.6471015e+02;;-1.9567439e+02;;-2.2997264e+02;;-2.6814498e+02;;-3.2317549e+02;;-4.0162882e+02;;-5.0531856e+02;;-6.3727017e+02;;-8.0122703e+02;;-9.9797422e+02;;-1.2285000e+03;;-1.4911330e+03;;-1.7785477e+03;;-2.0752375e+03;;-2.3606885e+03;;-2.6269697e+03;;-2.8798410e+03;;-3.1177292e+03;;-3.3269846e+03;;-3.4947320e+03;;-3.6213915e+03;;-3.7180796e+03;;-3.7954015e+03;;-3.8583997e+03;;-3.9087927e+03;;-3.9479894e+03;;-3.9786843e+03;;-4.0056277e+03;;-4.0345342e+03;;-4.0690825e+03;;-4.1086456e+03;;-4.1489709e+03;;-4.1853371e+03;;-4.2150777e+03;;-4.2370200e+03;;-4.2501041e+03;;-4.2548909e+03;;-4.2561641e+03;;-4.2610330e+03;;-4.2728529e+03;;-4.2889632e+03;;-4.3055149e+03;;-4.3222181e+03;;-4.3410527e+03;;-4.3622562e+03;;-4.3829779e+03;;-4.3991478e+03;;-4.4078234e+03;;-4.4078234e+03
-2.8376168e+01;;-2.8376168e+01;;-2.8392430e+01;;-2.8507128e+01;;-2.9655561e+01;;-3.4357660e+01;;-4.1418666e+01;;-5.0445060e+01;;-6.1064826e+01;;-7.2509502e+01;;-8.3316784e+01;;-8.9198371e+01;;-8.8176731e+01;;-8.9863375e+01;;-1.0078006e+02;;-1.1951489e+02;;-1.4491230e+02;;-1.7662406e+02;;-2.1399494e+02;;-2.5752115e+02;;-3.1374829e+02;;-3.8988697e+02;;-4.8971364e+02;;-6.1693330e+02;;-7.7572103e+02;;-9.6801858e+02;;-1.1945615e+03;;-1.4544915e+03;;-1.7418042e+03;;-2.0423473e+03;;-2.3341978e+03;;-2.6040096e+03;;-2.8576121e+03;;-3.0975035e+03;;-3.3110078e+03;;-3.4821180e+03;;-3.6083386e+03;;-3.7020242e+03;;-3.7776620e+03;;-3.8429536e+03;;-3.8991935e+03;;-3.9452670e+03;;-3.9817984e+03;;-4.0133540e+03;;-4.0460625e+03;;-4.0829912e+03;;-4.1227317e+03;;-4.1617344e+03;;-4.1969105e+03;;-4.2262912e+03;;-4.2480343e+03;;-4.2599099e+03;;-4.2614758e+03;;-4.2577126e+03;;-4.2583422e+03;;-4.2699437e+03;;-4.2897014e+03;;-4.3101446e+03;;-4.3283310e+03;;-4.3468962e+03;;-4.3677691e+03;;-4.3884574e+03;;-4.4044326e+03;;-4.4127920e+03;;-4.4127920e+03
-2.8375167e+01;;-2.8375167e+01;;-2.8377602e+01;;-2.8398862e+01;;-2.8587100e+01;;-3.0953293e+01;;-3.6440237e+01;;-4.3967575e+01;;-5.3152826e+01;;-6.3237250e+01;;-7.2952639e+01;;-7.8709247e+01;;-7.5913397e+01;;-7.4525190e+01;;-8.5264943e+01;;-1.0357790e+02;;-1.2840845e+02;;-1.5991927e+02;;-1.9870454e+02;;-2.4634124e+02;;-3.0706747e+02;;-3.8556061e+02;;-4.8631320e+02;;-6.1387593e+02;;-7.7304625e+02;;-9.6646419e+02;;-1.1952711e+03;;-1.4588622e+03;;-1.7514742e+03;;-2.0584675e+03;;-2.3547430e+03;;-2.6215823e+03;;-2.8651372e+03;;-3.0921836e+03;;-3.2941885e+03;;-3.4576187e+03;;-3.5804004e+03;;-3.6741249e+03;;-3.7525310e+03;;-3.8230010e+03;;-3.8865322e+03;;-3.9410517e+03;;-3.9856335e+03;;-4.0234694e+03;;-4.0599438e+03;;-4.0980037e+03;;-4.1367952e+03;;-4.1739024e+03;;-4.2072313e+03;;-4.2349149e+03;;-4.2542863e+03;;-4.2615695e+03;;-4.2547820e+03;;-4.2402935e+03;;-4.2340232e+03;;-4.2487243e+03;;-4.2798383e+03;;-4.3113887e+03;;-4.3343873e+03;;-4.3525022e+03;;-4.3715409e+03;;-4.3909637e+03;;-4.4062246e+03;;-4.4141960e+03;;-4.4141960e+03
-2.8375053e+01;;-2.8375053e+01;;-2.8375234e+01;;-2.8377902e+01;;-2.8418452e+01;;-2.8880903e+01;;-3.2075293e+01;;-3.7773893e+01;;-4.5208786e+01;;-5.3680647e+01;;-6.1955478e+01;;-6.7052667e+01;;-6.4164387e+01;;-6.2282891e+01;;-7.3405060e+01;;-9.1272405e+01;;-1.1541143e+02;;-1.4655442e+02;;-1.8626066e+02;;-2.3681041e+02;;-3.0139189e+02;;-3.8381357e+02;;-4.8844246e+02;;-6.2019508e+02;;-7.8378862e+02;;-9.8216134e+02;;-1.2173342e+03;;-1.4887786e+03;;-1.7903500e+03;;-2.1057423e+03;;-2.4048048e+03;;-2.6627882e+03;;-2.8876267e+03;;-3.0912159e+03;;-3.2719361e+03;;-3.4226235e+03;;-3.5428108e+03;;-3.6407247e+03;;-3.7257270e+03;;-3.8031276e+03;;-3.8741650e+03;;-3.9371911e+03;;-3.9902386e+03;;-4.0344023e+03;;-4.0737722e+03;;-4.1119384e+03;;-4.1497767e+03;;-4.1860106e+03;;-4.2184064e+03;;-4.2443893e+03;;-4.2608596e+03;;-4.2633084e+03;;-4.2482612e+03;;-4.2226839e+03;;-4.2082792e+03;;-4.2246339e+03;;-4.2664306e+03;;-4.3094938e+03;;-4.3380552e+03;;-4.3557392e+03;;-4.3718010e+03;;-4.3881724e+03;;-4.4011925e+03;;-4.4080047e+03;;-4.4080047e+03
-2.8375051e+01;;-2.8375051e+01;;-2.8375057e+01;;-2.8375317e+01;;-2.8385524e+01;;-2.8492342e+01;;-2.9277255e+01;;-3.2668226e+01;;-3.8128684e+01;;-4.4834609e+01;;-5.1610528e+01;;-5.5893360e+01;;-5.3348899e+01;;-5.2997786e+01;;-6.4186034e+01;;-8.1506841e+01;;-1.0502555e+02;;-1.3593729e+02;;-1.7612667e+02;;-2.2797976e+02;;-2.9458607e+02;;-3.7966134e+02;;-4.8762099e+02;;-6.2332274e+02;;-7.9088086e+02;;-9.9404053e+02;;-1.2354246e+03;;-1.5147266e+03;;-1.8255998e+03;;-2.1502202e+03;;-2.4526276e+03;;-2.6991562e+03;;-2.9010040e+03;;-3.0776606e+03;;-3.2361310e+03;;-3.3758080e+03;;-3.4967595e+03;;-3.6024964e+03;;-3.6971305e+03;;-3.7833731e+03;;-3.8624100e+03;;-3.9332477e+03;;-3.9935181e+03;;-4.0427890e+03;;-4.0842570e+03;;-4.1224626e+03;;-4.1600090e+03;;-4.1962850e+03;;-4.2283709e+03;;-4.2530118e+03;;-4.2675409e+03;;-4.2681572e+03;;-4.2507953e+03;;-4.2212783e+03;;-4.2022391e+03;;-4.2162730e+03;;-4.2595749e+03;;-4.3060425e+03;;-4.3368210e+03;;-4.3540018e+03;;-4.3671649e+03;;-4.3795845e+03;;-4.3891972e+03;;-4.3941805e+03;;-4.3941805e+03
-2.8375051e+01;;-2.8375051e+01;;-2.8375051e+01;;-2.8375078e+01;;-2.8377031e+01;;-2.8401376e+01;;-2.8564483e+01;;-2.9448760e+01;;-3.2607760e+01;;-3.7421891e+01;;-4.2617619e+01;;-4.5943182e+01;;-4.3936597e+01;;-4.5935018e+01;;-5.6938432e+01;;-7.3576401e+01;;-9.6261057e+01;;-1.2632242e+02;;-1.6571010e+02;;-2.1684202e+02;;-2.8282793e+02;;-3.6741341e+02;;-4.7505734e+02;;-6.1043088e+02;;-7.7777256e+02;;-9.8132459e+02;;-1.2242300e+03;;-1.5067846e+03;;-1.8232953e+03;;-2.1561236e+03;;-2.4659850e+03;;-2.7055829e+03;;-2.8875184e+03;;-3.0416083e+03;;-3.1828386e+03;;-3.3156906e+03;;-3.4403181e+03;;-3.5562742e+03;;-3.6629071e+03;;-3.7597397e+03;;-3.8470026e+03;;-3.9243029e+03;;-3.9898595e+03;;-4.0429426e+03;;-4.0863738e+03;;-4.1251870e+03;;-4.1628417e+03;;-4.1990275e+03;;-4.2306697e+03;;-4.2546980e+03;;-4.2694491e+03;;-4.2725772e+03;;-4.2605115e+03;;-4.2368583e+03;;-4.2197363e+03;;-4.2290875e+03;;-4.2640108e+03;;-4.3038854e+03;;-4.3320628e+03;;-4.3483030e+03;;-4.3592491e+03;;-4.3679545e+03;;-4.3741407e+03;;-4.3773161e+03;;-4.3773161e+03
-2.8375051e+01;;-2.8375051e+01;;-2.8375051e+01;;-2.8375053e+01;;-2.8375245e+01;;-2.8378579e+01;;-2.8408759e+01;;-2.8569270e+01;;-2.9271043e+01;;-3.1830122e+01;;-3.5418859e+01;;-3.7823562e+01;;-3.6360169e+01;;-4.0046539e+01;;-5.0465960e+01;;-6.5930596e+01;;-8.7056251e+01;;-1.1518713e+02;;-1.5220002e+02;;-2.0053425e+02;;-2.6312520e+02;;-3.4365602e+02;;-4.4649696e+02;;-5.7637634e+02;;-7.3761197e+02;;-9.3471656e+02;;-1.1713719e+03;;-1.4488227e+03;;-1.7630229e+03;;-2.0990277e+03;;-2.4205070e+03;;-2.6675279e+03;;-2.8429027e+03;;-2.9856202e+03;;-3.1166038e+03;;-3.2448430e+03;;-3.3728619e+03;;-3.4988287e+03;;-3.6179120e+03;;-3.7255985e+03;;-3.8204694e+03;;-3.9029012e+03;;-3.9725377e+03;;-4.0291581e+03;;-4.0752478e+03;;-4.1155232e+03;;-4.1534634e+03;;-4.1891529e+03;;-4.2204196e+03;;-4.2452576e+03;;-4.2627599e+03;;-4.2714999e+03;;-4.2689112e+03;;-4.2567811e+03;;-4.2467437e+03;;-4.2528586e+03;;-4.2765467e+03;;-4.3055476e+03;;-4.3282772e+03;;-4.3427217e+03;;-4.3519103e+03;;-4.3580751e+03;;-4.3621573e+03;;-4.3643737e+03;;-4.3643737e+03
-2.8375051e+01;;-2.8375051e+01;;-2.8375051e+01;;-2.8375051e+01;;-2.8375054e+01;;-2.8375253e+01;;-2.8378757e+01;;-2.8402841e+01;;-2.8494401e+01;;-2.8813981e+01;;-3.0293596e+01;;-3.1771881e+01;;-3.0876687e+01;;-3.4846764e+01;;-4.4227907e+01;;-5.8070226e+01;;-7.7040582e+01;;-1.0241043e+02;;-1.3592975e+02;;-1.7987378e+02;;-2.3698173e+02;;-3.1070983e+02;;-4.0518116e+02;;-5.2511678e+02;;-6.7483691e+02;;-8.5889300e+02;;-1.0814182e+03;;-1.3446961e+03;;-1.6468406e+03;;-1.9772384e+03;;-2.3075048e+03;;-2.5786631e+03;;-2.7672641e+03;;-2.9131589e+03;;-3.0411240e+03;;-3.1652723e+03;;-3.2939667e+03;;-3.4270393e+03;;-3.5566544e+03;;-3.6744508e+03;;-3.7771543e+03;;-3.8653956e+03;;-3.9398792e+03;;-4.0009176e+03;;-4.0506748e+03;;-4.0932880e+03;;-4.1319858e+03;;-4.1674033e+03;;-4.1988980e+03;;-4.2259459e+03;;-4.2478876e+03;;-4.2632193e+03;;-4.2702129e+03;;-4.2699676e+03;;-4.2689696e+03;;-4.2753548e+03;;-4.2911090e+03;;-4.3105822e+03;;-4.3272950e+03;;-4.3392598e+03;;-4.3476290e+03;;-4.3537475e+03;;-4.3582496e+03;;-4.3608712e+03;;-4.3608712e+03
-2.8375051e+01;;-2.8375051e+01;;-2.8375051e+01;;-2.8375051e+01;;-2.8375051e+01;;-2.8375054e+01;;-2.8375265e+01;;-2.8377140e+01;;-2.8384905e+01;;-2.8404107e+01;;-2.8451497e+01;;-2.8576144e+01;;-2.8498273e+01;;-3.0759922e+01;;-3.8597102e+01;;-5.0507136e+01;;-6.7016404e+01;;-8.9243095e+01;;-1.1874643e+02;;-1.5754222e+02;;-2.0818921e+02;;-2.7374420e+02;;-3.5800474e+02;;-4.6542589e+02;;-6.0036914e+02;;-7.6717999e+02;;-9.7023237e+02;;-1.2126542e+03;;-1.4945531e+03;;-1.8096094e+03;;-2.1382928e+03;;-2.4358579e+03;;-2.6539597e+03;;-2.8157151e+03;;-2.9489667e+03;;-3.0727197e+03;;-3.2017713e+03;;-3.3391956e+03;;-3.4766608e+03;;-3.6042432e+03;;-3.7171587e+03;;-3.8146067e+03;;-3.8965164e+03;;-3.9632214e+03;;-4.0171453e+03;;-4.0625735e+03;;-4.1027839e+03;;-4.1388272e+03;;-4.1713499e+03;;-4.2012030e+03;;-4.2278822e+03;;-4.2494900e+03;;-4.2647819e+03;;-4.2747202e+03;;-4.2823810e+03;;-4.2912169e+03;;-4.3024854e+03;;-4.3146032e+03;;-4.3256235e+03;;-4.3355229e+03;;-4.3452450e+03;;-4.3545670e+03;;-4.3619691e+03;;-4.3659988e+03;;-4.3659988e+03
-2.8375051e+01;;-2.8375051e+01;;-2.8375051e+01;;-2.8375051e+01;;-2.8375051e+01;;-2.8375051e+01;;-2.8375053e+01;;-2.8375068e+01;;-2.8375129e+01;;-2.8375281e+01;;-2.8375548e+01;;-2.8375962e+01;;-2.8375876e+01;;-2.8599228e+01;;-3.4025235e+01;;-4.3755277e+01;;-5.7751608e+01;;-7.6841859e+01;;-1.0233933e+02;;-1.3600066e+02;;-1.8008893e+02;;-2.3732018e+02;;-3.1110476e+02;;-4.0548661e+02;;-5.2480897e+02;;-6.7313325e+02;;-8.5482746e+02;;-1.0735575e+03;;-1.3309081e+03;;-1.6239306e+03;;-1.9403933e+03;;-2.2500895e+03;;-2.5008051e+03;;-2.6858541e+03;;-2.8331895e+03;;-2.9646487e+03;;-3.0979237e+03;;-3.2390123e+03;;-3.3823989e+03;;-3.5199589e+03;;-3.6458766e+03;;-3.7559810e+03;;-3.8474949e+03;;-3.9204505e+03;;-3.9784708e+03;;-4.0269927e+03;;-4.0697547e+03;;-4.1079456e+03;;-4.1427027e+03;;-4.1756365e+03;;-4.2066385e+03;;-4.2339657e+03;;-4.2566380e+03;;-4.2749487e+03;;-4.2892469e+03;;-4.2997677e+03;;-4.3072130e+03;;-4.3128866e+03;;-4.3189247e+03;;-4.3280270e+03;;-4.3412287e+03;;-4.3557925e+03;;-4.3670802e+03;;-4.3726382e+03;;-4.3726382e+03
-2.8375051e+01;;-2.8375051e+01;;-2.8375051e+01;;-2.8375051e+01;;-2.8375051e+01;;-2.8375051e+01;;-2.8375051e+01;;-2.8375051e+01;;-2.8375051e+01;;-2.8375052e+01;;-2.8375053e+01;;-2.8375054e+01;;-2.8375060e+01;;-2.8379999e+01;;-3.0415611e+01;;-3.8105280e+01;;-4.9838840e+01;;-6.6116774e+01;;-8.8026966e+01;;-1.1708630e+02;;-1.5528124e+02;;-2.0500685e+02;;-2.6930025e+02;;-3.5178855e+02;;-4.5666768e+02;;-5.8783252e+02;;-7.4945158e+02;;-9.4547324e+02;;-1.1784658e+03;;-1.4478450e+03;;-1.7465010e+03;;-2.0544368e+03;;-2.3296596e+03;;-2.5402569e+03;;-2.7063319e+03;;-2.8507353e+03;;-2.9907170e+03;;-3.1350075e+03;;-3.2834851e+03;;-3.4314431e+03;;-3.5714581e+03;;-3.6948312e+03;;-3.7957611e+03;;-3.8745434e+03;;-3.9366523e+03;;-3.9888801e+03;;-4.0354372e+03;;-4.0775505e+03;;-4.1161964e+03;;-4.1529513e+03;;-4.1882263e+03;;-4.2210660e+03;;-4.2504302e+03;;-4.2749697e+03;;-4.2926749e+03;;-4.3024944e+03;;-4.3057914e+03;;-4.3060646e+03;;-4.3082707e+03;;-4.3173002e+03;;-4.3342185e+03;;-4.3538055e+03;;-4.3685440e+03;;-4.3753181e+03;;-4.3753181e+03
-2.8375051e+01;;-2.8375051e+01;;-2.8375051e+01;;-2.8375051e+01;;-2.8375051e+01;;-2.8375051e+01;;-2.8375051e+01;;-2.8375051e+01;;-2.8375051e+01;;-2.8375051e+01;;-2.8375051e+01;;-2.8375051e+01;;-2.8375052e+01;;-2.8375306e+01;;-2.8580686e+01;;-3.3911627e+01;;-4.3584228e+01;;-5.7513609e+01;;-7.6504565e+01;;-1.0184661e+02;;-1.3529308e+02;;-1.7897862e+02;;-2.3564310e+02;;-3.0858081e+02;;-4.0170661e+02;;-5.1899781e+02;;-6.6435875e+02;;-8.4188403e+02;;-1.0548015e+03;;-1.3041086e+03;;-1.5860495e+03;;-1.8873149e+03;;-2.1769397e+03;;-2.4111067e+03;;-2.5928485e+03;;-2.7462448e+03;;-2.8895316e+03;;-3.0355783e+03;;-3.1898543e+03;;-3.3493397e+03;;-3.5031906e+03;;-3.6381663e+03;;-3.7467680e+03;;-3.8306128e+03;;-3.8969348e+03;;-3.9531733e+03;;-4.0037781e+03;;-4.0503439e+03;;-4.0936974e+03;;-4.1349186e+03;;-4.1747186e+03;;-4.2128947e+03;;-4.2478299e+03;;-4.2760912e+03;;-4.2942740e+03;;-4.3020809e+03;;-4.3025318e+03;;-4.3000983e+03;;-4.3004049e+03;;-4.3093484e+03;;-4.3282866e+03;;-4.3505846e+03;;-4.3669009e+03;;-4.3739514e+03;;-4.3739514e+03
-2.8375051e+01;;-2.8375051e+01;;-2.8375051e+01;;-2.8375051e+01;;-2.8375051e+01;;-2.8375051e+01;;-2.8375051e+01;;-2.8375051e+01;;-2.8375051e+01;;-2.8375051e+01;;-2.8375051e+01;;-2.8375051e+01;;-2.8375051e+01;;-2.8375095e+01;;-2.8387235e+01;;-3.0950366e+01;;-3.9011896e+01;;-5.1189243e+01;;-6.8033399e+01;;-9.0673755e+01;;-1.2066984e+02;;-1.6005296e+02;;-2.1126617e+02;;-2.7739673e+02;;-3.6211987e+02;;-4.6950663e+02;;-6.0333421e+02;;-7.6773418e+02;;-9.6636941e+02;;-1.2012493e+03;;-1.4707282e+03;;-1.7656613e+03;;-2.0622818e+03;;-2.3148499e+03;;-2.5051229e+03;;-2.6592668e+03;;-2.8012309e+03;;-2.9491193e+03;;-3.1113992e+03;;-3.2835593e+03;;-3.4502361e+03;;-3.5947799e+03;;-3.7095072e+03;;-3.7977278e+03;;-3.8676562e+03;;-3.9266112e+03;;-3.9793656e+03;;-4.0285384e+03;;-4.0752941e+03;;-4.1202003e+03;;-4.1638510e+03;;-4.2062043e+03;;-4.2447669e+03;;-4.2745940e+03;;-4.2921871e+03;;-4.2990720e+03;;-4.2999281e+03;;-4.2989701e+03;;-4.3004758e+03;;-4.3094724e+03;;-4.3269301e+03;;-4.3458011e+03;;-4.3572713e+03;;-4.3605285e+03;;-4.3605285e+03
-2.8375051e+01;;-2.8375051e+01;;-2.8375051e+01;;-2.8375051e+01;;-2.8375051e+01;;-2.8375051e+01;;-2.8375051e+01;;-2.8375051e+01;;-2.8375051e+01;;-2.8375051e+01;;-2.8375051e+01;;-2.8375051e+01;;-2.8375051e+01;;-2.8375062e+01;;-2.8376950e+01;;-2.9206163e+01;;-3.5996487e+01;;-4.6875868e+01;;-6.2218891e+01;;-8.3022869e+01;;-1.1072010e+02;;-1.4720937e+02;;-1.9478908e+02;;-2.5638363e+02;;-3.3549065e+02;;-4.3617726e+02;;-5.6223007e+02;;-7.1774680e+02;;-9.0665606e+02;;-1.1315882e+03;;-1.3921843e+03;;-1.6817931e+03;;-1.9809739e+03;;-2.2467556e+03;;-2.4421158e+03;;-2.5940753e+03;;-2.7352912e+03;;-2.8876388e+03;;-3.0592247e+03;;-3.2426285e+03;;-3.4192083e+03;;-3.5707263e+03;;-3.6899037e+03;;-3.7810527e+03;;-3.8525270e+03;;-3.9114020e+03;;-3.9631524e+03;;-4.0117829e+03;;-4.0591032e+03;;-4.1053668e+03;;-4.1507815e+03;;-4.1949529e+03;;-4.2347244e+03;;-4.2648061e+03;;-4.2824827e+03;;-4.2907387e+03;;-4.2950983e+03;;-4.2990514e+03;;-4.3043319e+03;;-4.3121053e+03;;-4.3198485e+03;;-4.3203451e+03;;-4.3102956e+03;;-4.2987146e+03;;-4.2987146e+03
-2.8375051e+01;;-2.8375051e+01;;-2.8375051e+01;;-2.8375051e+01;;-2.8375051e+01;;-2.8375051e+01;;-2.8375051e+01;;-2.8375051e+01;;-2.8375051e+01;;-2.8375051e+01;;-2.8375051e+01;;-2.8375051e+01;;-2.8375051e+01;;-2.8375053e+01;;-2.8375414e+01;;-2.8570754e+01;;-3.4003830e+01;;-4.3884613e+01;;-5.8170581e+01;;-7.7708900e+01;;-1.0383492e+02;;-1.3832844e+02;;-1.8344616e+02;;-2.4197755e+02;;-3.1733047e+02;;-4.1344372e+02;;-5.3421922e+02;;-6.8370888e+02;;-8.6602591e+02;;-1.0842211e+03;;-1.3387919e+03;;-1.6247411e+03;;-1.9256773e+03;;-2.2029073e+03;;-2.4065521e+03;;-2.5602391e+03;;-2.7045363e+03;;-2.8625539e+03;;-3.0406805e+03;;-3.2298942e+03;;-3.4108673e+03;;-3.5652647e+03;;-3.6859098e+03;;-3.7771435e+03;;-3.8471878e+03;;-3.9032786e+03;;-3.9516976e+03;;-3.9974415e+03;;-4.0428071e+03;;-4.0879690e+03;;-4.1327651e+03;;-4.1763129e+03;;-4.2153100e+03;;-4.2451415e+03;;-4.2640048e+03;;-4.2750124e+03;;-4.2832671e+03;;-4.2917183e+03;;-4.2994385e+03;;-4.3002864e+03;;-4.2829836e+03;;-4.2397327e+03;;-4.1806227e+03;;-4.1361956e+03;;-4.1361956e+03
-2.8375051e+01;;-2.8375051e+01;;-2.8375051e+01;;-2.8375051e+01;;-2.8375051e+01;;-2.8375051e+01;;-2.8375051e+01;;-2.8375051e+01;;-2.8375051e+01;;-2.8375051e+01;;-2.8375051e+01;;-2.8375051e+01;;-2.8375051e+01;;-2.8375051e+01;;-2.8375099e+01;;-2.8426482e+01;;-3.2665615e+01;;-4.1863193e+01;;-5.5446957e+01;;-7.4155817e+01;;-9.9268462e+01;;-1.3251156e+02;;-1.7608354e+02;;-2.3271091e+02;;-3.0570843e+02;;-3.9904912e+02;;-5.1664803e+02;;-6.6257575e+02;;-8.4110378e+02;;-1.0556113e+03;;-1.3072317e+03;;-1.5921916e+03;;-1.8964797e+03;;-2.1856287e+03;;-2.4033440e+03;;-2.5642160e+03;;-2.7133364e+03;;-2.8739374e+03;;-3.0519635e+03;;-3.2393948e+03;;-3.4183975e+03;;-3.5710895e+03;;-3.6897381e+03;;-3.7781212e+03;;-3.8445274e+03;;-3.8966475e+03;;-3.9411590e+03;;-3.9833087e+03;;-4.0256201e+03;;-4.0683607e+03;;-4.1110761e+03;;-4.1525124e+03;;-4.1897619e+03;;-4.2194053e+03;;-4.2400925e+03;;-4.2534276e+03;;-4.2626528e+03;;-4.2707300e+03;;-4.2755837e+03;;-4.2621847e+03;;-4.2057683e+03;;-4.0972716e+03;;-3.9675148e+03;;-3.8775184e+03;;-3.8775184e+03
-2.8375051e+01;;-2.8375051e+01;;-2.8375051e+01;;-2.8375051e+01;;-2.8375051e+01;;-2.8375051e+01;;-2.8375051e+01;;-2.8375051e+01;;-2.8375051e+01;;-2.8375051e+01;;-2.8375051e+01;;-2.8375051e+01;;-2.8375051e+01;;-2.8375051e+01;;-2.8375057e+01;;-2.8393370e+01;;-3.1771469e+01;;-4.0513932e+01;;-5.3625083e+01;;-7.1780725e+01;;-9.6228215e+01;;-1.2866300e+02;;-1.7124918e+02;;-2.2670494e+02;;-2.9822889e+02;;-3.8982198e+02;;-5.0556267e+02;;-6.4944139e+02;;-8.2589875e+02;;-1.0385916e+03;;-1.2891697e+03;;-1.5748493e+03;;-1.8835841e+03;;-2.1846652e+03;;-2.4206181e+03;;-2.5928844e+03;;-2.7468287e+03;;-2.9058385e+03;;-3.0774515e+03;;-3.2570274e+03;;-3.4296632e+03;;-3.5779885e+03;;-3.6930540e+03;;-3.7777284e+03;;-3.8404576e+03;;-3.8891860e+03;;-3.9303977e+03;;-3.9692414e+03;;-4.0085377e+03;;-4.0486934e+03;;-4.0888887e+03;;-4.1277030e+03;;-4.1630739e+03;;-4.1928359e+03;;-4.2153963e+03;;-4.2296374e+03;;-4.2359834e+03;;-4.2381954e+03;;-4.2361212e+03;;-4.2087448e+03;;-4.1178031e+03;;-3.9517201e+03;;-3.7599730e+03;;-3.6300847e+03;;-3.6300847e+03
-2.8375051e+01;;-2.8375051e+01;;-2.8375051e+01;;-2.8375051e+01;;-2.8375051e+01;;-2.8375051e+01;;-2.8375051e+01;;-2.8375051e+01;;-2.8375051e+01;;-2.8375051e+01;;-2.8375051e+01;;-2.8375051e+01;;-2.8375051e+01;;-2.8375051e+01;;-2.8375053e+01;;-2.8381855e+01;;-3.0971306e+01;;-3.9272585e+01;;-5.1897523e+01;;-6.9466837e+01;;-9.3193482e+01;;-1.2473523e+02;;-1.6624131e+02;;-2.2030462e+02;;-2.9018805e+02;;-3.7974538e+02;;-4.9324313e+02;;-6.3463080e+02;;-8.0844070e+02;;-1.0185798e+03;;-1.2671789e+03;;-1.5524043e+03;;-1.8641243e+03;;-2.1754049e+03;;-2.4313823e+03;;-2.6182988e+03;;-2.7780551e+03;;-2.9342432e+03;;-3.0970723e+03;;-3.2668306e+03;;-3.4325378e+03;;-3.5773371e+03;;-3.6904507e+03;;-3.7733781e+03;;-3.8344344e+03;;-3.8813957e+03;;-3.9202551e+03;;-3.9562412e+03;;-3.9927670e+03;;-4.0303735e+03;;-4.0678648e+03;;-4.1039923e+03;;-4.1378105e+03;;-4.1680643e+03;;-4.1923493e+03;;-4.2068034e+03;;-4.2093592e+03;;-4.2050135e+03;;-4.1980991e+03;;-4.1686366e+03;;-4.0725782e+03;;-3.8940727e+03;;-3.6866154e+03;;-3.5454248e+03;;-3.5454248e+03
-2.8375051e+01;;-2.8375051e+01;;-2.8375051e+01;;-2.8375051e+01;;-2.8375051e+01;;-2.8375051e+01;;-2.8375051e+01;;-2.8375051e+01;;-2.8375051e+01;;-2.8375051e+01;;-2.8375051e+01;;-2.8375051e+01;;-2.8375051e+01;;-2.8375051e+01;;-2.8375052e+01;;-2.8376898e+01;;-3.0021994e+01;;-3.7715705e+01;;-4.9653668e+01;;-6.6386070e+01;;-8.9067055e+01;;-1.1928999e+02;;-1.5913401e+02;;-2.1111546e+02;;-2.7841433e+02;;-3.6483201e+02;;-4.7464206e+02;;-6.1185476e+02;;-7.8098507e+02;;-9.8617332e+02;;-1.2300369e+03;;-1.5117413e+03;;-1.8231718e+03;;-2.1413497e+03;;-2.4162937e+03;;-2.6185669e+03;;-2.7843345e+03;;-2.9384177e+03;;-3.0941001e+03;;-3.2567388e+03;;-3.4191090e+03;;-3.5644644e+03;;-3.6797669e+03;;-3.7646185e+03;;-3.8267461e+03;;-3.8736431e+03;;-3.9110259e+03;;-3.9443490e+03;;-3.9774650e+03;;-4.0110509e+03;;-4.0443135e+03;;-4.0773512e+03;;-4.1106161e+03;;-4.1427452e+03;;-4.1697210e+03;;-4.1859451e+03;;-4.1885244e+03;;-4.1833276e+03;;-4.1786629e+03;;-4.1618528e+03;;-4.0951937e+03;;-3.9602346e+03;;-3.7978285e+03;;-3.6866201e+03;;-3.6866201e+03
-2.8375051e+01;;-2.8375051e+01;;-2.8375051e+01;;-2.8375051e+01;;-2.8375051e+01;;-2.8375051e+01;;-2.8375051e+01;;-2.8375051e+01;;-2.8375051e+01;;-2.8375051e+01;;-2.8375051e+01;;-2.8375051e+01;;-2.8375051e+01;;-2.8375051e+01;;-2.8375051e+01;;-2.8375398e+01;;-2.9080830e+01;;-3.5871748e+01;;-4.6889501e+01;;-6.2541079e+01;;-8.3873960e+01;;-1.1238558e+02;;-1.5003107e+02;;-1.9927425e+02;;-2.6317867e+02;;-3.4535776e+02;;-4.5014225e+02;;-5.8158054e+02;;-7.4409498e+02;;-9.4202646e+02;;-1.1784615e+03;;-1.4535555e+03;;-1.7611904e+03;;-2.0822946e+03;;-2.3729759e+03;;-2.5884351e+03;;-2.7572474e+03;;-2.9089251e+03;;-3.0607789e+03;;-3.2218773e+03;;-3.3868468e+03;;-3.5381404e+03;;-3.6602862e+03;;-3.7506646e+03;;-3.8161161e+03;;-3.8642301e+03;;-3.9009329e+03;;-3.9313809e+03;;-3.9586029e+03;;-3.9832346e+03;;-4.0071467e+03;;-4.0351409e+03;;-4.0701982e+03;;-4.1086878e+03;;-4.1425545e+03;;-4.1648926e+03;;-4.1740159e+03;;-4.1761639e+03;;-4.1804806e+03;;-4.1821103e+03;;-4.1565540e+03;;-4.0872788e+03;;-3.9954238e+03;;-3.9298985e+03;;-3.9298985e+03
-2.8375051e+01;;-2.8375051e+01;;-2.8375051e+01;;-2.8375051e+01;;-2.8375051e+01;;-2.8375051e+01;;-2.8375051e+01;;-2.8375051e+01;;-2.8375051e+01;;-2.8375051e+01;;-2.8375051e+01;;-2.8375051e+01;;-2.8375051e+01;;-2.8375051e+01;;-2.8375051e+01;;-2.8375101e+01;;-2.8536799e+01;;-3.3883078e+01;;-4.3790675e+01;;-5.8192775e+01;;-7.7961681e+01;;-1.0447415e+02;;-1.3956651e+02;;-1.8557067e+02;;-2.4540324e+02;;-3.2251827e+02;;-4.2111720e+02;;-5.4540903e+02;;-6.9962492e+02;;-8.8823108e+02;;-1.1147321e+03;;-1.3802098e+03;;-1.6804705e+03;;-2.0003371e+03;;-2.3028809e+03;;-2.5313724e+03;;-2.7007243e+03;;-2.8493719e+03;;-3.0004019e+03;;-3.1651320e+03;;-3.3379498e+03;;-3.4995466e+03;;-3.6319680e+03;;-3.7302704e+03;;-3.8004155e+03;;-3.8506300e+03;;-3.8872943e+03;;-3.9141260e+03;;-3.9313823e+03;;-3.9392330e+03;;-3.9453382e+03;;-3.9643741e+03;;-4.0042249e+03;;-4.0564278e+03;;-4.1047846e+03;;-4.1395134e+03;;-4.1609705e+03;;-4.1758934e+03;;-4.1916186e+03;;-4.2072744e+03;;-4.2105778e+03;;-4.1910420e+03;;-4.1562971e+03;;-4.1292011e+03;;-4.1292011e+03
-2.8375051e+01;;-2.8375051e+01;;-2.8375051e+01;;-2.8375051e+01;;-2.8375051e+01;;-2.8375051e+01;;-2.8375051e+01;;-2.8375051e+01;;-2.8375051e+01;;-2.8375051e+01;;-2.8375051e+01;;-2.8375051e+01;;-2.8375051e+01;;-2.8375051e+01;;-2.8375051e+01;;-2.8375056e+01;;-2.8394036e+01;;-3.1763881e+01;;-4.0450661e+01;;-5.3462948e+01;;-7.1470968e+01;;-9.5719107e+01;;-1.2790376e+02;;-1.7022214e+02;;-2.2532245e+02;;-2.9653620e+02;;-3.8782855e+02;;-5.0352020e+02;;-6.4766305e+02;;-8.2471928e+02;;-1.0385437e+03;;-1.2910792e+03;;-1.5800199e+03;;-1.8941469e+03;;-2.2040618e+03;;-2.4508108e+03;;-2.6251642e+03;;-2.7737703e+03;;-2.9267114e+03;;-3.0972544e+03;;-3.2794963e+03;;-3.4527621e+03;;-3.5968367e+03;;-3.7042811e+03;;-3.7800056e+03;;-3.8328781e+03;;-3.8694966e+03;;-3.8914745e+03;;-3.8956456e+03;;-3.8818229e+03;;-3.8649210e+03;;-3.8719572e+03;;-3.9174413e+03;;-3.9876766e+03;;-4.0563515e+03;;-4.1084844e+03;;-4.1450432e+03;;-4.1733078e+03;;-4.1987043e+03;;-4.2210943e+03;;-4.2353309e+03;;-4.2373810e+03;;-4.2304366e+03;;-4.2233531e+03;;-4.2233531e+03
-2.8375051e+01;;-2.8375051e+01;;-2.8375051e+01;;-2.8375051e+01;;-2.8375051e+01;;-2.8375051e+01;;-2.8375051e+01;;-2.8375051e+01;;-2.8375051e+01;;-2.8375051e+01;;-2.8375051e+01;;-2.8375051e+01;;-2.8375051e+01;;-2.8375051e+01;;-2.8375051e+01;;-2.8375052e+01;;-2.8376441e+01;;-2.9731784e+01;;-3.7092095e+01;;-4.8585290e+01;;-6.4699756e+01;;-8.6529671e+01;;-1.1560654e+02;;-1.5394162e+02;;-2.0397188e+02;;-2.6878678e+02;;-3.5208321e+02;;-4.5816600e+02;;-5.9103602e+02;;-7.5500395e+02;;-9.5419983e+02;;-1.1913468e+03;;-1.4659173e+03;;-1.7704688e+03;;-2.0831945e+03;;-2.3546596e+03;;-2.5472857e+03;;-2.7037446e+03;;-2.8609659e+03;;-3.0353845e+03;;-3.2233065e+03;;-3.4050260e+03;;-3.5590789e+03;;-3.6754286e+03;;-3.7572989e+03;;-3.8133194e+03;;-3.8496290e+03;;-3.8663501e+03;;-3.8591029e+03;;-3.8289764e+03;;-3.7956876e+03;;-3.7933648e+03;;-3.8412624e+03;;-3.9239419e+03;;-4.0094109e+03;;-4.0776589e+03;;-4.1275030e+03;;-4.1657126e+03;;-4.1970925e+03;;-4.2216413e+03;;-4.2371407e+03;;-4.2435118e+03;;-4.2441049e+03;;-4.2431615e+03;;-4.2431615e+03
-2.8375051e+01;;-2.8375051e+01;;-2.8375051e+01;;-2.8375051e+01;;-2.8375051e+01;;-2.8375051e+01;;-2.8375051e+01;;-2.8375051e+01;;-2.8375051e+01;;-2.8375051e+01;;-2.8375051e+01;;-2.8375051e+01;;-2.8375051e+01;;-2.8375051e+01;;-2.8375051e+01;;-2.8375052e+01;;-2.8375226e+01;;-2.8602857e+01;;-3.4116997e+01;;-4.4014016e+01;;-5.8292035e+01;;-7.7813159e+01;;-1.0392878e+02;;-1.3846763e+02;;-1.8366347e+02;;-2.4237689e+02;;-3.1805336e+02;;-4.1479268e+02;;-5.3680027e+02;;-6.8816675e+02;;-8.7322588e+02;;-1.0954028e+03;;-1.3557510e+03;;-1.6501816e+03;;-1.9639548e+03;;-2.2614143e+03;;-2.4881292e+03;;-2.6611010e+03;;-2.8233126e+03;;-2.9966805e+03;;-3.1825232e+03;;-3.3644118e+03;;-3.5211600e+03;;-3.6415715e+03;;-3.7283260e+03;;-3.7892986e+03;;-3.8283293e+03;;-3.8439658e+03;;-3.8338825e+03;;-3.8027917e+03;;-3.7705096e+03;;-3.7679043e+03;;-3.8132334e+03;;-3.8947284e+03;;-3.9835961e+03;;-4.0585015e+03;;-4.1146012e+03;;-4.1567432e+03;;-4.1900169e+03;;-4.2151723e+03;;-4.2307508e+03;;-4.2375750e+03;;-4.2392975e+03;;-4.2393927e+03;;-4.2393927e+03
-2.8375051e+01;;-2.8375051e+01;;-2.8375051e+01;;-2.8375051e+01;;-2.8375051e+01;;-2.8375051e+01;;-2.8375051e+01;;-2.8375051e+01;;-2.8375051e+01;;-2.8375051e+01;;-2.8375051e+01;;-2.8375051e+01;;-2.8375051e+01;;-2.8375051e+01;;-2.8375051e+01;;-2.8375051e+01;;-2.8375136e+01;;-2.8404363e+01;;-3.1704007e+01;;-4.0234157e+01;;-5.2983988e+01;;-7.0594813e+01;;-9.4279352e+01;;-1.2569828e+02;;-1.6700731e+02;;-2.2080811e+02;;-2.9037999e+02;;-3.7963678e+02;;-4.9302492e+02;;-6.3462910e+02;;-8.0888945e+02;;-1.0198645e+03;;-1.2699316e+03;;-1.5576807e+03;;-1.8737713e+03;;-2.1927418e+03;;-2.4608503e+03;;-2.6555980e+03;;-2.8218758e+03;;-2.9898809e+03;;-3.1659594e+03;;-3.3359271e+03;;-3.4796747e+03;;-3.5900471e+03;;-3.6763217e+03;;-3.7476576e+03;;-3.8007677e+03;;-3.8276388e+03;;-3.8279427e+03;;-3.8117232e+03;;-3.7964965e+03;;-3.8029011e+03;;-3.8435377e+03;;-3.9127062e+03;;-3.9910845e+03;;-4.0603808e+03;;-4.1132139e+03;;-4.1523959e+03;;-4.1835425e+03;;-4.2084883e+03;;-4.2255905e+03;;-4.2343023e+03;;-4.2370875e+03;;-4.2374084e+03;;-4.2374084e+03
-2.8375051e+01;;-2.8375051e+01;;-2.8375051e+01;;-2.8375051e+01;;-2.8375051e+01;;-2.8375051e+01;;-2.8375051e+01;;-2.8375051e+01;;-2.8375051e+01;;-2.8375051e+01;;-2.8375051e+01;;-2.8375051e+01;;-2.8375051e+01;;-2.8375051e+01;;-2.8375051e+01;;-2.8375051e+01;;-2.8375097e+01;;-2.8383063e+01;;-3.0034185e+01;;-3.7537252e+01;;-4.9146233e+01;;-6.5374290e+01;;-8.7341808e+01;;-1.1661448e+02;;-1.5524764e+02;;-2.0573863e+02;;-2.7125988e+02;;-3.5561980e+02;;-4.6332950e+02;;-5.9886283e+02;;-7.6663667e+02;;-9.7119399e+02;;-1.2158763e+03;;-1.5010574e+03;;-1.8207138e+03;;-2.1554287e+03;;-2.4591764e+03;;-2.6777507e+03;;-2.8483994e+03;;-3.0114505e+03;;-3.1743597e+03;;-3.3201705e+03;;-3.4297710e+03;;-3.5090238e+03;;-3.5865336e+03;;-3.6767212e+03;;-3.7616798e+03;;-3.8168830e+03;;-3.8393028e+03;;-3.8446508e+03;;-3.8503313e+03;;-3.8686591e+03;;-3.9065416e+03;;-3.9624363e+03;;-4.0255589e+03;;-4.0823511e+03;;-4.1254946e+03;;-4.1570365e+03;;-4.1830955e+03;;-4.2065039e+03;;-4.2253228e+03;;-4.2369164e+03;;-4.2415975e+03;;-4.2424701e+03;;-4.2424701e+03
-2.8375051e+01;;-2.8375051e+01;;-2.8375051e+01;;-2.8375051e+01;;-2.8375051e+01;;-2.8375051e+01;;-2.8375051e+01;;-2.8375051e+01;;-2.8375051e+01;;-2.8375051e+01;;-2.8375051e+01;;-2.8375051e+01;;-2.8375051e+01;;-2.8375051e+01;;-2.8375051e+01;;-2.8375051e+01;;-2.8375069e+01;;-2.8377762e+01;;-2.9099002e+01;;-3.5714328e+01;;-4.6461938e+01;;-6.1712789e+01;;-8.2499034e+01;;-1.1031724e+02;;-1.4715895e+02;;-1.9545812e+02;;-2.5832312e+02;;-3.3950754e+02;;-4.4349902e+02;;-5.7513451e+02;;-7.3885910e+02;;-9.3947260e+02;;-1.1809410e+03;;-1.4647502e+03;;-1.7869274e+03;;-2.1319861e+03;;-2.4608833e+03;;-2.7050501e+03;;-2.8845285e+03;;-3.0480537e+03;;-3.2002519e+03;;-3.3168496e+03;;-3.3794960e+03;;-3.4142734e+03;;-3.4778387e+03;;-3.5914241e+03;;-3.7181390e+03;;-3.8103840e+03;;-3.8577978e+03;;-3.8812339e+03;;-3.9018867e+03;;-3.9296675e+03;;-3.9680345e+03;;-4.0161570e+03;;-4.0675292e+03;;-4.1126676e+03;;-4.1460743e+03;;-4.1700047e+03;;-4.1906882e+03;;-4.2116031e+03;;-4.2309774e+03;;-4.2448134e+03;;-4.2514617e+03;;-4.2531942e+03;;-4.2531942e+03
-2.8375051e+01;;-2.8375051e+01;;-2.8375051e+01;;-2.8375051e+01;;-2.8375051e+01;;-2.8375051e+01;;-2.8375051e+01;;-2.8375051e+01;;-2.8375051e+01;;-2.8375051e+01;;-2.8375051e+01;;-2.8375051e+01;;-2.8375051e+01;;-2.8375052e+01;;-2.8375060e+01;;-2.8375095e+01;;-2.8375202e+01;;-2.8376146e+01;;-2.8639682e+01;;-3.4234897e+01;;-4.4192904e+01;;-5.8575447e+01;;-7.8302811e+01;;-1.0482628e+02;;-1.3999619e+02;;-1.8625445e+02;;-2.4660717e+02;;-3.2472621e+02;;-4.2502256e+02;;-5.5250893e+02;;-7.1171114e+02;;-9.0750144e+02;;-1.1442591e+03;;-1.4242764e+03;;-1.7451655e+03;;-2.0946351e+03;;-2.4398116e+03;;-2.7120341e+03;;-2.9077973e+03;;-3.0796467e+03;;-3.2296575e+03;;-3.3269039e+03;;-3.3541124e+03;;-3.3547331e+03;;-3.4071158e+03;;-3.5365367e+03;;-3.6918695e+03;;-3.8087533e+03;;-3.8706059e+03;;-3.9023784e+03;;-3.9307144e+03;;-3.9660181e+03;;-4.0083554e+03;;-4.0546620e+03;;-4.1000627e+03;;-4.1385321e+03;;-4.1666619e+03;;-4.1866935e+03;;-4.2042679e+03;;-4.2230898e+03;;-4.2419891e+03;;-4.2567126e+03;;-4.2645280e+03;;-4.2669093e+03;;-4.2669093e+03
-2.8375051e+01;;-2.8375051e+01;;-2.8375051e+01;;-2.8375051e+01;;-2.8375051e+01;;-2.8375051e+01;;-2.8375051e+01;;-2.8375051e+01;;-2.8375051e+01;;-2.8375051e+01;;-2.8375051e+01;;-2.8375051e+01;;-2.8375055e+01;;-2.8375180e+01;;-2.8376188e+01;;-2.8380171e+01;;-2.8389631e+01;;-2.8404464e+01;;-2.8493966e+01;;-3.2747952e+01;;-4.1826880e+01;;-5.5220832e+01;;-7.3706656e+01;;-9.8644074e+01;;-1.3179093e+02;;-1.7548226e+02;;-2.3260068e+02;;-3.0667810e+02;;-4.0196372e+02;;-5.2344579e+02;;-6.7575555e+02;;-8.6367096e+02;;-1.0918258e+03;;-1.3631562e+03;;-1.6766697e+03;;-2.0230152e+03;;-2.3753746e+03;;-2.6735659e+03;;-2.8906175e+03;;-3.0784080e+03;;-3.2411179e+03;;-3.3449702e+03;;-3.3725248e+03;;-3.3709170e+03;;-3.4209624e+03;;-3.5477692e+03;;-3.6998533e+03;;-3.8123867e+03;;-3.8686054e+03;;-3.8967281e+03;;-3.9285284e+03;;-3.9738056e+03;;-4.0255778e+03;;-4.0754886e+03;;-4.1198498e+03;;-4.1565714e+03;;-4.1840675e+03;;-4.2039267e+03;;-4.2208031e+03;;-4.2383882e+03;;-4.2561560e+03;;-4.2702593e+03;;-4.2778478e+03;;-4.2801545e+03;;-4.2801545e+03
-2.8375051e+01;;-2.8375051e+01;;-2.8375051e+01;;-2.8375051e+01;;-2.8375051e+01;;-2.8375051e+01;;-2.8375051e+01;;-2.8375051e+01;;-2.8375051e+01;;-2.8375051e+01;;-2.8375051e+01;;-2.8375052e+01;;-2.8375133e+01;;-2.8376813e+01;;-2.8388724e+01;;-2.8433205e+01;;-2.8536023e+01;;-2.8706203e+01;;-2.9028806e+01;;-3.1469215e+01;;-3.9440359e+01;;-5.1605825e+01;;-6.8564102e+01;;-9.1548054e+01;;-1.2218230e+02;;-1.6264717e+02;;-2.1564518e+02;;-2.8450073e+02;;-3.7323277e+02;;-4.8659673e+02;;-6.2931828e+02;;-8.0593762e+02;;-1.0211537e+03;;-1.2783516e+03;;-1.5776731e+03;;-1.9123055e+03;;-2.2609295e+03;;-2.5741028e+03;;-2.8088929e+03;;-3.0163726e+03;;-3.2098277e+03;;-3.3531545e+03;;-3.4206533e+03;;-3.4476037e+03;;-3.5027322e+03;;-3.6111659e+03;;-3.7345836e+03;;-3.8207784e+03;;-3.8566827e+03;;-3.8728833e+03;;-3.9060325e+03;;-3.9642375e+03;;-4.0303153e+03;;-4.0879654e+03;;-4.1344046e+03;;-4.1719779e+03;;-4.2009046e+03;;-4.2219706e+03;;-4.2388345e+03;;-4.2549896e+03;;-4.2704132e+03;;-4.2821698e+03;;-4.2881956e+03;;-4.2898637e+03;;-4.2898637e+03
-2.8375051e+01;;-2.8375051e+01;;-2.8375051e+01;;-2.8375051e+01;;-2.8375051e+01;;-2.8375051e+01;;-2.8375051e+01;;-2.8375051e+01;;-2.8375051e+01;;-2.8375051e+01;;-2.8375052e+01;;-2.8375060e+01;;-2.8375774e+01;;-2.8386654e+01;;-2.8455493e+01;;-2.8699179e+01;;-2.9278070e+01;;-3.0535385e+01;;-3.2454791e+01;;-3.3930650e+01;;-3.8463615e+01;;-4.8598004e+01;;-6.3624000e+01;;-8.4302978e+01;;-1.1209299e+02;;-1.4894268e+02;;-1.9733071e+02;;-2.6032614e+02;;-3.4165909e+02;;-4.4577590e+02;;-5.7739756e+02;;-7.4078449e+02;;-9.4051207e+02;;-1.1802128e+03;;-1.4608439e+03;;-1.7775680e+03;;-2.1134798e+03;;-2.4281569e+03;;-2.6709056e+03;;-2.8959242e+03;;-3.1316134e+03;;-3.3365464e+03;;-3.4662677e+03;;-3.5330594e+03;;-3.5933372e+03;;-3.6795855e+03;;-3.7736405e+03;;-3.8373493e+03;;-3.8580007e+03;;-3.8646608e+03;;-3.8974092e+03;;-3.9642272e+03;;-4.0406487e+03;;-4.1039306e+03;;-4.1515161e+03;;-4.1892357e+03;;-4.2190048e+03;;-4.2409592e+03;;-4.2574489e+03;;-4.2711962e+03;;-4.2826795e+03;;-4.2907264e+03;;-4.2948276e+03;;-4.2961371e+03;;-4.2961371e+03
-2.8375051e+01;;-2.8375051e+01;;-2.8375051e+01;;-2.8375051e+01;;-2.8375051e+01;;-2.8375051e+01;;-2.8375051e+01;;-2.8375051e+01;;-2.8375051e+01;;-2.8375052e+01;;-2.8375098e+01;;-2.8375529e+01;;-2.8380461e+01;;-2.8427640e+01;;-2.8686157e+01;;-2.9566333e+01;;-3.1649246e+01;;-3.4941225e+01;;-3.8299677e+01;;-4.0327990e+01;;-4.2200355e+01;;-4.8441373e+01;;-6.0540959e+01;;-7.8482763e+01;;-1.0323654e+02;;-1.3645306e+02;;-1.8035248e+02;;-2.3773631e+02;;-3.1203909e+02;;-4.0738433e+02;;-5.2846690e+02;;-6.7937475e+02;;-8.6444297e+02;;-1.0874772e+03;;-1.3500856e+03;;-1.6490500e+03;;-1.9710942e+03;;-2.2830673e+03;;-2.5309180e+03;;-2.7693725e+03;;-3.0434161e+03;;-3.3068728e+03;;-3.4950520e+03;;-3.5943629e+03;;-3.6547610e+03;;-3.7241421e+03;;-3.8054126e+03;;-3.8686840e+03;;-3.8948054e+03;;-3.9043481e+03;;-3.9354135e+03;;-3.9983767e+03;;-4.0706734e+03;;-4.1297025e+03;;-4.1730078e+03;;-4.2075835e+03;;-4.2363306e+03;;-4.2586731e+03;;-4.2748839e+03;;-4.2861050e+03;;-4.2933730e+03;;-4.2978758e+03;;-4.3008111e+03;;-4.3024957e+03;;-4.3024957e+03
-2.8375051e+01;;-2.8375051e+01;;-2.8375051e+01;;-2.8375051e+01;;-2.8375051e+01;;-2.8375051e+01;;-2.8375051e+01;;-2.8375051e+01;;-2.8375051e+01;;-2.8375055e+01;;-2.8375564e+01;;-2.8380133e+01;;-2.8408334e+01;;-2.8571750e+01;;-2.9337538e+01;;-3.1770415e+01;;-3.5957002e+01;;-4.1090429e+01;;-4.5887108e+01;;-4.8682720e+01;;-5.0245051e+01;;-5.4648838e+01;;-6.3096905e+01;;-7.6695863e+01;;-9.7633912e+01;;-1.2710189e+02;;-1.6690128e+02;;-2.1950169e+02;;-2.8804618e+02;;-3.7637885e+02;;-4.8905170e+02;;-6.3041237e+02;;-8.0448592e+02;;-1.0153417e+03;;-1.2653444e+03;;-1.5529513e+03;;-1.8684557e+03;;-2.1856752e+03;;-2.4526570e+03;;-2.7037804e+03;;-2.9983884e+03;;-3.2938867e+03;;-3.5171972e+03;;-3.6363996e+03;;-3.6957014e+03;;-3.7564971e+03;;-3.8382827e+03;;-3.9159760e+03;;-3.9624780e+03;;-3.9854012e+03;;-4.0144477e+03;;-4.0626108e+03;;-4.1170074e+03;;-4.1619587e+03;;-4.1957015e+03;;-4.2242776e+03;;-4.2506064e+03;;-4.2731974e+03;;-4.2898397e+03;;-4.2998239e+03;;-4.3045618e+03;;-4.3069319e+03;;-4.3091287e+03;;-4.3109428e+03;;-4.3109428e+03
-2.8375051e+01;;-2.8375051e+01;;-2.8375051e+01;;-2.8375051e+01;;-2.8375051e+01;;-2.8375051e+01;;-2.8375051e+01;;-2.8375051e+01;;-2.8375051e+01;;-2.8375073e+01;;-2.8377770e+01;;-2.8401987e+01;;-2.8521914e+01;;-2.9028885e+01;;-3.1155309e+01;;-3.5639863e+01;;-4.1677790e+01;;-4.8511309e+01;;-5.4765243e+01;;-5.8318494e+01;;-6.0078695e+01;;-6.4171482e+01;;-7.1862684e+01;;-8.2360417e+01;;-9.6860901e+01;;-1.2133837e+02;;-1.5693462e+02;;-2.0535236e+02;;-2.6926889e+02;;-3.5222248e+02;;-4.5856871e+02;;-5.9312611e+02;;-7.5983165e+02;;-9.6303600e+02;;-1.2060506e+03;;-1.4891549e+03;;-1.8062537e+03;;-2.1382820e+03;;-2.4435617e+03;;-2.7120860e+03;;-3.0073350e+03;;-3.3045489e+03;;-3.5385757e+03;;-3.6727561e+03;;-3.7402722e+03;;-3.8019190e+03;;-3.8851008e+03;;-3.9716316e+03;;-4.0335606e+03;;-4.0685449e+03;;-4.0953418e+03;;-4.1270974e+03;;-4.1613022e+03;;-4.1909181e+03;;-4.2152439e+03;;-4.2385423e+03;;-4.2629766e+03;;-4.2860136e+03;;-4.3034269e+03;;-4.3131784e+03;;-4.3166340e+03;;-4.3169115e+03;;-4.3165423e+03;;-4.3164209e+03;;-4.3164209e+03
-2.8375051e+01;;-2.8375051e+01;;-2.8375051e+01;;-2.8375051e+01;;-2.8375051e+01;;-2.8375051e+01;;-2.8375051e+01;;-2.8375051e+01;;-2.8375051e+01;;-2.8375125e+01;;-2.8384139e+01;;-2.8465807e+01;;-2.8844736e+01;;-3.0360763e+01;;-3.4481601e+01;;-4.0618528e+01;;-4.8230955e+01;;-5.6490438e+01;;-6.4016099e+01;;-6.8328783e+01;;-7.0306984e+01;;-7.4188081e+01;;-8.1157939e+01;;-9.0075129e+01;;-1.0012593e+02;;-1.1681195e+02;;-1.4755689e+02;;-1.9164576e+02;;-2.5096919e+02;;-3.2868445e+02;;-4.2890453e+02;;-5.5658026e+02;;-7.1617935e+02;;-9.1202896e+02;;-1.1483361e+03;;-1.4270730e+03;;-1.7454259e+03;;-2.0908960e+03;;-2.4332864e+03;;-2.7304859e+03;;-3.0174102e+03;;-3.3010903e+03;;-3.5369322e+03;;-3.6923710e+03;;-3.7845630e+03;;-3.8588662e+03;;-3.9411124e+03;;-4.0227934e+03;;-4.0847076e+03;;-4.1224325e+03;;-4.1464441e+03;;-4.1675907e+03;;-4.1892135e+03;;-4.2101113e+03;;-4.2304242e+03;;-4.2526227e+03;;-4.2773691e+03;;-4.3009490e+03;;-4.3180449e+03;;-4.3260891e+03;;-4.3262177e+03;;-4.3213328e+03;;-4.3148304e+03;;-4.3103033e+03;;-4.3103033e+03
-2.8375051e+01;;-2.8375051e+01;;-2.8375051e+01;;-2.8375051e+01;;-2.8375051e+01;;-2.8375051e+01;;-2.8375051e+01;;-2.8375051e+01;;-2.8375054e+01;;-2.8375341e+01;;-2.8397675e+01;;-2.8600353e+01;;-2.9611096e+01;;-3.2962130e+01;;-3.8617626e+01;;-4.6023336e+01;;-5.4807679e+01;;-6.4026281e+01;;-7.2297376e+01;;-7.7036929e+01;;-7.9181184e+01;;-8.2469867e+01;;-8.7766583e+01;;-9.4004445e+01;;-1.0083797e+02;;-1.1100946e+02;;-1.3593755e+02;;-1.7477542e+02;;-2.2834575e+02;;-2.9925627e+02;;-3.9126771e+02;;-5.0909387e+02;;-6.5775540e+02;;-8.4144909e+02;;-1.0648526e+03;;-1.3312403e+03;;-1.6403834e+03;;-1.9848292e+03;;-2.3429443e+03;;-2.6705414e+03;;-2.9559977e+03;;-3.2282776e+03;;-3.4691150e+03;;-3.6538010e+03;;-3.7856759e+03;;-3.8884263e+03;;-3.9783914e+03;;-4.0547102e+03;;-4.1104160e+03;;-4.1454744e+03;;-4.1673914e+03;;-4.1848124e+03;;-4.2027537e+03;;-4.2224946e+03;;-4.2445164e+03;;-4.2695843e+03;;-4.2962799e+03;;-4.3195785e+03;;-4.3337769e+03;;-4.3364875e+03;;-4.3293000e+03;;-4.3161455e+03;;-4.3023593e+03;;-4.2936084e+03;;-4.2936084e+03
-2.8375051e+01;;-2.8375051e+01;;-2.8375051e+01;;-2.8375051e+01;;-2.8375051e+01;;-2.8375051e+01;;-2.8375051e+01;;-2.8375052e+01;;-2.8375137e+01;;-2.8377150e+01;;-2.8428214e+01;;-2.8890261e+01;;-3.1416864e+01;;-3.6540132e+01;;-4.3494514e+01;;-5.1902136e+01;;-6.1119012e+01;;-7.0215627e+01;;-7.7612040e+01;;-8.1717708e+01;;-8.3839228e+01;;-8.6247836e+01;;-8.9397014e+01;;-9.2695839e+01;;-9.6837443e+01;;-1.0388011e+02;;-1.2192198e+02;;-1.5466800e+02;;-2.0119756e+02;;-2.6346809e+02;;-3.4475176e+02;;-4.4927816e+02;;-5.8206217e+02;;-7.4727690e+02;;-9.4943495e+02;;-1.1924987e+03;;-1.4779286e+03;;-1.8019407e+03;;-2.1502891e+03;;-2.4903102e+03;;-2.7842665e+03;;-3.0519797e+03;;-3.2990086e+03;;-3.5130273e+03;;-3.6923175e+03;;-3.8424265e+03;;-3.9643865e+03;;-4.0552612e+03;;-4.1156584e+03;;-4.1524376e+03;;-4.1755472e+03;;-4.1938905e+03;;-4.2128221e+03;;-4.2343132e+03;;-4.2590507e+03;;-4.2869352e+03;;-4.3150686e+03;;-4.3371258e+03;;-4.3468145e+03;;-4.3423152e+03;;-4.3271785e+03;;-4.3079715e+03;;-4.2915534e+03;;-4.2825417e+03;;-4.2825417e+03
-2.8375051e+01;;-2.8375051e+01;;-2.8375051e+01;;-2.8375051e+01;;-2.8375051e+01;;-2.8375051e+01;;-2.8375051e+01;;-2.8375057e+01;;-2.8375783e+01;;-2.8387265e+01;;-2.8522392e+01;;-2.9939575e+01;;-3.4497232e+01;;-4.1121773e+01;;-4.9363017e+01;;-5.8579057e+01;;-6.7786804e+01;;-7.5332846e+01;;-8.0032087e+01;;-8.2564137e+01;;-8.4062084e+01;;-8.5424706e+01;;-8.6685406e+01;;-8.7812040e+01;;-9.0179905e+01;;-9.5960563e+01;;-1.0808927e+02;;-1.3412979e+02;;-1.7292740e+02;;-2.2573620e+02;;-2.9519658e+02;;-3.8492078e+02;;-4.9933761e+02;;-6.4264174e+02;;-8.1874904e+02;;-1.0317121e+03;;-1.2838566e+03;;-1.5737867e+03;;-1.8927268e+03;;-2.2186857e+03;;-2.5159766e+03;;-2.7821647e+03;;-3.0326964e+03;;-3.2707430e+03;;-3.4987354e+03;;-3.7113033e+03;;-3.8914129e+03;;-4.0237027e+03;;-4.1076797e+03;;-4.1561538e+03;;-4.1850269e+03;;-4.2060161e+03;;-4.2250680e+03;;-4.2446186e+03;;-4.2666890e+03;;-4.2929308e+03;;-4.3212514e+03;;-4.3439949e+03;;-4.3525859e+03;;-4.3450174e+03;;-4.3277041e+03;;-4.3101459e+03;;-4.2987315e+03;;-4.2941352e+03;;-4.2941352e+03
-2.8375051e+01;;-2.8375051e+01;;-2.8375051e+01;;-2.8375051e+01;;-2.8375051e+01;;-2.8375052e+01;;-2.8375064e+01;;-2.8375180e+01;;-2.8378825e+01;;-2.8423278e+01;;-2.8920228e+01;;-3.2432581e+01;;-3.8534140e+01;;-4.6532027e+01;;-5.5996400e+01;;-6.6046594e+01;;-7.5122832e+01;;-7.9900279e+01;;-8.0976673e+01;;-8.1226018e+01;;-8.1588809e+01;;-8.2006877e+01;;-8.2104616e+01;;-8.2089252e+01;;-8.3596397e+01;;-8.8741907e+01;;-9.7915223e+01;;-1.1579707e+02;;-1.4657592e+02;;-1.8998067e+02;;-2.4780886e+02;;-3.2295483e+02;;-4.1913901e+02;;-5.4035118e+02;;-6.8987815e+02;;-8.7149209e+02;;-1.0878868e+03;;-1.3391497e+03;;-1.6202615e+03;;-1.9171391e+03;;-2.2043814e+03;;-2.4694920e+03;;-2.7254397e+03;;-2.9873619e+03;;-3.2628843e+03;;-3.5404928e+03;;-3.7884500e+03;;-3.9760882e+03;;-4.0958851e+03;;-4.1635170e+03;;-4.2007360e+03;;-4.2227146e+03;;-4.2365735e+03;;-4.2463594e+03;;-4.2577890e+03;;-4.2775089e+03;;-4.3064929e+03;;-4.3354715e+03;;-4.3512945e+03;;-4.3496253e+03;;-4.3385909e+03;;-4.3294592e+03;;-4.3268681e+03;;-4.3278515e+03;;-4.3278515e+03
-2.8375051e+01;;-2.8375051e+01;;-2.8375051e+01;;-2.8375051e+01;;-2.8375055e+01;;-2.8375226e+01;;-2.8376667e+01;;-2.8382759e+01;;-2.8407785e+01;;-2.8561187e+01;;-3.0365020e+01;;-3.5585143e+01;;-4.2979255e+01;;-5.2206168e+01;;-6.2714523e+01;;-7.3490292e+01;;-8.2236313e+01;;-8.3985572e+01;;-8.1725877e+01;;-7.9644986e+01;;-7.8842811e+01;;-7.8772501e+01;;-7.8651423e+01;;-7.8500272e+01;;-7.9678611e+01;;-8.4011017e+01;;-9.1741898e+01;;-1.0272260e+02;;-1.2459212e+02;;-1.5874105e+02;;-2.0567347e+02;;-2.6740082e+02;;-3.4685661e+02;;-4.4764641e+02;;-5.7270148e+02;;-7.2525282e+02;;-9.0817337e+02;;-1.1226118e+03;;-1.3664134e+03;;-1.6318228e+03;;-1.9045849e+03;;-2.1758545e+03;;-2.4537224e+03;;-2.7513436e+03;;-3.0735376e+03;;-3.4035464e+03;;-3.7047593e+03;;-3.9389585e+03;;-4.0917235e+03;;-4.1776573e+03;;-4.2210916e+03;;-4.2398256e+03;;-4.2433335e+03;;-4.2390927e+03;;-4.2377113e+03;;-4.2508974e+03;;-4.2823523e+03;;-4.3212296e+03;;-4.3497529e+03;;-4.3599334e+03;;-4.3591683e+03;;-4.3588566e+03;;-4.3626120e+03;;-4.3666295e+03;;-4.3666295e+03
-2.8375051e+01;;-2.8375051e+01;;-2.8375053e+01;;-2.8375091e+01;;-2.8375392e+01;;-2.8378092e+01;;-2.8394664e+01;;-2.8457409e+01;;-2.8665836e+01;;-2.9372111e+01;;-3.2412742e+01;;-3.8481507e+01;;-4.6678177e+01;;-5.6701069e+01;;-6.7834472e+01;;-7.8897674e+01;;-8.6799749e+01;;-8.6596949e+01;;-8.2796912e+01;;-7.9530064e+01;;-7.8193395e+01;;-7.8283321e+01;;-7.8778755e+01;;-7.9252281e+01;;-8.0372224e+01;;-8.3490163e+01;;-8.9379823e+01;;-9.7782571e+01;;-1.0980868e+02;;-1.3457956e+02;;-1.7177208e+02;;-2.2214358e+02;;-2.8777772e+02;;-3.7160574e+02;;-4.7667645e+02;;-6.0565497e+02;;-7.6163335e+02;;-9.4684290e+02;;-1.1618339e+03;;-1.4046513e+03;;-1.6716123e+03;;-1.9633620e+03;;-2.2843992e+03;;-2.6315651e+03;;-2.9940954e+03;;-3.3528105e+03;;-3.6769677e+03;;-3.9321244e+03;;-4.1015629e+03;;-4.1961385e+03;;-4.2395137e+03;;-4.2519239e+03;;-4.2468501e+03;;-4.2354026e+03;;-4.2298675e+03;;-4.2420677e+03;;-4.2755017e+03;;-4.3193074e+03;;-4.3551446e+03;;-4.3733667e+03;;-4.3793482e+03;;-4.3832492e+03;;-4.3886803e+03;;-4.3929180e+03;;-4.3929180e+03
-2.8375052e+01;;-2.8375052e+01;;-2.8375203e+01;;-2.8376919e+01;;-2.8385875e+01;;-2.8420439e+01;;-2.8546228e+01;;-2.9161887e+01;;-3.1215820e+01;;-3.3262702e+01;;-3.5577336e+01;;-4.0739163e+01;;-4.8561588e+01;;-5.8341606e+01;;-6.9118051e+01;;-7.9447592e+01;;-8.6201264e+01;;-8.6649505e+01;;-8.3941029e+01;;-8.1426560e+01;;-8.0633079e+01;;-8.1420023e+01;;-8.2851049e+01;;-8.4172734e+01;;-8.5456465e+01;;-8.7631323e+01;;-9.1784788e+01;;-9.8442596e+01;;-1.0718477e+02;;-1.2003677e+02;;-1.4825853e+02;;-1.8973643e+02;;-2.4528197e+02;;-3.1712601e+02;;-4.0837937e+02;;-5.2203869e+02;;-6.6156917e+02;;-8.3105231e+02;;-1.0348358e+03;;-1.2776765e+03;;-1.5639210e+03;;-1.8945429e+03;;-2.2625096e+03;;-2.6504401e+03;;-3.0339276e+03;;-3.3912993e+03;;-3.7046867e+03;;-3.9513115e+03;;-4.1161167e+03;;-4.2065064e+03;;-4.2451322e+03;;-4.2549827e+03;;-4.2529375e+03;;-4.2500411e+03;;-4.2538861e+03;;-4.2703144e+03;;-4.3004716e+03;;-4.3365077e+03;;-4.3654293e+03;;-4.3804479e+03;;-4.3860208e+03;;-4.3902889e+03;;-4.3959737e+03;;-4.4003229e+03;;-4.4003229e+03
-2.8375063e+01;;-2.8375063e+01;;-2.8376544e+01;;-2.8392213e+01;;-2.8469178e+01;;-2.8727184e+01;;-2.9838968e+01;;-3.3031374e+01;;-3.6895156e+01;;-3.9773351e+01;;-4.1718512e+01;;-4.5070584e+01;;-5.0725395e+01;;-5.8570834e+01;;-6.7428351e+01;;-7.5767974e+01;;-8.1912384e+01;;-8.4814606e+01;;-8.5227078e+01;;-8.4925028e+01;;-8.5391598e+01;;-8.7023053e+01;;-8.9298365e+01;;-9.1406273e+01;;-9.3007322e+01;;-9.4673110e+01;;-9.7594081e+01;;-1.0269331e+02;;-1.0971017e+02;;-1.1801986e+02;;-1.4100365e+02;;-1.7949098e+02;;-2.3290006e+02;;-3.0332416e+02;;-3.9424659e+02;;-5.1017787e+02;;-6.5594792e+02;;-8.3620577e+02;;-1.0562707e+03;;-1.3207339e+03;;-1.6321439e+03;;-1.9887010e+03;;-2.3803238e+03;;-2.7829856e+03;;-3.1577013e+03;;-3.4815916e+03;;-3.7555148e+03;;-3.9692496e+03;;-4.1118207e+03;;-4.1911925e+03;;-4.2298086e+03;;-4.2501348e+03;;-4.2667312e+03;;-4.2848491e+03;;-4.3039651e+03;;-4.3232257e+03;;-4.3423709e+03;;-4.3586362e+03;;-4.3675880e+03;;-4.3692048e+03;;-4.3698958e+03;;-4.3756743e+03;;-4.3854864e+03;;-4.3929878e+03;;-4.3929878e+03
-2.8375113e+01;;-2.8375113e+01;;-2.8382091e+01;;-2.8454099e+01;;-2.8812412e+01;;-3.0290883e+01;;-3.4091911e+01;;-3.9313395e+01;;-4.4695212e+01;;-4.8316882e+01;;-4.9972255e+01;;-5.2262407e+01;;-5.5851711e+01;;-6.0467670e+01;;-6.5789516e+01;;-7.1877987e+01;;-7.8168865e+01;;-8.3594435e+01;;-8.7247753e+01;;-8.9325973e+01;;-9.1055473e+01;;-9.3322785e+01;;-9.6125032e+01;;-9.8791368e+01;;-1.0070015e+02;;-1.0210726e+02;;-1.0417062e+02;;-1.0782769e+02;;-1.1282673e+02;;-1.2582257e+02;;-1.5735104e+02;;-2.0320387e+02;;-2.6462216e+02;;-3.4458377e+02;;-4.4717386e+02;;-5.7741352e+02;;-7.4018472e+02;;-9.4076748e+02;;-1.1844847e+03;;-1.4753585e+03;;-1.8143685e+03;;-2.1962456e+03;;-2.6036301e+03;;-2.9980862e+03;;-3.3259114e+03;;-3.5846151e+03;;-3.7961097e+03;;-3.9599486e+03;;-4.0734842e+03;;-4.1478974e+03;;-4.2014179e+03;;-4.2474445e+03;;-4.2905860e+03;;-4.3284054e+03;;-4.3560275e+03;;-4.3708128e+03;;-4.3732363e+03;;-4.3648539e+03;;-4.3489902e+03;;-4.3339880e+03;;-4.3308129e+03;;-4.3435806e+03;;-4.3642209e+03;;-4.3791064e+03;;-4.3791064e+03
-2.8375419e+01;;-2.8375419e+01;;-2.8397298e+01;;-2.8623082e+01;;-3.0128576e+01;;-3.4346001e+01;;-4.0354761e+01;;-4.7438046e+01;;-5.4363820e+01;;-5.8639981e+01;;-5.9642064e+01;;-6.0550247e+01;;-6.2058908e+01;;-6.3829818e+01;;-6.6645326e+01;;-7.1449055e+01;;-7.7988161e+01;;-8.4816465e+01;;-9.0290094e+01;;-9.3851771e+01;;-9.6264172e+01;;-9.8617394e+01;;-1.0144501e+02;;-1.0434894e+02;;-1.0649881e+02;;-1.0785189e+02;;-1.0943245e+02;;-1.1195697e+02;;-1.1921416e+02;;-1.4604329e+02;;-1.8719294e+02;;-2.4324673e+02;;-3.1675649e+02;;-4.1145993e+02;;-5.3208250e+02;;-6.8368179e+02;;-8.7149363e+02;;-1.1011792e+03;;-1.3776265e+03;;-1.7034828e+03;;-2.0765018e+03;;-2.4847749e+03;;-2.8972553e+03;;-3.2491719e+03;;-3.4954922e+03;;-3.6729908e+03;;-3.8125205e+03;;-3.9247131e+03;;-4.0182406e+03;;-4.1036339e+03;;-4.1858288e+03;;-4.2614641e+03;;-4.3238258e+03;;-4.3679874e+03;;-4.3918546e+03;;-4.3955502e+03;;-4.3804606e+03;;-4.3499213e+03;;-4.3126217e+03;;-4.2845847e+03;;-4.2819318e+03;;-4.3065482e+03;;-4.3418723e+03;;-4.3660465e+03;;-4.3660465e+03
-2.8377234e+01;;-2.8377234e+01;;-2.8438080e+01;;-2.9443398e+01;;-3.3717996e+01;;-4.0132234e+01;;-4.8175875e+01;;-5.7032144e+01;;-6.5420061e+01;;-7.0022340e+01;;-6.9561106e+01;;-6.7884510e+01;;-6.6368405e+01;;-6.6532032e+01;;-6.9220786e+01;;-7.4360128e+01;;-8.1131242e+01;;-8.8133527e+01;;-9.3972963e+01;;-9.7940141e+01;;-1.0031731e+02;;-1.0213738e+02;;-1.0445604e+02;;-1.0735471e+02;;-1.1032076e+02;;-1.1452250e+02;;-1.2022531e+02;;-1.2557441e+02;;-1.4162993e+02;;-1.7717896e+02;;-2.2850898e+02;;-2.9704986e+02;;-3.8602095e+02;;-4.9980666e+02;;-6.4353844e+02;;-8.2211732e+02;;-1.0413519e+03;;-1.3066620e+03;;-1.6219261e+03;;-1.9871195e+03;;-2.3935961e+03;;-2.8165067e+03;;-3.1996523e+03;;-3.4647150e+03;;-3.6247143e+03;;-3.7308503e+03;;-3.8141110e+03;;-3.8955021e+03;;-3.9895753e+03;;-4.0978771e+03;;-4.2065989e+03;;-4.2978286e+03;;-4.3615703e+03;;-4.3977085e+03;;-4.4104229e+03;;-4.4024149e+03;;-4.3742189e+03;;-4.3289260e+03;;-4.2785460e+03;;-4.2444800e+03;;-4.2456798e+03;;-4.2810451e+03;;-4.3274794e+03;;-4.3580839e+03;;-4.3580839e+03
-2.8384915e+01;;-2.8384915e+01;;-2.8737709e+01;;-3.2390266e+01;;-3.8694168e+01;;-4.6968016e+01;;-5.6812441e+01;;-6.7381152e+01;;-7.7149092e+01;;-8.1339339e+01;;-7.7885538e+01;;-7.1803055e+01;;-6.7350612e+01;;-6.7454692e+01;;-7.1889057e+01;;-7.8528372e+01;;-8.5682231e+01;;-9.2275704e+01;;-9.7678267e+01;;-1.0140723e+02;;-1.0349116e+02;;-1.0571666e+02;;-1.1027781e+02;;-1.1778874e+02;;-1.2796341e+02;;-1.3891965e+02;;-1.4866026e+02;;-1.5639799e+02;;-1.7525060e+02;;-2.1853444e+02;;-2.8117198e+02;;-3.6457404e+02;;-4.7232603e+02;;-6.0937053e+02;;-7.8061987e+02;;-9.9124999e+02;;-1.2469349e+03;;-1.5518951e+03;;-1.9071422e+03;;-2.3068286e+03;;-2.7310788e+03;;-3.1323093e+03;;-3.4247613e+03;;-3.5924529e+03;;-3.6920265e+03;;-3.7618609e+03;;-3.8282725e+03;;-3.9120638e+03;;-4.0220703e+03;;-4.1470000e+03;;-4.2617812e+03;;-4.3460774e+03;;-4.3955116e+03;;-4.4173987e+03;;-4.4198100e+03;;-4.4050492e+03;;-4.3714393e+03;;-4.3212181e+03;;-4.2677642e+03;;-4.2339204e+03;;-4.2378457e+03;;-4.2759591e+03;;-4.3236747e+03;;-4.3544716e+03;;-4.3544716e+03
-2.8427543e+01;;-2.8427543e+01;;-3.0545554e+01;;-3.6229159e+01;;-4.4178056e+01;;-5.4101202e+01;;-6.5488688e+01;;-7.7536176e+01;;-8.8076886e+01;;-8.9749099e+01;;-8.2310802e+01;;-7.3398472e+01;;-6.7493593e+01;;-6.8584034e+01;;-7.4971606e+01;;-8.3042814e+01;;-9.0381463e+01;;-9.6253180e+01;;-1.0091514e+02;;-1.0566694e+02;;-1.1515261e+02;;-1.2523045e+02;;-1.3427533e+02;;-1.4559879e+02;;-1.6040346e+02;;-1.7637310e+02;;-1.9011716e+02;;-2.0059186e+02;;-2.1984861e+02;;-2.7032668e+02;;-3.4545650e+02;;-4.4583566e+02;;-5.7520512e+02;;-7.3890934e+02;;-9.4125225e+02;;-1.1875350e+03;;-1.4823929e+03;;-1.8274844e+03;;-2.2183861e+03;;-2.6381626e+03;;-3.0445431e+03;;-3.3525222e+03;;-3.5286224e+03;;-3.6363244e+03;;-3.7188203e+03;;-3.7973324e+03;;-3.8849457e+03;;-3.9902156e+03;;-4.1109423e+03;;-4.2304877e+03;;-4.3269086e+03;;-4.3884466e+03;;-4.4188152e+03;;-4.4289275e+03;;-4.4262516e+03;;-4.4109593e+03;;-4.3797470e+03;;-4.3339627e+03;;-4.2856447e+03;;-4.2547966e+03;;-4.2564386e+03;;-4.2869702e+03;;-4.3257732e+03;;-4.3509481e+03;;-4.3509481e+03
-2.8945630e+01;;-2.8945630e+01;;-3.3427603e+01;;-4.0557674e+01;;-4.9873151e+01;;-6.1178889e+01;;-7.3802500e+01;;-8.6726980e+01;;-9.6781568e+01;;-9.4217914e+01;;-8.5107492e+01;;-7.5765465e+01;;-7.0317312e+01;;-7.2766742e+01;;-7.9991173e+01;;-8.8263099e+01;;-9.4969275e+01;;-1.0013040e+02;;-1.1001617e+02;;-1.2574292e+02;;-1.4256393e+02;;-1.5775048e+02;;-1.7058201e+02;;-1.8587911e+02;;-2.0564486e+02;;-2.2697924e+02;;-2.4529156e+02;;-2.5914091e+02;;-2.7820080e+02;;-3.3337661e+02;;-4.2129964e+02;;-5.4025751e+02;;-6.9358953e+02;;-8.8674344e+02;;-1.1229558e+03;;-1.4070217e+03;;-1.7414201e+03;;-2.1230576e+03;;-2.5374996e+03;;-2.9468104e+03;;-3.2684779e+03;;-3.4495541e+03;;-3.5584130e+03;;-3.6540065e+03;;-3.7593910e+03;;-3.8743389e+03;;-3.9931207e+03;;-4.1108906e+03;;-4.2207064e+03;;-4.3123187e+03;;-4.3769893e+03;;-4.4138171e+03;;-4.4299909e+03;;-4.4343563e+03;;-4.4313116e+03;;-4.4196295e+03;;-4.3959081e+03;;-4.3604290e+03;;-4.3214804e+03;;-4.2936125e+03;;-4.2884735e+03;;-4.3049576e+03;;-4.3294177e+03;;-4.3461351e+03;;-4.3461351e+03
-3.1251894e+01;;-3.1251894e+01;;-3.7078443e+01;;-4.5561967e+01;;-5.6321238e+01;;-6.9000657e+01;;-8.2994480e+01;;-9.6770118e+01;;-1.0557837e+02;;-9.9377266e+01;;-8.9262078e+01;;-8.0550786e+01;;-7.6765430e+01;;-8.0198220e+01;;-8.7285591e+01;;-9.4534029e+01;;-1.0101715e+02;;-1.1489581e+02;;-1.3473405e+02;;-1.5809249e+02;;-1.8183281e+02;;-2.0241025e+02;;-2.1933038e+02;;-2.3917534e+02;;-2.6481279e+02;;-2.9252763e+02;;-3.1635636e+02;;-3.3444080e+02;;-3.5473831e+02;;-4.0990374e+02;;-5.0942214e+02;;-6.4745152e+02;;-8.2597972e+02;;-1.0500013e+03;;-1.3209809e+03;;-1.6420946e+03;;-2.0119906e+03;;-2.4194208e+03;;-2.8326721e+03;;-3.1791289e+03;;-3.3853039e+03;;-3.5010665e+03;;-3.5966851e+03;;-3.7133040e+03;;-3.8540646e+03;;-3.9994398e+03;;-4.1298534e+03;;-4.2352663e+03;;-4.3138273e+03;;-4.3680599e+03;;-4.4023914e+03;;-4.4219458e+03;;-4.4317253e+03;;-4.4354377e+03;;-4.4344686e+03;;-4.4277212e+03;;-4.4128611e+03;;-4.3891291e+03;;-4.3603880e+03;;-4.3354441e+03;;-4.3232166e+03;;-4.3257118e+03;;-4.3361753e+03;;-4.3446540e+03;;-4.3446540e+03
-3.4350892e+01;;-3.4350892e+01;;-4.0986980e+01;;-5.0582572e+01;;-6.2681516e+01;;-7.6784060e+01;;-9.2252334e+01;;-1.0717827e+02;;-1.1515342e+02;;-1.0643695e+02;;-9.5195740e+01;;-8.7051752e+01;;-8.5168197e+01;;-8.9217423e+01;;-9.5639696e+01;;-1.0303554e+02;;-1.1910758e+02;;-1.4229170e+02;;-1.7064015e+02;;-2.0208297e+02;;-2.3360429e+02;;-2.6053195e+02;;-2.8224343e+02;;-3.0747737e+02;;-3.4018449e+02;;-3.7563194e+02;;-4.0620946e+02;;-4.2960162e+02;;-4.5344939e+02;;-5.0556782e+02;;-6.1161948e+02;;-7.6657742e+02;;-9.6923203e+02;;-1.2229654e+03;;-1.5265076e+03;;-1.8794212e+03;;-2.2740037e+03;;-2.6858720e+03;;-3.0576672e+03;;-3.3121634e+03;;-3.4682665e+03;;-3.5817262e+03;;-3.6986866e+03;;-3.8404813e+03;;-3.9969890e+03;;-4.1421728e+03;;-4.2553235e+03;;-4.3301615e+03;;-4.3726328e+03;;-4.3948258e+03;;-4.4082163e+03;;-4.4190013e+03;;-4.4279602e+03;;-4.4337108e+03;;-4.4354631e+03;;-4.4330072e+03;;-4.4255337e+03;;-4.4118380e+03;;-4.3924767e+03;;-4.3717296e+03;;-4.3560891e+03;;-4.3494017e+03;;-4.3498241e+03;;-4.3520670e+03;;-4.3520670e+03
-3.6986714e+01;;-3.6986714e+01;;-4.4222809e+01;;-5.4676587e+01;;-6.7842678e+01;;-8.3141569e+01;;-9.9886231e+01;;-1.1591592e+02;;-1.2362844e+02;;-1.1332837e+02;;-1.0106555e+02;;-9.3212691e+01;;-9.2903445e+01;;-9.7491709e+01;;-1.0494491e+02;;-1.2235683e+02;;-1.4799539e+02;;-1.8031788e+02;;-2.1794542e+02;;-2.5896258e+02;;-2.9981139e+02;;-3.3438227e+02;;-3.6178355e+02;;-3.9323522e+02;;-4.3396327e+02;;-4.7831113e+02;;-5.1683343e+02;;-5.4677421e+02;;-5.7761424e+02;;-6.2986840e+02;;-7.3454372e+02;;-8.9860370e+02;;-1.1196369e+03;;-1.3973495e+03;;-1.7266686e+03;;-2.1001044e+03;;-2.5003644e+03;;-2.8854457e+03;;-3.1861996e+03;;-3.3993179e+03;;-3.5642288e+03;;-3.7103050e+03;;-3.8567886e+03;;-4.0063174e+03;;-4.1464353e+03;;-4.2610066e+03;;-4.3403253e+03;;-4.3842290e+03;;-4.4009132e+03;;-4.4037841e+03;;-4.4056464e+03;;-4.4125087e+03;;-4.4224861e+03;;-4.4307841e+03;;-4.4349435e+03;;-4.4353805e+03;;-4.4327023e+03;;-4.4261052e+03;;-4.4146586e+03;;-4.3997523e+03;;-4.3854187e+03;;-4.3754486e+03;;-4.3705653e+03;;-4.3689794e+03;;-4.3689794e+03
-3.9050762e+01;;-3.9050762e+01;;-4.6708430e+01;;-5.7762299e+01;;-7.1665826e+01;;-8.7772365e+01;;-1.0533072e+02;;-1.2193419e+02;;-1.2874506e+02;;-1.1764469e+02;;-1.0511423e+02;;-9.7897431e+01;;-9.8755979e+01;;-1.0565813e+02;;-1.2417763e+02;;-1.5162726e+02;;-1.8697133e+02;;-2.2951140e+02;;-2.7815839e+02;;-3.3078279e+02;;-3.8271747e+02;;-4.2598422e+02;;-4.5968897e+02;;-4.9795628e+02;;-5.4778962e+02;;-6.0248390e+02;;-6.5045714e+02;;-6.8851314e+02;;-7.2821065e+02;;-7.8897848e+02;;-8.9347346e+02;;-1.0550308e+03;;-1.2791988e+03;;-1.5656345e+03;;-1.9053887e+03;;-2.2784635e+03;;-2.6563350e+03;;-2.9891543e+03;;-3.2532869e+03;;-3.4719524e+03;;-3.6679108e+03;;-3.8511027e+03;;-4.0172241e+03;;-4.1553986e+03;;-4.2598008e+03;;-4.3332668e+03;;-4.3811007e+03;;-4.4061722e+03;;-4.4120181e+03;;-4.4073846e+03;;-4.4038303e+03;;-4.4080755e+03;;-4.4182413e+03;;-4.4281653e+03;;-4.4340303e+03;;-4.4361320e+03;;-4.4359584e+03;;-4.4335853e+03;;-4.4280514e+03;;-4.4193510e+03;;-4.4093367e+03;;-4.4004628e+03;;-4.3941733e+03;;-4.3909263e+03;;-4.3909263e+03
-4.0967451e+01;;-4.0967451e+01;;-4.8957647e+01;;-6.0469574e+01;;-7.4902182e+01;;-9.1506535e+01;;-1.0942380e+02;;-1.2588558e+02;;-1.3014790e+02;;-1.1901724e+02;;-1.0744529e+02;;-1.0180131e+02;;-1.0580244e+02;;-1.2446460e+02;;-1.5303305e+02;;-1.9046790e+02;;-2.3677266e+02;;-2.9124909e+02;;-3.5283823e+02;;-4.1899419e+02;;-4.8380211e+02;;-5.3712290e+02;;-5.7794299e+02;;-6.2364366e+02;;-6.8343026e+02;;-7.4965109e+02;;-8.0853639e+02;;-8.5658519e+02;;-9.0770628e+02;;-9.8347415e+02;;-1.0984797e+03;;-1.2610470e+03;;-1.4744788e+03;;-1.7427484e+03;;-2.0582876e+03;;-2.3925505e+03;;-2.7209451e+03;;-3.0239844e+03;;-3.2894922e+03;;-3.5220222e+03;;-3.7400593e+03;;-3.9478611e+03;;-4.1250096e+03;;-4.2496385e+03;;-4.3229524e+03;;-4.3654240e+03;;-4.3942261e+03;;-4.4123867e+03;;-4.4172527e+03;;-4.4120367e+03;;-4.4063913e+03;;-4.4080360e+03;;-4.4167328e+03;;-4.4267528e+03;;-4.4334976e+03;;-4.4365181e+03;;-4.4374189e+03;;-4.4370441e+03;;-4.4350669e+03;;-4.4311706e+03;;-4.4258282e+03;;-4.4200299e+03;;-4.4148910e+03;;-4.4117406e+03;;-4.4117406e+03
-4.2772338e+01;;-4.2772338e+01;;-5.1043870e+01;;-6.2931156e+01;;-7.7768038e+01;;-9.4672915e+01;;-1.1263540e+02;;-1.2846413e+02;;-1.2977380e+02;;-1.1931522e+02;;-1.0973892e+02;;-1.0747858e+02;;-1.2385370e+02;;-1.5235326e+02;;-1.9083438e+02;;-2.3950551e+02;;-2.9806356e+02;;-3.6623318e+02;;-4.4307919e+02;;-5.2523292e+02;;-6.0500257e+02;;-6.6960728e+02;;-7.1800582e+02;;-7.7112539e+02;;-8.4087731e+02;;-9.1904998e+02;;-9.9004205e+02;;-1.0504049e+03;;-1.1162794e+03;;-1.2109335e+03;;-1.3469762e+03;;-1.5224134e+03;;-1.7295333e+03;;-1.9602981e+03;;-2.2040662e+03;;-2.4678593e+03;;-2.7601585e+03;;-3.0550877e+03;;-3.3142321e+03;;-3.5321109e+03;;-3.7439757e+03;;-3.9639221e+03;;-4.1578948e+03;;-4.2870960e+03;;-4.3510246e+03;;-4.3802873e+03;;-4.4004578e+03;;-4.4161277e+03;;-4.4222030e+03;;-4.4186371e+03;;-4.4127540e+03;;-4.4120565e+03;;-4.4180289e+03;;-4.4266421e+03;;-4.4334019e+03;;-4.4369111e+03;;-4.4382212e+03;;-4.4385056e+03;;-4.4380775e+03;;-4.4368240e+03;;-4.4347062e+03;;-4.4318765e+03;;-4.4288711e+03;;-4.4268144e+03;;-4.4268144e+03
-4.4562421e+01;;-4.4562421e+01;;-5.3119046e+01;;-6.5389596e+01;;-8.0644251e+01;;-9.7869912e+01;;-1.1587884e+02;;-1.3101502e+02;;-1.3031921e+02;;-1.2073686e+02;;-1.1324979e+02;;-1.2306638e+02;;-1.4995705e+02;;-1.8823175e+02;;-2.3763847e+02;;-2.9867030e+02;;-3.7121720e+02;;-4.5552504e+02;;-5.5016705e+02;;-6.5067049e+02;;-7.4710101e+02;;-8.2362803e+02;;-8.7934390e+02;;-9.3866225e+02;;-1.0166309e+03;;-1.1054544e+03;;-1.1890581e+03;;-1.2648771e+03;;-1.3503202e+03;;-1.4682611e+03;;-1.6285799e+03;;-1.8227893e+03;;-2.0275254e+03;;-2.2145843e+03;;-2.3887869e+03;;-2.6034956e+03;;-2.8727977e+03;;-3.1461136e+03;;-3.3606507e+03;;-3.5185200e+03;;-3.6930308e+03;;-3.9152381e+03;;-4.1359305e+03;;-4.2907718e+03;;-4.3659682e+03;;-4.3949919e+03;;-4.4106911e+03;;-4.4226465e+03;;-4.4279260e+03;;-4.4256883e+03;;-4.4205192e+03;;-4.4181602e+03;;-4.4210737e+03;;-4.4274024e+03;;-4.4334864e+03;;-4.4371643e+03;;-4.4386474e+03;;-4.4390482e+03;;-4.4390475e+03;;-4.4387834e+03;;-4.4381834e+03;;-4.4371720e+03;;-4.4359117e+03;;-4.4349751e+03;;-4.4349751e+03
-4.7483718e+01;;-4.7483718e+01;;-5.6542596e+01;;-6.9506684e+01;;-8.5560842e+01;;-1.0355122e+02;;-1.2196679e+02;;-1.3648227e+02;;-1.3366694e+02;;-1.2396389e+02;;-1.2263390e+02;;-1.4621624e+02;;-1.8292160e+02;;-2.3162055e+02;;-2.9312761e+02;;-3.6794764e+02;;-4.5668526e+02;;-5.5940508e+02;;-6.7405022e+02;;-7.9465727e+02;;-9.0843571e+02;;-9.9623910e+02;;-1.0575680e+03;;-1.1195307e+03;;-1.2003734e+03;;-1.2949446e+03;;-1.3904685e+03;;-1.4868960e+03;;-1.5995922e+03;;-1.7464775e+03;;-1.9327886e+03;;-2.1428958e+03;;-2.3398646e+03;;-2.4916176e+03;;-2.6276521e+03;;-2.8213078e+03;;-3.0776398e+03;;-3.3201307e+03;;-3.4697136e+03;;-3.5468461e+03;;-3.6646355e+03;;-3.8726365e+03;;-4.1101545e+03;;-4.2890278e+03;;-4.3792160e+03;;-4.4114100e+03;;-4.4233235e+03;;-4.4302195e+03;;-4.4330012e+03;;-4.4312008e+03;;-4.4269696e+03;;-4.4238397e+03;;-4.4244495e+03;;-4.4286388e+03;;-4.4337507e+03;;-4.4372902e+03;;-4.4388092e+03;;-4.4392027e+03;;-4.4392554e+03;;-4.4392231e+03;;-4.4390911e+03;;-4.4387950e+03;;-4.4383689e+03;;-4.4380313e+03;;-4.4380313e+03
-5.2379503e+01;;-5.2379503e+01;;-6.2293053e+01;;-7.6442477e+01;;-9.3897635e+01;;-1.1317077e+02;;-1.3237270e+02;;-1.4560908e+02;;-1.3931777e+02;;-1.2855174e+02;;-1.4238612e+02;;-1.7532720e+02;;-2.2173720e+02;;-2.8169205e+02;;-3.5659434e+02;;-4.4683808e+02;;-5.5350709e+02;;-6.7628632e+02;;-8.1215124e+02;;-9.5304771e+02;;-1.0825296e+03;;-1.1783608e+03;;-1.2409428e+03;;-1.2980088e+03;;-1.3701988e+03;;-1.4603219e+03;;-1.5673709e+03;;-1.6941262e+03;;-1.8458653e+03;;-2.0289247e+03;;-2.2420378e+03;;-2.4621813e+03;;-2.6462467e+03;;-2.7697729e+03;;-2.8846532e+03;;-3.0719177e+03;;-3.3254557e+03;;-3.5495293e+03;;-3.6563583e+03;;-3.6771122e+03;;-3.7409608e+03;;-3.9106855e+03;;-4.1291482e+03;;-4.3027315e+03;;-4.3930590e+03;;-4.4243007e+03;;-4.4326889e+03;;-4.4354988e+03;;-4.4359656e+03;;-4.4340809e+03;;-4.4306587e+03;;-4.4277141e+03;;-4.4274590e+03;;-4.4303470e+03;;-4.4344568e+03;;-4.4375044e+03;;-4.4388523e+03;;-4.4391961e+03;;-4.4392478e+03;;-4.4392515e+03;;-4.4391943e+03;;-4.4390244e+03;;-4.4387661e+03;;-4.4385602e+03;;-4.4385602e+03
-5.8581824e+01;;-5.8581824e+01;;-6.9555656e+01;;-8.5162985e+01;;-1.0427877e+02;;-1.2503469e+02;;-1.4479858e+02;;-1.5446457e+02;;-1.4441108e+02;;-1.3881232e+02;;-1.6596752e+02;;-2.0853675e+02;;-2.6526584e+02;;-3.3743356e+02;;-4.2638340e+02;;-5.3300918e+02;;-6.5829982e+02;;-8.0124682e+02;;-9.5723880e+02;;-1.1151139e+03;;-1.2538440e+03;;-1.3499538e+03;;-1.4061150e+03;;-1.4491671e+03;;-1.5055339e+03;;-1.5917998e+03;;-1.7160541e+03;;-1.8785523e+03;;-2.0741830e+03;;-2.2976700e+03;;-2.5388078e+03;;-2.7684632e+03;;-2.9420615e+03;;-3.0440651e+03;;-3.1413284e+03;;-3.3203503e+03;;-3.5712817e+03;;-3.7912210e+03;;-3.8904384e+03;;-3.8956337e+03;;-3.9240468e+03;;-4.0395724e+03;;-4.2023497e+03;;-4.3362934e+03;;-4.4073284e+03;;-4.4316687e+03;;-4.4370521e+03;;-4.4377342e+03;;-4.4369369e+03;;-4.4348687e+03;;-4.4320928e+03;;-4.4299971e+03;;-4.4300427e+03;;-4.4323802e+03;;-4.4355156e+03;;-4.4377882e+03;;-4.4387759e+03;;-4.4390354e+03;;-4.4391145e+03;;-4.4391680e+03;;-4.4391270e+03;;-4.4389153e+03;;-4.4385809e+03;;-4.4383168e+03;;-4.4383168e+03
-6.4559043e+01;;-6.4559043e+01;;-7.6501174e+01;;-9.3407130e+01;;-1.1385327e+02;;-1.3559843e+02;;-1.5500469e+02;;-1.5817270e+02;;-1.4602081e+02;;-1.5701603e+02;;-1.9282516e+02;;-2.4439582e+02;;-3.1159420e+02;;-3.9617700e+02;;-4.9902248e+02;;-6.2153494e+02;;-7.6406858e+02;;-9.2426173e+02;;-1.0947602e+03;;-1.2597218e+03;;-1.3946705e+03;;-1.4831608e+03;;-1.5321778e+03;;-1.5667935e+03;;-1.6175448e+03;;-1.7076489e+03;;-1.8473698e+03;;-2.0358039e+03;;-2.2664034e+03;;-2.5293141e+03;;-2.8050954e+03;;-3.0575642e+03;;-3.2402111e+03;;-3.3413546e+03;;-3.4286553e+03;;-3.5866862e+03;;-3.8124907e+03;;-4.0149862e+03;;-4.1147042e+03;;-4.1278252e+03;;-4.1400153e+03;;-4.2032233e+03;;-4.2979693e+03;;-4.3778202e+03;;-4.4207231e+03;;-4.4354567e+03;;-4.4384325e+03;;-4.4383251e+03;;-4.4370835e+03;;-4.4349163e+03;;-4.4325403e+03;;-4.4311844e+03;;-4.4316816e+03;;-4.4337064e+03;;-4.4360407e+03;;-4.4376492e+03;;-4.4383686e+03;;-4.4386293e+03;;-4.4388191e+03;;-4.4390024e+03;;-4.4390428e+03;;-4.4388361e+03;;-4.4384580e+03;;-4.4381536e+03;;-4.4381536e+03
-6.8541194e+01;;-6.8541194e+01;;-8.1057187e+01;;-9.8692541e+01;;-1.1968220e+02;;-1.4147402e+02;;-1.5931466e+02;;-1.5616241e+02;;-1.4776740e+02;;-1.7566836e+02;;-2.2067925e+02;;-2.8123477e+02;;-3.5867956e+02;;-4.5472738e+02;;-5.7016569e+02;;-7.0624655e+02;;-8.6204271e+02;;-1.0327663e+03;;-1.2068302e+03;;-1.3643428e+03;;-1.4886181e+03;;-1.5741152e+03;;-1.6261211e+03;;-1.6662142e+03;;-1.7235678e+03;;-1.8175499e+03;;-1.9547513e+03;;-2.1411230e+03;;-2.3848489e+03;;-2.6823621e+03;;-3.0073056e+03;;-3.3094949e+03;;-3.5336573e+03;;-3.6625546e+03;;-3.7524785e+03;;-3.8780212e+03;;-4.0474518e+03;;-4.2003040e+03;;-4.2821911e+03;;-4.3013262e+03;;-4.3077572e+03;;-4.3344290e+03;;-4.3759279e+03;;-4.4115334e+03;;-4.4308836e+03;;-4.4375833e+03;;-4.4388702e+03;;-4.4385484e+03;;-4.4373050e+03;;-4.4351741e+03;;-4.4328258e+03;;-4.4314024e+03;;-4.4315969e+03;;-4.4330978e+03;;-4.4349907e+03;;-4.4365210e+03;;-4.4374621e+03;;-4.4380088e+03;;-4.4384369e+03;;-4.4388083e+03;;-4.4389874e+03;;-4.4388803e+03;;-4.4385836e+03;;-4.4383341e+03;;-4.4383341e+03
